ply
format ascii 1.0
comment : created from Kinect user tracker
element vertex 832
property float x
property float y
property float z
property int userId
end_header
537.9498 282.4237 1936.0 1
673.9655 288.8424 1980.0 1
517.7768 262.25055 1936.0 1
537.9498 262.25055 1936.0 1
554.9518 260.7605 1925.0 1
595.0688 260.7605 1925.0 1
649.70435 266.72073 1969.0 1
662.7328 263.7406 1947.0 1
488.28122 247.57921 1980.0 1
500.43088 243.45288 1947.0 1
517.7768 242.07744 1936.0 1
534.8933 240.70201 1925.0 1
554.9518 240.70201 1925.0 1
572.02325 239.4516 1915.0 1
588.57715 238.07617 1904.0 1
608.4169 238.07617 1904.0 1
631.88617 239.4516 1915.0 1
482.85587 224.42593 1958.0 1
497.60358 221.9043 1936.0 1
517.7768 221.9043 1936.0 1
532.1147 219.49728 1915.0 1
548.89777 218.23645 1904.0 1
568.7375 218.23645 1904.0 1
585.4859 217.09026 1894.0 1
608.4169 218.23645 1904.0 1
624.95685 217.09026 1894.0 1
648.0961 218.23645 1904.0 1
675.30286 220.64348 1925.0 1
715.22876 226.94757 1980.0 1
473.08182 208.7126 2003.0 1
482.85587 204.02359 1958.0 1
497.60358 201.7312 1936.0 1
514.8349 200.58499 1925.0 1
532.1147 199.543 1915.0 1
546.0149 197.3548 1894.0 1
565.7504 197.3548 1894.0 1
585.4859 197.3548 1894.0 1
598.5109 195.1666 1873.0 1
628.25653 198.39679 1904.0 1
648.0961 198.39679 1904.0 1
660.569 196.2086 1883.0 1
473.08182 187.84135 2003.0 1
480.1432 182.58968 1947.0 1
497.60358 181.55809 1936.0 1
514.8349 180.52652 1925.0 1
532.1147 179.58871 1915.0 1
546.0149 177.61934 1894.0 1
562.46466 176.58775 1883.0 1
582.08545 176.58775 1883.0 1
601.7064 176.58775 1883.0 1
624.95685 177.61934 1894.0 1
655.24426 180.52652 1925.0 1
452.21063 166.97006 2003.0 1
462.45343 163.21887 1958.0 1
480.1432 162.30191 1947.0 1
497.60358 161.38495 1936.0 1
512.1604 159.63438 1915.0 1
529.0581 158.71742 1904.0 1
546.0149 157.88383 1894.0 1
565.7504 157.88383 1894.0 1
582.08545 156.96687 1883.0 1
605.22144 157.88383 1894.0 1
631.88617 159.63438 1915.0 1
655.24426 160.46799 1925.0 1
447.018 144.4212 1980.0 1
465.05148 143.61887 1969.0 1
480.1432 142.01419 1947.0 1
494.7763 140.4095 1925.0 1
512.1604 139.6801 1915.0 1
529.0581 138.87776 1904.0 1
546.0149 138.14836 1894.0 1
565.7504 138.14836 1894.0 1
585.4859 138.14836 1894.0 1
608.4169 138.87776 1904.0 1
635.18585 140.4095 1925.0 1
655.24426 140.4095 1925.0 1
444.53455 123.10186 1969.0 1
465.05148 123.10186 1969.0 1
480.1432 121.72642 1947.0 1
497.60358 121.0387 1936.0 1
514.8349 120.350975 1925.0 1
529.0581 119.038055 1904.0 1
546.0149 118.41286 1894.0 1
562.46466 117.725136 1883.0 1
585.4859 118.41286 1894.0 1
608.4169 119.038055 1904.0 1
642.44507 121.72642 1947.0 1
673.9655 123.78958 1980.0 1
694.5972 123.78958 1980.0 1
452.21063 104.3563 2003.0 1
467.64954 103.158 1980.0 1
480.1432 101.4387 1947.0 1
497.60358 100.8656 1936.0 1
517.7768 100.8656 1936.0 1
534.8933 100.292496 1925.0 1
554.9518 100.292496 1925.0 1
568.7375 99.198395 1904.0 1
591.97754 99.7715 1915.0 1
618.6424 100.8656 1936.0 1
646.0747 102.011795 1958.0 1
681.79443 104.3563 2003.0 1
694.5972 103.158 1980.0 1
444.26022 85.985855 2063.0 1
449.7272 83.02658 1992.0 1
467.64954 82.52642 1980.0 1
485.56854 82.06794 1969.0 1
497.60358 80.6925 1936.0 1
514.8349 80.23402 1925.0 1
534.8933 80.23402 1925.0 1
554.9518 80.23402 1925.0 1
578.29614 80.6925 1936.0 1
598.4692 80.6925 1936.0 1
622.1574 81.15098 1947.0 1
649.70435 82.06794 1969.0 1
413.7157 66.490005 2127.0 1
430.5509 65.677246 2101.0 1
447.05972 64.89575 2076.0 1
457.62903 63.36401 2027.0 1
473.08182 62.61377 2003.0 1
485.56854 61.55093 1969.0 1
500.43088 60.86321 1947.0 1
520.7187 60.86321 1947.0 1
544.0629 61.20707 1958.0 1
570.80756 61.89479 1980.0 1
588.15344 61.55093 1969.0 1
608.67035 61.55093 1969.0 1
632.70245 61.89479 1980.0 1
378.767 45.45205 2181.0 1
396.33853 44.86853 2153.0 1
408.65854 43.78485 2101.0 1
422.76367 42.992928 2063.0 1
441.67606 42.74285 2051.0 1
460.33823 42.49277 2039.0 1
478.7503 42.24269 2027.0 1
493.95316 41.74253 2003.0 1
506.08548 41.03397 1969.0 1
526.60254 41.03397 1969.0 1
547.11945 41.03397 1969.0 1
574.26697 41.51329 1992.0 1
591.4392 41.26321 1980.0 1
615.7803 41.51329 1992.0 1
643.8866 41.99261 2015.0 1
360.4487 23.007338 2208.0 1
373.90433 22.434238 2153.0 1
389.15915 22.027859 2114.0 1
406.12994 21.756939 2088.0 1
420.30457 21.371399 2051.0 1
433.92358 20.996279 2015.0 1
454.91983 20.996279 2015.0 1
475.91608 20.996279 2015.0 1
488.28122 20.63158 1980.0 1
508.91275 20.63158 1980.0 1
529.54443 20.63158 1980.0 1
550.17596 20.63158 1980.0 1
580.8976 20.996279 2015.0 1
630.30927 21.246359 2039.0 1
337.44125 0.0 2208.0 1
356.04105 0.0 2181.0 1
369.389 0.0 2127.0 1
386.76602 0.0 2101.0 1
401.26727 0.0 2063.0 1
417.84543 0.0 2039.0 1
428.9706 0.0 1992.0 1
449.7272 0.0 1992.0 1
465.05148 0.0 1969.0 1
485.56854 0.0 1969.0 1
503.25818 0.0 1958.0 1
526.60254 0.0 1969.0 1
556.5669 0.0 2003.0 1
339.73364 -23.163637 2223.0 1
353.75558 -22.580118 2167.0 1
364.87366 -21.892399 2101.0 1
382.16385 -21.631899 2076.0 1
401.26727 -21.496439 2063.0 1
415.38632 -21.121319 2027.0 1
428.9706 -20.75662 1992.0 1
444.53455 -20.51696 1969.0 1
462.45343 -20.40234 1958.0 1
480.1432 -20.28772 1947.0 1
497.60358 -20.1731 1936.0 1
514.8349 -20.058481 1925.0 1
541.0064 -20.28772 1947.0 1
337.44125 -46.014675 2208.0 1
349.34793 -44.597557 2140.0 1
364.87366 -43.784798 2101.0 1
382.16385 -43.263798 2076.0 1
398.9332 -42.742798 2051.0 1
412.9272 -41.992558 2015.0 1
424.01764 -41.03392 1969.0 1
442.05112 -40.80468 1958.0 1
457.25732 -40.3462 1936.0 1
474.71786 -40.116962 1925.0 1
489.37875 -39.67932 1904.0 1
512.1604 -39.90856 1915.0 1
529.0581 -39.67932 1904.0 1
554.9518 -40.116962 1925.0 1
333.3149 -68.1781 2181.0 1
347.2257 -66.49006 2127.0 1
362.616 -65.27092 2088.0 1
379.77072 -64.48942 2063.0 1
398.9332 -64.114296 2051.0 1
410.46808 -62.61382 2003.0 1
424.01764 -61.55098 1969.0 1
439.5677 -60.86326 1947.0 1
457.25732 -60.519398 1936.0 1
474.71786 -60.175537 1925.0 1
486.80847 -59.20648 1894.0 1
506.54404 -59.20648 1894.0 1
523.2229 -58.862617 1883.0 1
546.0149 -59.20648 1894.0 1
559.4776 -58.550014 1873.0 1
339.73364 -92.65466 2223.0 1
345.10352 -88.11154 2114.0 1
362.616 -87.02786 2088.0 1
379.77072 -85.985855 2063.0 1
396.59912 -84.98554 2039.0 1
405.75476 -82.52642 1980.0 1
421.6488 -81.60946 1958.0 1
437.08426 -80.6925 1936.0 1
454.65927 -80.23402 1925.0 1
472.25177 -79.817215 1915.0 1
486.80847 -78.94194 1894.0 1
503.6021 -78.48346 1883.0 1
520.4443 -78.06666 1873.0 1
539.9609 -78.06666 1873.0 1
556.49054 -77.64986 1863.0 1
582.08545 -78.48346 1883.0 1
333.3149 -113.6301 2181.0 1
345.10352 -110.1394 2114.0 1
362.616 -108.7848 2088.0 1
377.5617 -106.8571 2051.0 1
391.93094 -104.9815 2015.0 1
403.50058 -102.5849 1969.0 1
419.28 -101.4387 1947.0 1
437.08426 -100.8656 1936.0 1
454.65927 -100.292496 1925.0 1
467.07303 -98.6774 1894.0 1
483.98117 -98.1043 1883.0 1
500.92764 -97.5833 1873.0 1
517.6656 -97.0623 1863.0 1
537.078 -97.0623 1863.0 1
553.5035 -96.5413 1853.0 1
578.9942 -97.5833 1873.0 1
605.22144 -98.6774 1894.0 1
331.17535 -135.48082 2167.0 1
345.10352 -132.16725 2114.0 1
362.616 -130.54173 2088.0 1
379.77072 -128.97874 2063.0 1
391.93094 -125.977776 2015.0 1
403.50058 -123.10186 1969.0 1
419.28 -121.72642 1947.0 1
434.60083 -120.350975 1925.0 1
447.3375 -118.41286 1894.0 1
464.36038 -117.725136 1883.0 1
483.98117 -117.725136 1883.0 1
500.92764 -117.09994 1873.0 1
514.8869 -115.84954 1853.0 1
534.1951 -115.84954 1853.0 1
553.5035 -115.84954 1853.0 1
578.9942 -117.09994 1873.0 1
329.03577 -157.03978 2153.0 1
345.10352 -154.19511 2114.0 1
360.53198 -151.4234 2076.0 1
377.5617 -149.5999 2051.0 1
389.59686 -146.09877 2003.0 1
403.50058 -143.61882 1969.0 1
416.9112 -141.21179 1936.0 1
434.60083 -140.40945 1925.0 1
447.3375 -138.14832 1894.0 1
464.36038 -137.34598 1883.0 1
481.41092 -136.61658 1873.0 1
500.92764 -136.61658 1873.0 1
514.8869 -135.15778 1853.0 1
534.1951 -135.15778 1853.0 1
553.5035 -135.15778 1853.0 1
575.90295 -135.88718 1863.0 1
329.03577 -179.47412 2153.0 1
347.2257 -177.30676 2127.0 1
360.53198 -173.0554 2076.0 1
377.5617 -170.9714 2051.0 1
391.93094 -167.97044 2015.0 1
403.50058 -164.13588 1969.0 1
414.5424 -160.46803 1925.0 1
432.34317 -159.63443 1915.0 1
447.3375 -157.88388 1894.0 1
464.36038 -156.96692 1883.0 1
481.41092 -156.13332 1873.0 1
500.92764 -156.13332 1873.0 1
514.8869 -154.46611 1853.0 1
534.1951 -154.46611 1853.0 1
553.5035 -154.46611 1853.0 1
578.9942 -156.13332 1873.0 1
618.6424 -161.385 1936.0 1
329.03577 -201.90836 2153.0 1
347.2257 -199.47008 2127.0 1
360.53198 -194.6873 2076.0 1
377.5617 -192.3428 2051.0 1
391.93094 -188.96672 2015.0 1
403.50058 -184.65283 1969.0 1
416.9112 -181.55809 1936.0 1
434.60083 -180.52652 1925.0 1
447.3375 -177.61934 1894.0 1
464.36038 -176.58775 1883.0 1
478.84064 -174.71216 1863.0 1
498.25317 -174.71216 1863.0 1
514.8869 -173.77435 1853.0 1
534.1951 -173.77435 1853.0 1
556.49054 -174.71216 1863.0 1
582.08545 -176.58775 1883.0 1
329.03577 -224.34259 2153.0 1
345.10352 -220.2788 2114.0 1
360.53198 -216.3192 2076.0 1
377.5617 -213.7142 2051.0 1
389.59686 -208.7126 2003.0 1
403.50058 -205.1698 1969.0 1
419.28 -202.8774 1947.0 1
437.08426 -201.7312 1936.0 1
449.69934 -198.39679 1904.0 1
464.36038 -196.2086 1883.0 1
478.84064 -194.1246 1863.0 1
498.25317 -194.1246 1863.0 1
514.8869 -193.0826 1853.0 1
537.078 -194.1246 1863.0 1
556.49054 -194.1246 1863.0 1
572.8117 -193.0826 1853.0 1
329.03577 -246.77684 2153.0 1
345.10352 -242.30666 2114.0 1
360.53198 -237.9511 2076.0 1
375.35266 -233.71016 2039.0 1
391.93094 -230.95927 2015.0 1
403.50058 -225.68675 1969.0 1
421.6488 -224.42593 1958.0 1
439.5677 -223.16512 1947.0 1
454.65927 -220.64348 1925.0 1
464.36038 -215.82944 1883.0 1
478.84064 -213.53703 1863.0 1
498.25317 -213.53703 1863.0 1
517.6656 -213.53703 1863.0 1
539.9609 -214.68324 1873.0 1
556.49054 -213.53703 1863.0 1
575.90295 -213.53703 1863.0 1
312.44025 -274.3377 2194.0 1
329.03577 -269.21106 2153.0 1
347.2257 -265.96002 2127.0 1
362.616 -261.08347 2088.0 1
377.5617 -256.457 2051.0 1
394.26505 -253.45604 2027.0 1
403.50058 -246.20372 1969.0 1
421.6488 -244.82828 1958.0 1
442.05112 -244.82828 1958.0 1
454.65927 -240.70195 1925.0 1
464.36038 -235.45027 1883.0 1
478.84064 -232.94948 1863.0 1
500.92764 -234.19987 1873.0 1
517.6656 -232.94948 1863.0 1
537.078 -232.94948 1863.0 1
556.49054 -232.94948 1863.0 1
578.9942 -234.19987 1873.0 1
329.03577 -291.64542 2153.0 1
345.10352 -286.3625 2114.0 1
360.53198 -281.215 2076.0 1
377.5617 -277.8285 2051.0 1
394.26505 -274.57745 2027.0 1
408.2139 -269.83636 1992.0 1
421.6488 -265.2307 1958.0 1
444.53455 -266.72076 1969.0 1
454.65927 -260.76053 1925.0 1
464.36038 -255.07121 1883.0 1
478.84064 -252.36201 1863.0 1
495.5787 -251.00742 1853.0 1
517.6656 -252.36201 1863.0 1
539.9609 -253.71661 1873.0 1
556.49054 -252.36201 1863.0 1
578.9942 -253.71661 1873.0 1
306.60156 -314.07965 2153.0 1
329.03577 -314.07965 2153.0 1
347.2257 -310.28677 2127.0 1
360.53198 -302.8469 2076.0 1
377.5617 -299.1999 2051.0 1
391.93094 -293.9482 2015.0 1
410.46808 -292.19766 2003.0 1
424.01764 -287.23773 1969.0 1
447.018 -288.8424 1980.0 1
454.65927 -280.819 1925.0 1
464.36038 -274.69205 1883.0 1
481.41092 -273.23325 1873.0 1
495.5787 -270.31564 1853.0 1
517.6656 -271.77444 1863.0 1
542.84375 -274.69205 1883.0 1
565.7504 -276.29672 1894.0 1
316.57004 -347.4549 2223.0 1
331.17535 -338.7021 2167.0 1
347.2257 -332.4501 2127.0 1
364.87366 -328.3863 2101.0 1
377.5617 -320.5713 2051.0 1
396.59912 -318.6957 2039.0 1
412.9272 -314.9445 2015.0 1
426.38644 -309.474 1980.0 1
447.018 -309.474 1980.0 1
459.85538 -304.3161 1947.0 1
464.36038 -294.3129 1883.0 1
481.41092 -292.7499 1873.0 1
498.25317 -291.1869 1863.0 1
520.4443 -292.7499 1873.0 1
542.84375 -294.3129 1883.0 1
316.57004 -370.61853 2223.0 1
331.17535 -361.28223 2167.0 1
345.10352 -352.44604 2114.0 1
362.616 -348.11133 2088.0 1
377.5617 -341.9427 2051.0 1
391.93094 -335.94077 2015.0 1
412.9272 -335.94077 2015.0 1
431.33942 -333.94012 2003.0 1
447.018 -330.10556 1980.0 1
459.85538 -324.60382 1947.0 1
464.36038 -313.93375 1883.0 1
481.41092 -312.26654 1873.0 1
498.25317 -310.59933 1863.0 1
520.4443 -312.26654 1873.0 1
546.0149 -315.76767 1894.0 1
312.44025 -388.6451 2194.0 1
331.17535 -383.86234 2167.0 1
347.2257 -376.77673 2127.0 1
362.616 -369.8683 2088.0 1
379.77072 -365.43976 2063.0 1
394.26505 -359.06274 2027.0 1
410.46808 -354.81137 2003.0 1
431.33942 -354.81137 2003.0 1
449.7272 -352.86282 1992.0 1
457.25732 -342.943 1936.0 1
464.36038 -333.55457 1883.0 1
483.98117 -333.55457 1883.0 1
503.6021 -333.55457 1883.0 1
523.2229 -333.55457 1883.0 1
546.0149 -335.5031 1894.0 1
314.43393 -414.1325 2208.0 1
331.17535 -406.44257 2167.0 1
347.2257 -398.94016 2127.0 1
364.87366 -394.0636 2101.0 1
379.77072 -386.9363 2063.0 1
394.26505 -380.18414 2027.0 1
410.46808 -375.6827 2003.0 1
428.9706 -373.61957 1992.0 1
452.21063 -375.6827 2003.0 1
449.69934 -357.11426 1904.0 1
464.36038 -353.1755 1883.0 1
483.98117 -353.1755 1883.0 1
503.6021 -353.1755 1883.0 1
523.2229 -353.1755 1883.0 1
310.58896 -431.7944 2181.0 1
329.03577 -426.25095 2153.0 1
345.10352 -418.52972 2114.0 1
360.53198 -411.0065 2076.0 1
379.77072 -408.43274 2063.0 1
394.26505 -401.30548 2027.0 1
412.9272 -398.92972 2015.0 1
428.9706 -394.37616 1992.0 1
449.7272 -394.37616 1992.0 1
459.85538 -385.46707 1947.0 1
467.07303 -374.97412 1894.0 1
483.98117 -372.79636 1883.0 1
503.6021 -372.79636 1883.0 1
526.2795 -374.97412 1894.0 1
546.0149 -374.97412 1894.0 1
308.59528 -451.60278 2167.0 1
327.04904 -445.97598 2140.0 1
342.9813 -437.8484 2101.0 1
360.53198 -432.6384 2076.0 1
377.5617 -427.4284 2051.0 1
394.26505 -422.4268 2027.0 1
412.9272 -419.926 2015.0 1
431.33942 -417.4252 2003.0 1
449.7272 -415.13278 1992.0 1
462.45343 -408.04718 1958.0 1
467.07303 -394.7096 1894.0 1
483.98117 -392.4172 1883.0 1
500.92764 -390.3332 1873.0 1
523.2229 -392.4172 1883.0 1
546.0149 -394.7096 1894.0 1
295.25412 -489.5003 2237.0 1
308.59528 -474.18292 2167.0 1
325.0623 -465.4301 2127.0 1
342.9813 -459.74078 2101.0 1
358.27432 -451.42563 2063.0 1
375.35266 -446.17395 2039.0 1
391.93094 -440.92227 2015.0 1
410.46808 -438.29642 2003.0 1
428.9706 -435.8894 1992.0 1
449.7272 -435.8894 1992.0 1
465.05148 -430.85657 1969.0 1
467.07303 -414.44507 1894.0 1
483.98117 -412.03802 1883.0 1
503.6021 -412.03802 1883.0 1
520.4443 -409.84982 1873.0 1
546.0149 -414.44507 1894.0 1
559.4776 -409.84982 1873.0 1
291.42648 -506.16187 2208.0 1
308.59528 -496.76303 2167.0 1
327.04904 -490.57355 2140.0 1
340.8591 -478.65308 2088.0 1
356.19034 -470.1712 2051.0 1
375.35266 -467.42032 2039.0 1
394.26505 -464.66943 2027.0 1
412.9272 -461.91855 2015.0 1
428.9706 -456.64603 1992.0 1
449.7272 -456.64603 1992.0 1
467.64954 -453.89514 1980.0 1
474.71786 -441.28696 1925.0 1
483.98117 -431.65887 1883.0 1
503.6021 -431.65887 1883.0 1
523.2229 -431.65887 1883.0 1
546.0149 -434.1805 1894.0 1
562.46466 -431.65887 1883.0 1
291.42648 -529.1693 2208.0 1
308.59528 -519.34326 2167.0 1
325.0623 -509.75687 2127.0 1
340.8591 -500.41013 2088.0 1
358.27432 -494.4186 2063.0 1
375.35266 -488.66678 2039.0 1
391.93094 -482.91492 2015.0 1
412.9272 -482.91492 2015.0 1
431.33942 -480.039 2003.0 1
454.91983 -482.91492 2015.0 1
470.48376 -477.40274 1992.0 1
488.28122 -474.52682 1980.0 1
486.80847 -453.91608 1894.0 1
503.6021 -451.27982 1883.0 1
523.2229 -451.27982 1883.0 1
542.84375 -451.27982 1883.0 1
562.46466 -451.27982 1883.0 1
291.42648 -552.17664 2208.0 1
308.59528 -541.9234 2167.0 1
325.0623 -531.92017 2127.0 1
342.9813 -525.4181 2101.0 1
358.27432 -515.91504 2063.0 1
375.35266 -509.91312 2039.0 1
391.93094 -503.91122 2015.0 1
412.9272 -503.91122 2015.0 1
431.33942 -500.91025 2003.0 1
452.21063 -500.91025 2003.0 1
470.48376 -498.15936 1992.0 1
491.2405 -498.15936 1992.0 1
500.43088 -486.90576 1947.0 1
506.54404 -473.65152 1894.0 1
523.2229 -470.90067 1883.0 1
542.84375 -470.90067 1883.0 1
565.7504 -473.65152 1894.0 1
585.4859 -473.65152 1894.0 1
291.42648 -575.18396 2208.0 1
308.59528 -564.5035 2167.0 1
327.04904 -557.47 2140.0 1
342.9813 -547.3105 2101.0 1
360.53198 -540.798 2076.0 1
377.5617 -534.28546 2051.0 1
396.59912 -531.1595 2039.0 1
412.9272 -524.9075 2015.0 1
431.33942 -521.7815 2003.0 1
452.21063 -521.7815 2003.0 1
473.08182 -521.7815 2003.0 1
491.2405 -518.916 1992.0 1
508.91275 -515.79 1980.0 1
512.1604 -498.85748 1915.0 1
526.2795 -493.387 1894.0 1
546.0149 -493.387 1894.0 1
565.7504 -493.387 1894.0 1
588.57715 -495.992 1904.0 1
299.08173 -613.90466 2266.0 1
314.43393 -598.19135 2208.0 1
329.03577 -583.2907 2153.0 1
342.9813 -569.2029 2101.0 1
360.53198 -562.4299 2076.0 1
377.5617 -555.65686 2051.0 1
394.26505 -549.1548 2027.0 1
415.38632 -549.1548 2027.0 1
433.92358 -545.90375 2015.0 1
454.91983 -545.90375 2015.0 1
475.91608 -545.90375 2015.0 1
496.91245 -545.90375 2015.0 1
520.99304 -549.1548 2027.0 1
529.54443 -536.4216 1980.0 1
534.8933 -521.521 1925.0 1
548.89777 -515.83167 1904.0 1
572.02325 -518.81177 1915.0 1
591.97754 -518.81177 1915.0 1
618.6424 -524.5011 1936.0 1
316.57004 -625.41876 2223.0 1
333.3149 -613.6025 2181.0 1
345.10352 -594.7527 2114.0 1
362.616 -587.43787 2088.0 1
379.77072 -580.40436 2063.0 1
396.59912 -573.6522 2039.0 1
412.9272 -566.9 2015.0 1
436.50775 -570.2761 2027.0 1
457.62903 -570.2761 2027.0 1
475.91608 -566.9 2015.0 1
496.91245 -566.9 2015.0 1
520.99304 -570.2761 2027.0 1
545.3238 -573.6522 2039.0 1
559.9013 -566.9 2015.0 1
554.9518 -541.57947 1925.0 1
572.02325 -538.76605 1915.0 1
591.97754 -538.76605 1915.0 1
615.1274 -541.57947 1925.0 1
646.0747 -550.86365 1958.0 1
320.69983 -657.0436 2252.0 1
339.73364 -648.5825 2223.0 1
349.34793 -624.36646 2140.0 1
364.87366 -612.9878 2101.0 1
379.77072 -601.90094 2063.0 1
398.9332 -598.3998 2051.0 1
415.38632 -591.3975 2027.0 1
436.50775 -591.3975 2027.0 1
457.62903 -591.3975 2027.0 1
475.91608 -587.8964 2015.0 1
496.91245 -587.8964 2015.0 1
520.99304 -591.3975 2027.0 1
542.11444 -591.3975 2027.0 1
569.90454 -598.3998 2051.0 1
574.26697 -581.186 1992.0 1
575.0104 -561.638 1925.0 1
595.0688 -561.638 1925.0 1
618.6424 -564.8474 1936.0 1
638.8154 -564.8474 1936.0 1
658.9885 -564.8474 1936.0 1
327.10812 -694.1075 2297.0 1
346.30518 -684.73987 2266.0 1
360.4487 -667.21344 2208.0 1
371.64667 -646.6652 2140.0 1
384.3729 -630.95184 2088.0 1
401.26727 -623.39734 2063.0 1
420.30457 -619.7712 2051.0 1
439.0919 -616.145 2039.0 1
460.33823 -616.145 2039.0 1
478.7503 -612.51886 2027.0 1
499.87173 -612.51886 2027.0 1
524.07733 -616.145 2039.0 1
545.3238 -616.145 2039.0 1
569.90454 -619.7712 2051.0 1
594.73535 -623.39734 2063.0 1
605.47845 -612.51886 2027.0 1
598.4692 -585.0205 1936.0 1
618.6424 -585.0205 1936.0 1
638.8154 -585.0205 1936.0 1
658.9885 -585.0205 1936.0 1
327.10812 -718.0422 2297.0 1
346.30518 -708.35156 2266.0 1
367.63156 -703.97516 2252.0 1
381.02466 -685.84436 2194.0 1
389.15915 -660.83636 2114.0 1
403.79587 -648.9576 2076.0 1
422.76367 -644.8938 2063.0 1
439.0919 -637.3914 2039.0 1
460.33823 -637.3914 2039.0 1
478.7503 -633.6402 2027.0 1
502.83102 -637.3914 2039.0 1
524.07733 -637.3914 2039.0 1
545.3238 -637.3914 2039.0 1
573.23895 -644.8938 2063.0 1
598.48303 -648.9576 2076.0 1
627.5827 -656.7726 2101.0 1
601.86957 -608.6322 1947.0 1
618.6424 -605.1936 1936.0 1
642.44507 -608.6322 1947.0 1
670.22125 -615.5094 1969.0 1
690.73834 -615.5094 1969.0 1
348.5976 -736.8086 2281.0 1
369.917 -731.96326 2266.0 1
391.09732 -727.441 2252.0 1
403.88608 -708.7059 2194.0 1
411.1871 -682.86426 2114.0 1
427.88684 -674.4657 2088.0 1
444.26022 -666.3902 2063.0 1
465.75662 -666.3902 2063.0 1
484.4188 -662.514 2051.0 1
505.79028 -662.514 2051.0 1
527.1617 -662.514 2051.0 1
551.7425 -666.3902 2063.0 1
573.23895 -666.3902 2063.0 1
598.48303 -670.5895 2076.0 1
631.4659 -682.86426 2114.0 1
653.4937 -682.86426 2114.0 1
625.6724 -632.47314 1958.0 1
646.0747 -632.47314 1958.0 1
666.47705 -632.47314 1958.0 1
694.5972 -639.5796 1980.0 1
727.8717 -650.88525 2015.0 1
331.38034 -775.9148 2327.0 1
351.04282 -765.9116 2297.0 1
369.917 -755.57495 2266.0 1
393.52866 -755.57495 2266.0 1
414.5631 -750.9068 2252.0 1
413.7157 -709.2268 2127.0 1
430.5509 -700.5574 2101.0 1
447.05972 -692.2214 2076.0 1
468.6916 -692.2214 2076.0 1
487.25302 -687.88666 2063.0 1
511.95544 -692.2214 2076.0 1
533.58734 -692.2214 2076.0 1
555.2193 -692.2214 2076.0 1
576.8512 -692.2214 2076.0 1
601.9425 -696.22266 2088.0 1
635.3491 -709.2268 2127.0 1
657.5124 -709.2268 2127.0 1
632.70245 -660.2111 1980.0 1
649.70435 -656.54333 1969.0 1
670.22125 -656.54333 1969.0 1
694.5972 -660.2111 1980.0 1
723.537 -667.88025 2003.0 1
333.65884 -805.664 2343.0 1
353.3352 -795.00433 2312.0 1
374.97766 -789.84644 2297.0 1
396.13367 -784.34467 2281.0 1
417.14032 -779.18677 2266.0 1
435.11145 -769.21484 2237.0 1
435.879 -731.39026 2127.0 1
455.2429 -726.92004 2114.0 1
474.33575 -722.4499 2101.0 1
490.32346 -713.8534 2076.0 1
511.95544 -713.8534 2076.0 1
533.58734 -713.8534 2076.0 1
555.2193 -713.8534 2076.0 1
580.1856 -717.97974 2088.0 1
605.69025 -722.4499 2101.0 1
635.3491 -731.39026 2127.0 1
657.5124 -731.39026 2127.0 1
647.7211 -697.0043 2027.0 1
653.334 -680.84283 1980.0 1
673.9655 -680.84283 1980.0 1
698.8069 -684.9692 1992.0 1
711.25525 -677.06036 1969.0 1
333.65884 -830.07806 2343.0 1
355.62762 -824.40955 2327.0 1
377.42636 -819.0954 2312.0 1
396.13367 -808.1127 2281.0 1
417.14032 -802.79846 2266.0 1
443.66974 -808.1127 2281.0 1
464.3638 -802.79846 2266.0 1
458.04242 -753.5536 2127.0 1
480.2057 -753.5536 2127.0 1
499.29855 -748.94794 2114.0 1
518.1206 -744.3423 2101.0 1
536.67163 -739.73663 2088.0 1
558.4287 -739.73663 2088.0 1
583.79785 -744.3423 2101.0 1
609.4379 -748.94794 2114.0 1
631.4659 -748.94794 2114.0 1
657.5124 -753.5536 2127.0 1
651.5557 -722.37695 2039.0 1
657.2936 -705.72577 1992.0 1
678.0502 -705.72577 1992.0 1
706.8754 -713.8742 2015.0 1
338.35828 -866.52716 2376.0 1
358.07285 -854.49207 2343.0 1
379.87506 -848.65686 2327.0 1
401.51733 -843.1864 2312.0 1
425.6083 -843.1864 2312.0 1
452.61703 -848.65686 2327.0 1
480.14313 -854.49207 2343.0 1
463.64142 -785.1991 2153.0 1
486.07562 -785.1991 2153.0 1
502.369 -775.71686 2127.0 1
521.32654 -770.97577 2114.0 1
543.3543 -770.97577 2114.0 1
565.3823 -770.97577 2114.0 1
587.4101 -770.97577 2114.0 1
609.4379 -770.97577 2114.0 1
635.3491 -775.71686 2127.0 1
669.87744 -790.3049 2167.0 1
660.9232 -730.4941 2003.0 1
681.79443 -730.4941 2003.0 1
317.9558 -903.66406 2409.0 1
338.35828 -891.2851 2376.0 1
358.07285 -878.9061 2343.0 1
377.42636 -867.2774 2312.0 1
401.51733 -867.2774 2312.0 1
428.3696 -872.9042 2327.0 1
452.61703 -872.9042 2327.0 1
487.9756 -850.0219 2266.0 1
492.3971 -818.13666 2181.0 1
508.50983 -807.6333 2153.0 1
527.7383 -802.7568 2140.0 1
546.6957 -797.8802 2127.0 1
568.85913 -797.8802 2127.0 1
591.0224 -797.8802 2127.0 1
613.18567 -797.8802 2127.0 1
639.2323 -802.7568 2140.0 1
674.2052 -818.13666 2181.0 1
320.1996 -935.31995 2426.0 1
335.93735 -909.4888 2359.0 1
355.62762 -897.1515 2327.0 1
379.87506 -897.1515 2327.0 1
404.1223 -897.1515 2327.0 1
428.3696 -897.1515 2327.0 1
468.5666 -928.7658 2409.0 1
505.04004 -862.45294 2237.0 1
518.1935 -845.8747 2194.0 1
537.8492 -840.8627 2181.0 1
550.03705 -825.05554 2140.0 1
572.33594 -825.05554 2140.0 1
594.63464 -825.05554 2140.0 1
616.9334 -825.05554 2140.0 1
647.29736 -835.46515 2167.0 1
674.2052 -840.8627 2181.0 1
317.9558 -953.8677 2409.0 1
335.93735 -934.06964 2359.0 1
358.07285 -927.7343 2343.0 1
379.87506 -921.3989 2327.0 1
406.901 -927.7343 2343.0 1
431.315 -927.7343 2343.0 1
458.84125 -934.06964 2359.0 1
528.3495 -885.7626 2237.0 1
548.20667 -880.2191 2223.0 1
560.57513 -863.5888 2181.0 1
575.81274 -852.5019 2153.0 1
594.63464 -847.35443 2140.0 1
620.68115 -852.5019 2153.0 1
647.29736 -858.04535 2167.0 1
678.2239 -868.73627 2194.0 1
315.71204 -972.061 2392.0 1
335.93735 -958.65045 2359.0 1
358.07285 -952.1483 2343.0 1
382.487 -952.1483 2343.0 1
406.901 -952.1483 2343.0 1
428.3696 -945.64624 2327.0 1
528.3495 -909.0721 2237.0 1
548.20667 -903.38275 2223.0 1
563.91644 -891.5977 2194.0 1
583.3012 -886.31476 2181.0 1
606.02716 -886.31476 2181.0 1
624.71716 -880.6255 2167.0 1
651.47925 -886.31476 2181.0 1
678.2239 -891.5977 2194.0 1
