ply
format ascii 1.0
comment : created from Kinect user tracker
element vertex 448
property float x
property float y
property float z
property int userId
end_header
1353.4677 222.48782 2669.0 1
1360.5775 219.15343 2629.0 1
1356.823 214.23518 2570.0 1
1353.4537 209.56702 2514.0 1
1325.6566 194.67686 2669.0 1
1343.3256 193.21806 2649.0 1
1330.0435 187.45581 2570.0 1
1346.792 186.06995 2551.0 1
1343.7632 182.05824 2496.0 1
1308.0573 168.17877 2690.0 1
1315.7229 165.61545 2649.0 1
1312.8992 161.86426 2589.0 1
1310.3774 158.30061 2532.0 1
1327.2579 157.17525 2514.0 1
1334.0726 154.92453 2478.0 1
1310.4818 143.4834 2754.0 1
1297.8457 139.0549 2669.0 1
1295.8555 135.9289 2609.0 1
1303.2642 133.897 2570.0 1
1310.3774 131.91719 2532.0 1
1317.7549 130.0416 2496.0 1
1315.2297 127.2803 2443.0 1
1300.489 113.91147 2733.0 1
1288.1204 110.41035 2649.0 1
1285.9216 107.909546 2589.0 1
1303.2642 107.11762 2570.0 1
1301.062 104.78355 2514.0 1
1308.2518 103.283066 2478.0 1
1315.2297 101.824265 2443.0 1
1292.4897 86.809006 2777.0 1
1290.0204 84.74584 2711.0 1
1288.1204 82.807724 2649.0 1
1285.9216 80.93213 2589.0 1
1293.6292 79.74425 2551.0 1
1301.062 78.58762 2514.0 1
1289.7738 76.368164 2443.0 1
1306.0775 75.83675 2426.0 1
1292.4897 57.872692 2777.0 1
1290.0204 56.497253 2711.0 1
1278.395 54.788372 2629.0 1
1276.4846 53.55881 2570.0 1
1293.6292 53.162853 2551.0 1
1291.7465 52.01665 2496.0 1
1289.7738 50.912132 2443.0 1
1287.7731 49.849293 2392.0 1
1273.5637 29.165552 2799.0 1
1302.7291 29.165552 2799.0 1
1290.0204 28.248592 2711.0 1
1278.395 27.394154 2629.0 1
1276.4846 26.779373 2570.0 1
1283.9941 26.383415 2532.0 1
1273.1156 25.633175 2460.0 1
1280.7987 25.278896 2426.0 1
1287.7731 24.924616 2392.0 1
1294.494 0.0 2845.0 1
1302.7291 0.0 2799.0 1
1280.0276 0.0 2690.0 1
1278.395 0.0 2629.0 1
1276.4846 0.0 2570.0 1
1265.7383 0.0 2496.0 1
1273.1156 0.0 2460.0 1
1271.8236 0.0 2409.0 1
1279.1592 0.0 2376.0 1
1264.849 -29.64487 2845.0 1
1294.494 -29.64487 2845.0 1
1302.7291 -29.165552 2799.0 1
1270.0348 -27.810953 2669.0 1
1268.6697 -27.185753 2609.0 1
1267.0476 -26.581394 2551.0 1
1265.7383 -26.008295 2496.0 1
1264.3176 -25.456036 2443.0 1
1280.7987 -25.278896 2426.0 1
1279.1592 -24.757896 2376.0 1
1286.1891 -60.290062 2893.0 1
1294.494 -59.28974 2845.0 1
1281.785 -57.393303 2754.0 1
1270.0348 -55.621906 2669.0 1
1258.9443 -53.95471 2589.0 1
1257.6106 -52.76683 2532.0 1
1265.7383 -52.01659 2496.0 1
1264.3176 -50.91207 2443.0 1
1271.8236 -50.20351 2409.0 1
1279.1592 -49.515793 2376.0 1
1305.4142 -89.685 2869.0 1
1292.4897 -86.809074 2777.0 1
1260.5178 -82.80779 2649.0 1
1258.9443 -80.93219 2589.0 1
1267.0476 -79.74431 2551.0 1
1265.7383 -78.02501 2496.0 1
1264.3176 -76.368225 2443.0 1
1280.7987 -75.83681 2426.0 1
1279.1592 -74.2738 2376.0 1
1286.1891 -120.58027 2893.0 1
1327.2545 -121.58059 2917.0 1
1251.9977 -112.119225 2690.0 1
1260.5178 -110.41035 2649.0 1
1258.9443 -107.909546 2589.0 1
1267.0476 -106.32571 2551.0 1
1265.7383 -104.0333 2496.0 1
1273.1156 -102.53282 2460.0 1
1280.7987 -101.1157 2426.0 1
1296.9253 -100.40714 2409.0 1
1319.0885 -154.5807 2967.0 1
1327.2545 -151.9757 2917.0 1
1232.9152 -138.0129 2649.0 1
1260.5178 -138.0129 2649.0 1
1258.9443 -134.8869 2589.0 1
1257.6106 -131.91719 2532.0 1
1265.7383 -130.0416 2496.0 1
1273.1156 -128.166 2460.0 1
1289.7738 -127.2803 2443.0 1
1306.0775 -126.3946 2426.0 1
1263.5535 -173.61801 2777.0 1
1242.2238 -166.86584 2669.0 1
1251.001 -164.36505 2629.0 1
1258.9443 -161.86426 2589.0 1
1267.0476 -159.4885 2551.0 1
1274.8662 -157.17525 2514.0 1
1282.431 -154.92453 2478.0 1
1298.7489 -153.79918 2460.0 1
1306.0775 -151.6735 2426.0 1
1243.5332 -199.34496 2733.0 1
1242.2238 -194.6768 2669.0 1
1241.484 -190.3004 2609.0 1
1249.7053 -187.45575 2570.0 1
1267.0476 -186.06989 2551.0 1
1274.8662 -183.37111 2514.0 1
1291.7465 -182.05818 2496.0 1
1298.7489 -179.43234 2460.0 1
1306.0775 -176.9524 2426.0 1
1223.9679 -224.23845 2690.0 1
1242.2238 -222.48788 2669.0 1
1251.001 -219.15349 2629.0 1
1258.9443 -215.81909 2589.0 1
1248.6702 -209.5671 2514.0 1
1265.7383 -208.0666 2496.0 1
1273.1156 -205.06564 2460.0 1
1298.7489 -205.06564 2460.0 1
1315.2297 -203.64853 2443.0 1
1205.2744 -254.23761 2711.0 1
1214.4128 -250.29884 2669.0 1
1232.9152 -248.42325 2649.0 1
1231.967 -242.79645 2589.0 1
1249.7053 -241.01462 2570.0 1
1257.6106 -237.45097 2532.0 1
1265.7383 -234.0749 2496.0 1
1282.431 -232.38686 2478.0 1
1289.7738 -229.10455 2443.0 1
1306.0775 -227.5103 2426.0 1
1205.2744 -282.4862 2711.0 1
1214.4128 -278.1098 2669.0 1
1223.6067 -273.9418 2629.0 1
1231.967 -269.7738 2589.0 1
1249.7053 -267.794 2570.0 1
1257.6106 -263.83438 2532.0 1
1265.7383 -260.0832 2496.0 1
1273.1156 -256.332 2460.0 1
1298.7489 -256.332 2460.0 1
1306.0775 -252.7892 2426.0 1
1215.0553 -313.25644 2733.0 1
1214.4128 -305.92075 2669.0 1
1223.6067 -301.33594 2629.0 1
1241.484 -299.04355 2609.0 1
1249.7053 -294.57336 2570.0 1
1248.6702 -288.15466 2514.0 1
1256.6104 -284.02832 2478.0 1
1273.1156 -281.96518 2460.0 1
1289.7738 -280.01663 2443.0 1
1306.0775 -278.06808 2426.0 1
1186.5775 -341.73425 2733.0 1
1215.0553 -341.73425 2733.0 1
1214.4128 -333.7317 2669.0 1
1223.6067 -328.7301 2629.0 1
1231.967 -323.72852 2589.0 1
1240.4662 -318.977 2551.0 1
1248.6702 -314.3505 2514.0 1
1256.6104 -309.84906 2478.0 1
1273.1156 -307.59836 2460.0 1
1289.7738 -305.47266 2443.0 1
1306.0775 -303.347 2426.0 1
1195.695 -373.0569 2754.0 1
1205.2744 -367.23212 2711.0 1
1214.4128 -361.5428 2669.0 1
1223.6067 -356.1244 2629.0 1
1231.967 -350.706 2589.0 1
1240.4662 -345.5585 2551.0 1
1248.6702 -340.54648 2514.0 1
1265.7383 -338.10822 2496.0 1
1273.1156 -333.23163 2460.0 1
1289.7738 -330.92883 2443.0 1
1315.2297 -330.92883 2443.0 1
1195.695 -401.75354 2754.0 1
1215.0553 -398.69006 2733.0 1
1214.4128 -389.35373 2669.0 1
1223.6067 -383.51852 2629.0 1
1231.967 -377.68335 2589.0 1
1240.4662 -372.1399 2551.0 1
1248.6702 -366.74234 2514.0 1
1265.7383 -364.1165 2496.0 1
1282.431 -361.49066 2478.0 1
1289.7738 -356.38486 2443.0 1
1324.382 -358.8648 2460.0 1
1215.0553 -427.16788 2733.0 1
1223.9679 -420.447 2690.0 1
1214.2981 -407.78668 2609.0 1
1231.967 -404.6607 2589.0 1
1249.7053 -401.69098 2570.0 1
1257.6106 -395.7516 2532.0 1
1265.7383 -390.1248 2496.0 1
1291.7465 -390.1248 2496.0 1
1298.7489 -384.498 2460.0 1
1315.2297 -381.84088 2443.0 1
1224.3916 -459.14685 2754.0 1
1233.5231 -451.97787 2711.0 1
1223.6067 -438.30685 2629.0 1
1231.967 -431.63806 2589.0 1
1258.9443 -431.63806 2589.0 1
1267.0476 -425.30267 2551.0 1
1274.8662 -419.13403 2514.0 1
1291.7465 -416.1331 2496.0 1
1317.7549 -416.1331 2496.0 1
1324.382 -410.13116 2460.0 1
1264.849 -503.96323 2845.0 1
1253.0884 -487.8435 2754.0 1
1261.7716 -480.22647 2711.0 1
1241.484 -462.1582 2609.0 1
1258.9443 -458.6154 2589.0 1
1267.0476 -451.8841 2551.0 1
1274.8662 -445.3299 2514.0 1
1301.062 -445.3299 2514.0 1
1308.2518 -438.95285 2478.0 1
1315.2297 -432.75296 2443.0 1
1264.849 -533.6083 2845.0 1
1273.5637 -524.98047 2799.0 1
1272.011 -512.6015 2733.0 1
1270.0348 -500.5977 2669.0 1
1258.9443 -485.5929 2589.0 1
1267.0476 -478.4656 2551.0 1
1274.8662 -471.52588 2514.0 1
1301.062 -471.52588 2514.0 1
1317.7549 -468.1498 2496.0 1
1334.0726 -464.7737 2478.0 1
1286.1891 -572.75616 2893.0 1
1284.0288 -558.6996 2822.0 1
1281.785 -545.23694 2754.0 1
1300.489 -541.07935 2733.0 1
1288.1204 -524.44904 2649.0 1
1285.9216 -512.57025 2589.0 1
1283.9941 -501.28537 2532.0 1
1301.062 -497.72174 2514.0 1
1317.7549 -494.15808 2496.0 1
1343.7632 -494.15808 2496.0 1
1296.8593 -607.9028 2917.0 1
1284.0288 -588.1048 2822.0 1
1292.4897 -578.7268 2777.0 1
1310.4818 -573.9336 2754.0 1
1308.0573 -560.596 2690.0 1
1285.9216 -539.5476 2589.0 1
1293.6292 -531.6284 2551.0 1
1301.062 -523.9176 2514.0 1
1327.2579 -523.9176 2514.0 1
1343.7632 -520.1664 2496.0 1
1286.1891 -633.0462 2893.0 1
1284.0288 -617.51 2822.0 1
1302.7291 -612.4771 2799.0 1
1321.4263 -607.6631 2777.0 1
1339.1783 -602.63025 2754.0 1
1325.6566 -584.0305 2669.0 1
1312.8992 -566.52496 2589.0 1
1320.2104 -558.2098 2551.0 1
1336.761 -554.0522 2532.0 1
1353.4537 -550.11346 2514.0 1
1296.8593 -668.693 2917.0 1
1294.494 -652.18774 2845.0 1
1313.434 -646.9152 2822.0 1
1331.8949 -641.6427 2799.0 1
1339.1783 -631.3269 2754.0 1
1346.5175 -621.4696 2711.0 1
1323.0413 -598.0871 2609.0 1
1330.0435 -589.1467 2570.0 1
1346.792 -584.7912 2551.0 1
1363.1444 -580.4356 2532.0 1
1296.8593 -699.08826 2917.0 1
1305.4142 -687.5846 2869.0 1
1324.1388 -681.83276 2845.0 1
1331.8949 -670.8084 2799.0 1
1361.0604 -670.8084 2799.0 1
1413.0735 -681.83276 2845.0 1
1343.3256 -634.8594 2649.0 1
1350.227 -625.273 2609.0 1
1366.854 -620.4798 2589.0 1
1373.3733 -611.3727 2551.0 1
1256.0442 -723.48145 2893.0 1
1286.1891 -723.48145 2893.0 1
1305.4142 -717.47955 2869.0 1
1324.1388 -711.4776 2845.0 1
1342.8394 -705.72577 2822.0 1
1372.2445 -705.72577 2822.0 1
1350.227 -652.45874 2609.0 1
1377.4128 -652.45874 2609.0 1
1383.6023 -642.7056 2570.0 1
1277.3184 -766.391 2942.0 1
1286.1891 -753.62646 2893.0 1
1294.494 -741.1225 2845.0 1
1324.1388 -741.1225 2845.0 1
1353.7838 -741.1225 2845.0 1
1372.2445 -735.131 2822.0 1
1398.5308 -690.0645 2649.0 1
1393.8313 -674.4345 2589.0 1
1257.2565 -803.8196 2967.0 1
1277.3184 -797.0466 2942.0 1
1296.8593 -790.2736 2917.0 1
1305.4142 -777.2694 2869.0 1
1335.3091 -777.2694 2869.0 1
1365.2041 -777.2694 2869.0 1
1415.366 -712.24866 2629.0 1
1268.2738 -842.05054 2993.0 1
1277.3184 -827.7022 2942.0 1
1296.8593 -820.6687 2917.0 1
1316.3344 -813.91656 2893.0 1
1324.1388 -800.41223 2845.0 1
1426.1333 -745.2696 2649.0 1
1236.0691 -851.06396 2917.0 1
1266.4641 -851.06396 2917.0 1
1296.8593 -851.06396 2917.0 1
1316.3344 -844.0617 2893.0 1
1335.3091 -837.0595 2869.0 1
1431.2634 -790.9614 2711.0 1
1426.1333 -772.87225 2649.0 1
1236.0691 -881.45905 2917.0 1
1277.3184 -889.01355 2942.0 1
1296.8593 -881.45905 2917.0 1
1316.3344 -874.2067 2893.0 1
1403.0148 -819.21 2711.0 1
1420.1766 -812.8642 2690.0 1
1426.1333 -800.47485 2649.0 1
1247.8331 -943.7394 3019.0 1
1257.2565 -927.4842 2967.0 1
1266.4641 -911.8542 2917.0 1
1307.9739 -919.6692 2942.0 1
1327.2545 -911.8542 2917.0 1
1364.117 -840.894 2690.0 1
1381.2786 -834.3294 2669.0 1
1409.0897 -834.3294 2669.0 1
1426.1333 -828.0774 2649.0 1
1237.0867 -966.7988 2993.0 1
1246.6627 -950.32477 2942.0 1
1266.4641 -942.24927 2917.0 1
1307.9739 -950.32477 2942.0 1
1327.2545 -942.24927 2917.0 1
1336.087 -868.92377 2690.0 1
1364.117 -868.92377 2690.0 1
1381.2786 -862.1403 2669.0 1
1398.5308 -855.67993 2649.0 1
1415.366 -849.21954 2629.0 1
1295.7478 -1072.3429 3216.0 1
1237.0867 -997.98584 2993.0 1
1246.6627 -980.9804 2942.0 1
1277.3184 -980.9804 2942.0 1
1296.8593 -972.6444 2917.0 1
1327.2545 -972.6444 2917.0 1
1372.2445 -940.9676 2822.0 1
1346.5175 -903.95575 2711.0 1
1364.117 -896.95355 2690.0 1
1381.2786 -889.9513 2669.0 1
1398.5308 -883.2825 2649.0 1
1426.1333 -883.2825 2649.0 1
1237.0867 -1029.173 2993.0 1
1246.6627 -1011.63617 2942.0 1
1277.3184 -1011.63617 2942.0 1
1307.9739 -1011.63617 2942.0 1
1331.8949 -962.4642 2799.0 1
1328.9668 -939.7694 2733.0 1
1346.5175 -932.20447 2711.0 1
1364.117 -924.98346 2690.0 1
1381.2786 -917.7624 2669.0 1
1409.0897 -917.7624 2669.0 1
1426.1333 -910.8852 2649.0 1
1237.0867 -1060.3601 2993.0 1
1236.0691 -1033.4348 2917.0 1
1277.3184 -1042.2917 2942.0 1
1307.9739 -1042.2917 2942.0 1
1338.6296 -1042.2917 2942.0 1
1310.4818 -975.68713 2754.0 1
1318.2689 -960.45306 2711.0 1
1336.087 -953.0132 2690.0 1
1364.117 -953.0132 2690.0 1
1381.2786 -945.5733 2669.0 1
1409.0897 -945.5733 2669.0 1
1448.2063 -953.0132 2690.0 1
1238.1322 -1120.723 3073.0 1
1226.3402 -1082.0648 2967.0 1
1246.6627 -1072.9474 2942.0 1
1288.1725 -1082.0648 2967.0 1
1330.6478 -1091.5471 2993.0 1
1373.6652 -1101.0293 3019.0 1
1292.4897 -1012.7719 2777.0 1
1300.489 -996.7251 2733.0 1
1328.9668 -996.7251 2733.0 1
1336.087 -981.04297 2690.0 1
1374.7662 -988.70166 2711.0 1
1392.1467 -981.04297 2690.0 1
1420.1766 -981.04297 2690.0 1
1216.3752 -1132.4872 3019.0 1
1226.3402 -1112.981 2967.0 1
1268.2738 -1122.7341 2993.0 1
1288.1725 -1112.981 2967.0 1
1342.207 -1132.4872 3019.0 1
1385.9503 -1142.6155 3046.0 1
1281.785 -1033.0804 2754.0 1
1300.489 -1025.2029 2733.0 1
1328.9668 -1025.2029 2733.0 1
1346.5175 -1016.95026 2711.0 1
1374.7662 -1016.95026 2711.0 1
1403.0148 -1016.95026 2711.0 1
1205.8997 -1153.9211 2993.0 1
1226.3402 -1143.8971 2967.0 1
1246.6627 -1134.2585 2942.0 1
1288.1725 -1143.8971 2967.0 1
1296.8593 -1124.6201 2917.0 1
1263.5535 -1070.6445 2777.0 1
1272.011 -1053.6808 2733.0 1
1300.489 -1053.6808 2733.0 1
1318.2689 -1045.1989 2711.0 1
1357.4446 -1053.6808 2733.0 1
1374.7662 -1045.1989 2711.0 1
1216.3752 -1195.4033 3019.0 1
1226.3402 -1174.8134 2967.0 1
1257.2565 -1174.8134 2967.0 1
1235.2041 -1126.5062 2845.0 1
1264.849 -1126.5062 2845.0 1
1263.5535 -1099.5809 2777.0 1
1272.011 -1082.1587 2733.0 1
1300.489 -1082.1587 2733.0 1
1328.9668 -1082.1587 2733.0 1
1367.875 -1090.4739 2754.0 1
1385.9225 -1082.1587 2733.0 1
1205.8997 -1216.2953 2993.0 1
1195.754 -1175.6573 2893.0 1
1195.8131 -1146.8043 2822.0 1
1225.2183 -1146.8043 2822.0 1
1244.398 -1137.4576 2799.0 1
1263.5535 -1128.5172 2777.0 1
1272.011 -1110.6366 2733.0 1
1300.489 -1110.6366 2733.0 1
1339.1783 -1119.1705 2754.0 1
1367.875 -1119.1705 2754.0 1
1385.9225 -1110.6366 2733.0 1
