ply
format ascii 1.0
comment : created from Kinect user tracker
element vertex 437
property float x
property float y
property float z
property int userId
end_header
1320.2104 159.4885 2551.0 1
1336.761 158.30061 2532.0 1
1353.4537 157.17525 2514.0 1
1276.4846 133.897 2570.0 1
1293.6292 132.9071 2551.0 1
1301.062 130.9794 2514.0 1
1317.7549 130.0416 2496.0 1
1343.7632 130.0416 2496.0 1
1268.6697 108.74314 2609.0 1
1276.4846 107.11762 2570.0 1
1283.9941 105.53378 2532.0 1
1301.062 104.78355 2514.0 1
1317.7549 104.0333 2496.0 1
1334.0726 103.283066 2478.0 1
1251.001 82.182526 2629.0 1
1268.6697 81.55733 2609.0 1
1276.4846 80.33819 2570.0 1
1283.9941 79.15031 2532.0 1
1301.062 78.58762 2514.0 1
1317.7549 78.02495 2496.0 1
1343.7632 78.02495 2496.0 1
1232.9152 55.205173 2649.0 1
1251.001 54.788372 2629.0 1
1268.6697 54.37157 2609.0 1
1276.4846 53.55881 2570.0 1
1293.6292 53.162853 2551.0 1
1301.062 52.391773 2514.0 1
1317.7549 52.01665 2496.0 1
1334.0726 51.641533 2478.0 1
1205.3126 27.602552 2649.0 1
1223.6067 27.394154 2629.0 1
1231.967 26.977354 2589.0 1
1258.9443 26.977354 2589.0 1
1276.4846 26.779373 2570.0 1
1303.2642 26.779373 2570.0 1
1301.062 26.195854 2514.0 1
1317.7549 26.008295 2496.0 1
1343.7632 26.008295 2496.0 1
1214.4128 0.0 2669.0 1
1232.9152 0.0 2649.0 1
1231.967 0.0 2589.0 1
1268.6697 0.0 2609.0 1
1285.9216 0.0 2589.0 1
1303.2642 0.0 2570.0 1
1310.3774 0.0 2532.0 1
1317.7549 0.0 2496.0 1
1343.7632 0.0 2496.0 1
1195.938 -28.029772 2690.0 1
1223.9679 -28.029772 2690.0 1
1223.6067 -27.394154 2629.0 1
1241.484 -27.185753 2609.0 1
1278.395 -27.394154 2629.0 1
1295.8555 -27.185753 2609.0 1
1303.2642 -26.779373 2570.0 1
1310.3774 -26.383415 2532.0 1
1327.2579 -26.195854 2514.0 1
1343.7632 -26.008295 2496.0 1
1195.695 -57.393303 2754.0 1
1205.2744 -56.497185 2711.0 1
1214.4128 -55.621906 2669.0 1
1232.9152 -55.205105 2649.0 1
1260.5178 -55.205105 2649.0 1
1297.8457 -55.621906 2669.0 1
1315.7229 -55.205105 2649.0 1
1312.8992 -53.95471 2589.0 1
1320.2104 -53.16279 2551.0 1
1327.2579 -52.39171 2514.0 1
1343.7632 -52.01659 2496.0 1
1186.5775 -85.43363 2733.0 1
1195.938 -84.089455 2690.0 1
1214.4128 -83.43299 2669.0 1
1251.9977 -84.089455 2690.0 1
1280.0276 -84.089455 2690.0 1
1308.0573 -84.089455 2690.0 1
1315.7229 -82.80779 2649.0 1
1312.8992 -80.93219 2589.0 1
1320.2104 -79.74431 2551.0 1
1336.761 -79.15037 2532.0 1
1343.7632 -78.02501 2496.0 1
1158.0997 -113.91147 2733.0 1
1177.0258 -112.99451 2711.0 1
1205.2744 -112.99451 2711.0 1
1214.4128 -111.24394 2669.0 1
1272.011 -113.91147 2733.0 1
1300.489 -113.91147 2733.0 1
1297.8457 -111.24394 2669.0 1
1315.7229 -110.41035 2649.0 1
1323.0413 -108.74314 2609.0 1
1330.0435 -107.11762 2570.0 1
1336.761 -105.53378 2532.0 1
1353.4537 -104.78355 2514.0 1
1148.7772 -141.2431 2711.0 1
1177.0258 -141.2431 2711.0 1
1195.938 -140.149 2690.0 1
1243.5332 -142.3893 2733.0 1
1272.011 -142.3893 2733.0 1
1290.0204 -141.2431 2711.0 1
1308.0573 -140.149 2690.0 1
1315.7229 -138.0129 2649.0 1
1323.0413 -135.9289 2609.0 1
1339.8765 -134.8869 2589.0 1
1356.823 -133.897 2570.0 1
1353.4537 -130.9794 2514.0 1
1158.0997 -170.86713 2733.0 1
1177.0258 -169.49168 2711.0 1
1205.2744 -169.49168 2711.0 1
1253.0884 -172.18005 2754.0 1
1272.011 -170.86713 2733.0 1
1290.0204 -169.49168 2711.0 1
1308.0573 -168.17877 2690.0 1
1315.7229 -165.61545 2649.0 1
1333.1835 -164.36505 2629.0 1
1350.227 -163.11465 2609.0 1
1356.823 -160.67638 2570.0 1
1363.1444 -158.30061 2532.0 1
1166.9984 -200.87671 2754.0 1
1177.0258 -197.74028 2711.0 1
1215.0553 -199.34496 2733.0 1
1243.5332 -199.34496 2733.0 1
1272.011 -199.34496 2733.0 1
1280.0276 -196.20854 2690.0 1
1308.0573 -196.20854 2690.0 1
1325.6566 -194.6768 2669.0 1
1343.3256 -193.218 2649.0 1
1350.227 -190.3004 2609.0 1
1356.823 -187.45575 2570.0 1
1373.3733 -186.06989 2551.0 1
1158.0997 -227.82294 2733.0 1
1177.0258 -225.98901 2711.0 1
1215.0553 -227.82294 2733.0 1
1263.5535 -231.49077 2777.0 1
1272.011 -227.82294 2733.0 1
1290.0204 -225.98901 2711.0 1
1308.0573 -224.23845 2690.0 1
1325.6566 -222.48788 2669.0 1
1343.3256 -220.8207 2649.0 1
1339.8765 -215.81909 2589.0 1
1356.823 -214.23524 2570.0 1
1383.6023 -214.23524 2570.0 1
1138.3016 -258.27014 2754.0 1
1148.7772 -254.23761 2711.0 1
1177.0258 -254.23761 2711.0 1
1244.398 -262.49023 2799.0 1
1263.5535 -260.4271 2777.0 1
1272.011 -256.30075 2733.0 1
1290.0204 -254.23761 2711.0 1
1308.0573 -252.26822 2690.0 1
1325.6566 -250.29884 2669.0 1
1343.3256 -248.42325 2649.0 1
1339.8765 -242.79645 2589.0 1
1356.823 -241.01462 2570.0 1
1373.3733 -239.2328 2551.0 1
1138.3016 -286.9668 2754.0 1
1148.7772 -282.4862 2711.0 1
1177.0258 -282.4862 2711.0 1
1244.398 -291.6558 2799.0 1
1253.0884 -286.9668 2754.0 1
1261.7716 -282.4862 2711.0 1
1290.0204 -282.4862 2711.0 1
1308.0573 -280.298 2690.0 1
1315.7229 -276.0258 2649.0 1
1333.1835 -273.9418 2629.0 1
1350.227 -271.8578 2609.0 1
1366.854 -269.7738 2589.0 1
1383.6023 -267.794 2570.0 1
1129.6217 -313.25644 2733.0 1
1148.7772 -310.7348 2711.0 1
1195.695 -315.66345 2754.0 1
1244.398 -320.82135 2799.0 1
1253.0884 -315.66345 2754.0 1
1261.7716 -310.7348 2711.0 1
1290.0204 -310.7348 2711.0 1
1318.2689 -310.7348 2711.0 1
1325.6566 -305.92075 2669.0 1
1343.3256 -303.62836 2649.0 1
1350.227 -299.04355 2609.0 1
1366.854 -296.75116 2589.0 1
1393.8313 -296.75116 2589.0 1
1129.6217 -341.73425 2733.0 1
1148.7772 -338.98337 2711.0 1
1215.2324 -349.9869 2799.0 1
1244.398 -349.9869 2799.0 1
1263.5535 -347.23602 2777.0 1
1272.011 -341.73425 2733.0 1
1290.0204 -338.98337 2711.0 1
1328.9668 -341.73425 2733.0 1
1336.087 -336.35754 2690.0 1
1343.3256 -331.2309 2649.0 1
1370.9281 -331.2309 2649.0 1
1377.4128 -326.2293 2609.0 1
1404.5986 -326.2293 2609.0 1
1109.605 -373.0569 2754.0 1
1129.6217 -370.21222 2733.0 1
1148.7772 -367.23212 2711.0 1
1186.5775 -370.21222 2733.0 1
1234.6171 -376.17245 2777.0 1
1253.0884 -373.0569 2754.0 1
1281.785 -373.0569 2754.0 1
1290.0204 -367.23212 2711.0 1
1328.9668 -370.21222 2733.0 1
1336.087 -364.38745 2690.0 1
1364.117 -364.38745 2690.0 1
1370.9281 -358.8336 2649.0 1
1398.5308 -358.8336 2649.0 1
1426.1333 -358.8336 2649.0 1
1118.8718 -405.1088 2777.0 1
1129.6217 -398.69006 2733.0 1
1148.7772 -395.4807 2711.0 1
1177.0258 -395.4807 2711.0 1
1215.0553 -398.69006 2733.0 1
1243.5332 -398.69006 2733.0 1
1272.011 -398.69006 2733.0 1
1300.489 -398.69006 2733.0 1
1328.9668 -398.69006 2733.0 1
1346.5175 -395.4807 2711.0 1
1364.117 -392.4172 2690.0 1
1381.2786 -389.35373 2669.0 1
1409.0897 -389.35373 2669.0 1
1436.9006 -389.35373 2669.0 1
1127.7357 -437.4837 2799.0 1
1129.6217 -427.16788 2733.0 1
1148.7772 -423.72928 2711.0 1
1167.9083 -420.447 2690.0 1
1215.0553 -427.16788 2733.0 1
1253.0884 -430.4502 2754.0 1
1272.011 -427.16788 2733.0 1
1300.489 -427.16788 2733.0 1
1339.1783 -430.4502 2754.0 1
1357.4446 -427.16788 2733.0 1
1364.117 -420.447 2690.0 1
1381.2786 -417.1647 2669.0 1
1409.0897 -417.1647 2669.0 1
1436.9006 -417.1647 2669.0 1
1129.6217 -455.64572 2733.0 1
1148.7772 -451.97787 2711.0 1
1177.0258 -451.97787 2711.0 1
1215.0553 -455.64572 2733.0 1
1253.0884 -459.14685 2754.0 1
1272.011 -455.64572 2733.0 1
1300.489 -455.64572 2733.0 1
1339.1783 -459.14685 2754.0 1
1357.4446 -455.64572 2733.0 1
1374.7662 -451.97787 2711.0 1
1403.0148 -451.97787 2711.0 1
1409.0897 -444.97565 2669.0 1
1436.9006 -444.97565 2669.0 1
1165.609 -512.46594 2893.0 1
1156.9012 -495.8148 2799.0 1
1148.7772 -480.22647 2711.0 1
1186.5775 -484.12357 2733.0 1
1234.6171 -491.91772 2777.0 1
1263.5535 -491.91772 2777.0 1
1281.785 -487.8435 2754.0 1
1300.489 -484.12357 2733.0 1
1339.1783 -487.8435 2754.0 1
1357.4446 -484.12357 2733.0 1
1385.9225 -484.12357 2733.0 1
1414.4003 -484.12357 2733.0 1
1420.1766 -476.50653 2690.0 1
1436.9006 -472.7866 2669.0 1
1165.609 -542.61115 2893.0 1
1175.9143 -533.6083 2845.0 1
1186.067 -524.98047 2799.0 1
1215.2324 -524.98047 2799.0 1
1244.398 -524.98047 2799.0 1
1273.5637 -524.98047 2799.0 1
1281.785 -516.5403 2754.0 1
1310.4818 -516.5403 2754.0 1
1339.1783 -516.5403 2754.0 1
1367.875 -516.5403 2754.0 1
1385.9225 -512.6015 2733.0 1
1414.4003 -512.6015 2733.0 1
1431.2634 -508.47522 2711.0 1
1436.9006 -500.5977 2669.0 1
1164.5078 -587.4067 2967.0 1
1175.2788 -577.5077 2917.0 1
1195.754 -572.75616 2893.0 1
1195.8131 -558.6996 2822.0 1
1225.2183 -558.6996 2822.0 1
1254.6235 -558.6996 2822.0 1
1284.0288 -558.6996 2822.0 1
1302.7291 -554.14606 2799.0 1
1331.8949 -554.14606 2799.0 1
1401.6497 -558.6996 2822.0 1
1408.2352 -549.79047 2777.0 1
1414.4003 -541.07935 2733.0 1
1442.8783 -541.07935 2733.0 1
1448.2063 -532.5662 2690.0 1
1164.5078 -618.3228 2967.0 1
1175.2788 -607.9028 2917.0 1
1195.754 -602.9012 2893.0 1
1205.5593 -592.898 2845.0 1
1225.2183 -588.1048 2822.0 1
1254.6235 -588.1048 2822.0 1
1284.0288 -588.1048 2822.0 1
1324.1388 -592.898 2845.0 1
1419.3916 -583.3116 2799.0 1
1414.4003 -569.5572 2733.0 1
1442.8783 -569.5572 2733.0 1
1459.512 -564.9724 2711.0 1
1154.6957 -643.7684 2942.0 1
1175.2788 -638.2979 2917.0 1
1195.754 -633.0462 2893.0 1
1215.7292 -627.79456 2869.0 1
1245.6241 -627.79456 2869.0 1
1275.519 -627.79456 2869.0 1
1294.494 -622.54285 2845.0 1
1419.3916 -612.4771 2799.0 1
1425.2684 -602.63025 2754.0 1
1442.8783 -598.03503 2733.0 1
1459.512 -593.221 2711.0 1
1143.5255 -686.11523 2993.0 1
1154.6957 -674.424 2942.0 1
1175.2788 -668.693 2917.0 1
1195.754 -663.1912 2893.0 1
1225.8992 -663.1912 2893.0 1
1245.6241 -657.6895 2869.0 1
1275.519 -657.6895 2869.0 1
1419.3916 -641.6427 2799.0 1
1425.2684 -631.3269 2754.0 1
1453.9652 -631.3269 2754.0 1
1459.512 -621.4696 2711.0 1
1153.4592 -723.53357 3019.0 1
1154.6957 -705.0798 2942.0 1
1175.2788 -699.08826 2917.0 1
1205.6738 -699.08826 2917.0 1
1236.0691 -699.08826 2917.0 1
1266.4641 -699.08826 2917.0 1
1442.7185 -681.83276 2845.0 1
1448.5571 -670.8084 2799.0 1
1453.9652 -660.0237 2754.0 1
1471.3561 -654.99084 2733.0 1
1142.0703 -768.49585 3073.0 1
1143.5255 -748.48944 2993.0 1
1164.5078 -741.98737 2967.0 1
1185.3514 -735.73535 2942.0 1
1205.6738 -729.4834 2917.0 1
1246.6627 -735.73535 2942.0 1
1442.7185 -711.4776 2845.0 1
1460.4602 -705.72577 2822.0 1
1453.9652 -688.72034 2754.0 1
1471.3561 -683.4686 2733.0 1
1152.4763 -807.8105 3101.0 1
1163.775 -793.483 3046.0 1
1174.7125 -779.6765 2993.0 1
1205.8997 -779.6765 2993.0 1
1237.0867 -779.6765 2993.0 1
1460.4602 -735.131 2822.0 1
1453.9652 -717.417 2754.0 1
1471.3561 -711.9465 2733.0 1
1150.868 -863.15106 3186.0 1
1142.0703 -832.5371 3073.0 1
1163.775 -825.2223 3046.0 1
1195.5143 -825.2223 3046.0 1
1216.3752 -817.9074 3019.0 1
1247.8331 -817.9074 3019.0 1
1460.4602 -764.5362 2822.0 1
1466.1079 -752.3448 2777.0 1
1482.6617 -746.11365 2754.0 1
1150.868 -896.3492 3186.0 1
1152.4763 -872.43524 3101.0 1
1174.0908 -864.55774 3073.0 1
1217.1011 -872.43524 3101.0 1
1238.1322 -864.55774 3073.0 1
1460.4602 -793.9414 2822.0 1
1466.1079 -781.2811 2777.0 1
1482.6617 -774.8103 2754.0 1
1150.868 -929.5474 3186.0 1
1162.8824 -912.9171 3129.0 1
1184.7887 -904.7478 3101.0 1
1217.1011 -904.7478 3101.0 1
1249.4136 -904.7478 3101.0 1
1472.3633 -830.05725 2845.0 1
1489.8656 -823.34674 2822.0 1
1495.0442 -810.2176 2777.0 1
1140.3926 -953.9823 3157.0 1
1173.2886 -953.9823 3157.0 1
1195.4866 -945.52124 3129.0 1
1228.0907 -945.52124 3129.0 1
1442.7185 -859.7021 2845.0 1
1472.3633 -859.7021 2845.0 1
1489.8656 -852.75195 2822.0 1
1519.2708 -852.75195 2822.0 1
1117.67 -995.9436 3186.0 1
1140.3926 -986.8782 3157.0 1
1173.2886 -986.8782 3157.0 1
1195.4866 -978.12537 3129.0 1
1228.0907 -978.12537 3129.0 1
1454.889 -896.84937 2869.0 1
1472.3633 -889.347 2845.0 1
1502.0083 -889.347 2845.0 1
1519.2708 -882.15717 2822.0 1
1104.895 -1048.5228 3246.0 1
1107.4967 -1019.7741 3157.0 1
1150.868 -1029.1417 3186.0 1
1184.0663 -1029.1417 3186.0 1
1206.1844 -1019.7741 3157.0 1
1250.4624 -1029.1417 3186.0 1
1454.889 -926.7443 2869.0 1
1472.3633 -918.9919 2845.0 1
1502.0083 -918.9919 2845.0 1
1519.2708 -911.5624 2822.0 1
1161.705 -1072.3429 3216.0 1
1195.2157 -1072.3429 3216.0 1
1467.0596 -964.64185 2893.0 1
1472.3633 -948.6367 2845.0 1
1489.8656 -940.9676 2822.0 1
1531.6532 -948.6367 2845.0 1
1161.705 -1105.8538 3216.0 1
1473.6692 -1020.23267 2967.0 1
1479.2301 -1003.0397 2917.0 1
1484.7839 -986.53436 2869.0 1
1502.0083 -978.28174 2845.0 1
1544.574 -986.53436 2869.0 1
1479.2301 -1033.4348 2917.0 1
1472.3633 -1007.92664 2845.0 1
1527.3497 -1024.932 2893.0 1
1570.4155 -1033.4348 2917.0 1
1491.9078 -1072.9474 2942.0 1
1497.2046 -1055.077 2893.0 1
1527.3497 -1055.077 2893.0 1
1583.8748 -1072.9474 2942.0 1
1491.9078 -1103.603 2942.0 1
1509.6252 -1094.225 2917.0 1
1527.3497 -1085.2222 2893.0 1
1570.4155 -1094.225 2917.0 1
1491.9078 -1134.2585 2942.0 1
1509.6252 -1124.6201 2917.0 1
1514.6791 -1106.1141 2869.0 1
1583.8748 -1134.2585 2942.0 1
1491.9078 -1164.9143 2942.0 1
1509.6252 -1155.0154 2917.0 1
1527.3497 -1145.5123 2893.0 1
1570.4155 -1155.0154 2917.0 1
1522.5634 -1195.57 2942.0 1
1553.2191 -1195.57 2942.0 1
1570.4155 -1185.4105 2917.0 1
