ply
format ascii 1.0
comment : created from Kinect user tracker
element vertex 1119
property float x
property float y
property float z
property int userId
end_header
98.312744 190.84229 1665.0 1
115.661995 190.84229 1665.0 1
131.73306 189.00836 1649.0 1
150.36063 190.84229 1665.0 1
80.57436 172.6594 1657.0 1
96.89562 170.9922 1641.0 1
112.9528 169.4292 1626.0 1
128.69737 167.8662 1611.0 1
146.83865 169.4292 1626.0 1
166.09825 171.82579 1649.0 1
181.6137 170.2628 1634.0 1
44.347477 149.6729 1596.0 1
62.429714 153.23653 1634.0 1
79.06694 152.4863 1626.0 1
95.537544 151.73605 1618.0 1
110.8688 149.6729 1596.0 1
127.49908 149.6729 1596.0 1
144.12946 149.6729 1596.0 1
161.46483 150.32935 1603.0 1
180.72452 152.4863 1626.0 1
197.66739 152.4863 1626.0 1
215.66617 153.23653 1634.0 1
44.764275 134.29295 1611.0 1
61.245308 133.62607 1603.0 1
77.60814 133.04256 1596.0 1
93.35282 131.79214 1581.0 1
109.34053 131.20863 1574.0 1
125.74157 131.20863 1574.0 1
142.77486 131.79214 1581.0 1
160.75974 133.04256 1596.0 1
177.39012 133.04256 1596.0 1
194.87137 133.62607 1603.0 1
215.66617 136.21024 1634.0 1
233.68936 136.79375 1641.0 1
28.915499 121.44511 1665.0 1
44.764275 117.50635 1611.0 1
60.97786 116.41225 1596.0 1
76.87874 115.318146 1581.0 1
92.52617 114.29699 1567.0 1
108.85426 114.29699 1567.0 1
125.182365 114.29699 1567.0 1
142.14272 114.80756 1574.0 1
158.54375 114.80756 1574.0 1
174.94489 114.80756 1574.0 1
192.1969 115.318146 1581.0 1
213.55438 118.01693 1618.0 1
232.6925 119.18397 1634.0 1
250.78853 119.69455 1641.0 1
28.776566 103.59562 1657.0 1
44.347477 99.7819 1596.0 1
60.40476 98.8441 1581.0 1
76.19797 97.96883 1567.0 1
91.69952 97.093544 1553.0 1
109.34053 98.40646 1574.0 1
125.74157 98.40646 1574.0 1
142.14272 98.40646 1574.0 1
157.83867 97.96883 1567.0 1
174.16687 97.96883 1567.0 1
191.34593 98.40646 1574.0 1
210.65068 99.7819 1596.0 1
230.414 101.15734 1618.0 1
249.71875 102.15766 1634.0 1
11.510671 86.3297 1657.0 1
28.2382 84.7146 1626.0 1
44.541985 83.5163 1603.0 1
60.97786 83.151596 1596.0 1
77.26775 82.786896 1589.0 1
93.825195 82.786896 1589.0 1
110.38253 82.786896 1589.0 1
125.74157 82.0054 1574.0 1
142.14272 82.0054 1574.0 1
158.54375 82.0054 1574.0 1
175.72292 82.3701 1581.0 1
190.49496 81.6407 1567.0 1
208.67087 82.3701 1581.0 1
228.27791 83.5163 1603.0 1
-5.8386955 70.064095 1681.0 1
11.455097 68.73033 1649.0 1
28.2382 67.7717 1626.0 1
44.764275 67.14649 1611.0 1
61.55096 67.14649 1611.0 1
77.948524 66.81306 1603.0 1
94.23852 66.52129 1596.0 1
109.8268 65.896095 1581.0 1
125.74157 65.60433 1574.0 1
141.51056 65.31258 1567.0 1
157.83867 65.31258 1567.0 1
176.61209 66.22954 1589.0 1
194.87137 66.81306 1603.0 1
213.55438 67.438255 1618.0 1
242.94579 71.106094 1706.0 1
254.45638 69.39722 1665.0 1
-5.8386955 52.54805 1681.0 1
11.455097 51.54773 1649.0 1
28.2382 50.82875 1626.0 1
45.181076 50.82875 1626.0 1
61.818405 50.57867 1618.0 1
78.677925 50.57867 1618.0 1
94.65185 50.10977 1603.0 1
110.38253 49.67213 1589.0 1
126.30077 49.42205 1581.0 1
142.14272 49.20323 1574.0 1
158.54375 49.20323 1574.0 1
176.61209 49.67213 1589.0 1
194.87137 50.10977 1603.0 1
215.66617 51.07883 1634.0 1
244.22745 53.61089 1715.0 1
11.566244 34.69861 1665.0 1
28.4987 34.19845 1641.0 1
45.597878 34.19845 1641.0 1
61.818405 33.719128 1618.0 1
79.06694 33.88585 1626.0 1
94.65185 33.40653 1603.0 1
110.38253 33.11477 1589.0 1
126.939865 33.11477 1589.0 1
143.49731 33.11477 1589.0 1
160.05464 33.11477 1589.0 1
177.39012 33.260647 1596.0 1
197.66739 33.88585 1626.0 1
218.70186 34.531887 1657.0 1
11.739911 17.609783 1690.0 1
28.776566 17.265923 1657.0 1
45.40337 17.026264 1634.0 1
62.429714 17.026264 1634.0 1
79.06694 16.942904 1626.0 1
95.12422 16.786604 1611.0 1
111.355064 16.703243 1603.0 1
128.05829 16.703243 1603.0 1
144.76161 16.703243 1603.0 1
161.46483 16.703243 1603.0 1
180.72452 16.942904 1626.0 1
199.49089 17.099203 1641.0 1
11.739911 0.0 1690.0 1
29.4886 0.0 1698.0 1
46.264755 0.0 1665.0 1
63.308468 0.0 1657.0 1
79.45595 0.0 1634.0 1
95.537544 0.0 1618.0 1
111.9108 0.0 1611.0 1
128.69737 0.0 1611.0 1
144.76161 0.0 1603.0 1
160.75974 0.0 1596.0 1
177.39012 0.0 1596.0 1
199.49089 0.0 1641.0 1
29.783833 -17.870283 1715.0 1
47.654087 -17.870283 1715.0 1
66.173965 -18.047422 1732.0 1
79.79633 -17.099203 1641.0 1
96.00992 -16.942904 1626.0 1
112.397064 -16.859543 1618.0 1
128.69737 -16.786604 1611.0 1
146.11621 -16.859543 1618.0 1
160.75974 -16.630304 1596.0 1
178.16815 -16.703243 1603.0 1
199.49089 -17.099203 1641.0 1
245.89111 -19.412441 1863.0 1
12.531835 -37.59532 1804.0 1
31.173166 -37.407764 1795.0 1
49.126778 -36.845085 1768.0 1
67.20555 -36.657524 1759.0 1
83.39471 -35.740566 1715.0 1
96.48229 -34.05253 1634.0 1
112.9528 -33.885807 1626.0 1
129.89568 -33.885807 1626.0 1
146.83865 -33.885807 1626.0 1
162.97572 -33.719086 1618.0 1
179.83534 -33.719086 1618.0 1
225.26303 -38.61648 1853.0 1
243.25137 -38.40808 1843.0 1
263.87958 -38.61648 1853.0 1
286.24432 -39.033283 1873.0 1
307.39352 -39.24168 1883.0 1
-24.938509 -56.111736 1795.0 1
-6.203397 -55.830395 1786.0 1
12.406794 -55.830395 1786.0 1
30.860565 -55.549053 1777.0 1
49.126778 -55.267715 1768.0 1
66.86169 -54.705032 1750.0 1
83.78372 -53.86101 1723.0 1
98.78512 -52.29801 1673.0 1
114.55053 -51.54777 1649.0 1
130.53477 -51.078873 1634.0 1
146.83865 -50.828793 1626.0 1
163.78154 -50.828793 1626.0 1
182.39172 -51.29769 1641.0 1
220.52193 -56.705673 1814.0 1
241.9315 -57.299614 1833.0 1
262.4555 -57.612217 1843.0 1
283.18777 -57.924816 1853.0 1
304.12857 -58.237415 1863.0 1
327.0143 -58.862617 1883.0 1
-62.033733 -74.4405 1786.0 1
-43.4236 -74.4405 1786.0 1
-24.813469 -74.4405 1786.0 1
-6.140877 -73.690254 1768.0 1
12.281754 -73.690254 1768.0 1
30.704266 -73.690254 1768.0 1
49.126778 -73.690254 1768.0 1
67.20555 -73.31514 1759.0 1
84.659004 -72.564896 1741.0 1
101.265076 -71.48122 1715.0 1
116.21773 -69.73065 1673.0 1
131.73306 -68.73033 1649.0 1
147.56111 -68.10513 1634.0 1
166.09825 -68.73033 1649.0 1
199.50832 -74.81561 1795.0 1
219.30626 -75.190735 1804.0 1
240.74362 -76.02434 1824.0 1
261.03143 -76.39946 1833.0 1
281.65952 -76.81625 1843.0 1
302.49612 -77.233055 1853.0 1
325.27765 -78.06666 1873.0 1
-80.23748 -92.581696 1777.0 1
-61.40853 -92.1128 1768.0 1
-42.76714 -91.6439 1759.0 1
-24.438349 -91.6439 1759.0 1
-6.1096168 -91.6439 1759.0 1
12.2192335 -91.6439 1759.0 1
30.547966 -91.6439 1759.0 1
48.876698 -91.6439 1759.0 1
67.20555 -91.6439 1759.0 1
85.09664 -91.174995 1750.0 1
102.26887 -90.2372 1732.0 1
120.31626 -90.2372 1732.0 1
138.36366 -90.2372 1732.0 1
150.36063 -86.7465 1665.0 1
179.8978 -93.0506 1786.0 1
198.508 -93.0506 1786.0 1
218.21216 -93.5195 1795.0 1
240.74362 -95.030396 1824.0 1
261.03143 -95.4993 1833.0 1
280.13126 -95.4993 1833.0 1
300.86365 -96.0203 1843.0 1
321.80432 -96.5413 1853.0 1
346.63513 -98.1043 1883.0 1
-98.75384 -111.09802 1777.0 1
-79.42472 -109.972664 1759.0 1
-60.783333 -109.40998 1750.0 1
-42.54832 -109.40998 1750.0 1
-24.31331 -109.40998 1750.0 1
-6.0783563 -109.40998 1750.0 1
12.2192335 -109.972664 1759.0 1
30.391666 -109.40998 1750.0 1
48.37654 -108.8473 1741.0 1
66.86169 -109.40998 1750.0 1
85.09664 -109.40998 1750.0 1
102.80029 -108.8473 1741.0 1
121.566666 -109.40998 1750.0 1
140.5206 -109.972664 1759.0 1
158.84944 -109.972664 1759.0 1
178.08472 -110.53534 1768.0 1
196.50735 -110.53534 1768.0 1
217.11806 -111.6607 1786.0 1
239.42377 -113.41126 1814.0 1
259.7498 -114.03646 1824.0 1
278.7558 -114.03646 1824.0 1
300.86365 -115.22434 1843.0 1
321.80432 -115.84954 1853.0 1
350.50095 -119.038055 1904.0 1
-117.86407 -130.2708 1786.0 1
-98.25368 -128.95789 1768.0 1
-79.42472 -128.30142 1759.0 1
-60.783333 -127.644966 1750.0 1
-42.54832 -127.644966 1750.0 1
-24.18827 -126.9885 1741.0 1
-6.0470963 -126.9885 1741.0 1
12.156713 -127.644966 1750.0 1
30.391666 -127.644966 1750.0 1
48.37654 -126.9885 1741.0 1
66.51783 -126.9885 1741.0 1
84.659004 -126.9885 1741.0 1
102.80029 -126.9885 1741.0 1
120.94147 -126.9885 1741.0 1
140.5206 -128.30142 1759.0 1
158.84944 -128.30142 1759.0 1
177.17818 -128.30142 1759.0 1
196.50735 -128.95789 1768.0 1
217.11806 -130.2708 1786.0 1
238.1039 -131.58372 1804.0 1
258.3257 -132.31313 1814.0 1
278.7558 -133.04253 1824.0 1
302.49612 -135.15778 1853.0 1
323.541 -135.88718 1863.0 1
350.50095 -138.87772 1904.0 1
372.4803 -139.68005 1915.0 1
-117.27013 -148.13075 1777.0 1
-97.75352 -146.63028 1759.0 1
-79.01834 -145.88004 1750.0 1
-60.470734 -145.12979 1741.0 1
-42.11068 -144.37955 1732.0 1
-24.06323 -144.37955 1732.0 1
-6.0158362 -144.37955 1732.0 1
12.0941925 -145.12979 1741.0 1
30.391666 -145.88004 1750.0 1
48.12646 -144.37955 1732.0 1
66.173965 -144.37955 1732.0 1
84.22136 -144.37955 1732.0 1
102.26887 -144.37955 1732.0 1
120.94147 -145.12979 1741.0 1
140.5206 -146.63028 1759.0 1
158.84944 -146.63028 1759.0 1
177.17818 -146.63028 1759.0 1
196.50735 -147.38051 1768.0 1
216.02396 -148.13075 1777.0 1
236.91602 -149.63123 1795.0 1
258.3257 -151.21507 1814.0 1
278.7558 -152.04868 1824.0 1
300.86365 -153.6325 1843.0 1
323.541 -155.29971 1863.0 1
350.50095 -158.71747 1904.0 1
378.7045 -162.30196 1947.0 1
-117.86407 -167.49109 1786.0 1
-97.75352 -164.95903 1759.0 1
-79.01834 -164.11502 1750.0 1
-60.15813 -162.42697 1732.0 1
-42.11068 -162.42697 1732.0 1
-24.06323 -162.42697 1732.0 1
-5.984576 -161.58295 1723.0 1
12.0316725 -162.42697 1732.0 1
30.235367 -163.271 1741.0 1
48.12646 -162.42697 1732.0 1
66.173965 -162.42697 1732.0 1
84.22136 -162.42697 1732.0 1
102.26887 -162.42697 1732.0 1
120.31626 -162.42697 1732.0 1
139.08264 -163.271 1741.0 1
158.03668 -164.11502 1750.0 1
177.17818 -164.95903 1759.0 1
196.50735 -165.80305 1768.0 1
216.02396 -166.64708 1777.0 1
236.91602 -168.33511 1795.0 1
256.90164 -169.17914 1804.0 1
280.13126 -171.89876 1833.0 1
300.86365 -172.83655 1843.0 1
325.27765 -175.64995 1873.0 1
350.50095 -178.55713 1904.0 1
380.8441 -183.62126 1958.0 1
-138.61377 -189.0188 1814.0 1
-117.86407 -186.1012 1786.0 1
-97.75352 -183.2878 1759.0 1
-79.01834 -182.34999 1750.0 1
-60.783333 -182.34999 1750.0 1
-42.329502 -181.4122 1741.0 1
-24.18827 -181.4122 1741.0 1
-6.0158362 -180.4744 1732.0 1
12.0316725 -180.4744 1732.0 1
30.079065 -180.4744 1732.0 1
48.37654 -181.4122 1741.0 1
66.173965 -180.4744 1732.0 1
84.22136 -180.4744 1732.0 1
102.26887 -180.4744 1732.0 1
120.94147 -181.4122 1741.0 1
138.36366 -180.4744 1732.0 1
158.03668 -182.34999 1750.0 1
177.17818 -183.2878 1759.0 1
196.50735 -184.2256 1768.0 1
216.02396 -185.16339 1777.0 1
236.91602 -187.039 1795.0 1
256.90164 -187.97679 1804.0 1
278.7558 -190.06079 1824.0 1
300.86365 -192.0406 1843.0 1
327.0143 -196.2086 1883.0 1
350.50095 -198.39679 1904.0 1
378.7045 -202.8774 1947.0 1
-139.3779 -209.06686 1824.0 1
-117.86407 -204.7113 1786.0 1
-98.25368 -202.64813 1768.0 1
-79.42472 -201.61656 1759.0 1
-60.783333 -200.58498 1750.0 1
-42.11068 -198.52182 1732.0 1
-24.06323 -198.52182 1732.0 1
-6.0158362 -198.52182 1732.0 1
12.0316725 -198.52182 1732.0 1
30.079065 -198.52182 1732.0 1
48.12646 -198.52182 1732.0 1
66.173965 -198.52182 1732.0 1
84.22136 -198.52182 1732.0 1
102.80029 -199.5534 1741.0 1
120.94147 -199.5534 1741.0 1
139.08264 -199.5534 1741.0 1
158.03668 -200.58498 1750.0 1
177.17818 -201.61656 1759.0 1
196.50735 -202.64813 1768.0 1
217.11806 -204.7113 1786.0 1
235.72813 -204.7113 1786.0 1
256.90164 -206.77446 1804.0 1
278.7558 -209.06686 1824.0 1
302.49612 -212.39084 1853.0 1
330.66132 -218.23645 1904.0 1
352.5259 -219.49728 1915.0 1
374.42535 -220.64348 1925.0 1
-140.06563 -229.19827 1833.0 1
-118.45801 -224.44676 1795.0 1
-98.75384 -222.19604 1777.0 1
-79.42472 -219.94533 1759.0 1
-61.095932 -219.94533 1759.0 1
-42.329502 -217.6946 1741.0 1
-24.06323 -216.56924 1732.0 1
-6.0158362 -216.56924 1732.0 1
12.0316725 -216.56924 1732.0 1
30.079065 -216.56924 1732.0 1
48.12646 -216.56924 1732.0 1
66.173965 -216.56924 1732.0 1
84.22136 -216.56924 1732.0 1
102.80029 -217.6946 1741.0 1
120.94147 -217.6946 1741.0 1
139.80162 -218.81996 1750.0 1
158.03668 -218.81996 1750.0 1
177.17818 -219.94533 1759.0 1
196.50735 -221.07068 1768.0 1
214.92986 -221.07068 1768.0 1
236.91602 -224.44676 1795.0 1
256.90164 -225.57211 1804.0 1
277.22754 -226.82253 1814.0 1
305.76105 -234.19987 1873.0 1
330.66132 -238.07611 1904.0 1
352.5259 -239.45155 1915.0 1
374.42535 -240.70195 1925.0 1
-139.3779 -247.07907 1824.0 1
-118.45801 -243.15073 1795.0 1
-98.75384 -240.71245 1777.0 1
-79.8311 -239.49332 1768.0 1
-61.095932 -238.27417 1759.0 1
-42.54832 -237.05502 1750.0 1
-24.18827 -235.83589 1741.0 1
-6.0158362 -234.61674 1732.0 1
12.0316725 -234.61674 1732.0 1
30.079065 -234.61674 1732.0 1
48.12646 -234.61674 1732.0 1
66.173965 -234.61674 1732.0 1
84.22136 -234.61674 1732.0 1
102.80029 -235.83589 1741.0 1
120.94147 -235.83589 1741.0 1
139.80162 -237.05502 1750.0 1
158.03668 -237.05502 1750.0 1
177.17818 -238.27417 1759.0 1
196.50735 -239.49332 1768.0 1
214.92986 -239.49332 1768.0 1
235.72813 -241.9316 1786.0 1
255.61998 -243.15073 1795.0 1
277.22754 -245.72447 1814.0 1
314.24988 -260.76053 1925.0 1
332.57166 -259.40594 1915.0 1
352.5259 -259.40594 1915.0 1
376.5649 -262.25058 1936.0 1
-160.90216 -270.31564 1853.0 1
-139.3779 -266.08514 1824.0 1
-118.45801 -261.8546 1795.0 1
-99.254 -260.5417 1786.0 1
-80.23748 -259.22876 1777.0 1
-62.033733 -260.5417 1786.0 1
-42.76714 -256.60294 1759.0 1
-24.31331 -255.29001 1750.0 1
-6.0470963 -253.9771 1741.0 1
12.156713 -255.29001 1750.0 1
30.079065 -252.66417 1732.0 1
48.12646 -252.66417 1732.0 1
66.173965 -252.66417 1732.0 1
84.22136 -252.66417 1732.0 1
102.26887 -252.66417 1732.0 1
120.94147 -253.9771 1741.0 1
139.80162 -255.29001 1750.0 1
158.84944 -256.60294 1759.0 1
178.08472 -257.91586 1768.0 1
196.50735 -257.91586 1768.0 1
216.02396 -259.22876 1777.0 1
235.72813 -260.5417 1786.0 1
255.61998 -261.8546 1795.0 1
275.69928 -263.16754 1804.0 1
316.0456 -282.4237 1936.0 1
334.30832 -280.819 1925.0 1
354.3668 -280.819 1925.0 1
372.4803 -279.3602 1915.0 1
-161.7705 -291.1869 1863.0 1
-139.3779 -285.0912 1824.0 1
-118.45801 -280.5585 1795.0 1
-99.75416 -280.5585 1795.0 1
-81.05025 -280.5585 1795.0 1
-62.65893 -281.9652 1804.0 1
-43.64242 -280.5585 1795.0 1
-24.563389 -276.3384 1768.0 1
-6.0783563 -273.525 1750.0 1
12.2192335 -274.9317 1759.0 1
30.235367 -272.1183 1741.0 1
48.12646 -270.7116 1732.0 1
66.173965 -270.7116 1732.0 1
84.22136 -270.7116 1732.0 1
102.80029 -272.1183 1741.0 1
121.566666 -273.525 1750.0 1
139.80162 -273.525 1750.0 1
158.84944 -274.9317 1759.0 1
178.08472 -276.3384 1768.0 1
198.508 -279.1518 1786.0 1
217.11806 -279.1518 1786.0 1
236.91602 -280.5585 1795.0 1
256.90164 -281.9652 1804.0 1
300.91568 -307.7547 1969.0 1
319.63702 -306.0354 1958.0 1
336.21866 -302.5968 1936.0 1
354.3668 -300.8775 1925.0 1
376.5649 -302.5968 1936.0 1
-162.63882 -312.26654 1873.0 1
-140.06563 -305.59775 1833.0 1
-119.05195 -300.76285 1804.0 1
-99.75416 -299.2624 1795.0 1
-81.45663 -300.76285 1804.0 1
-63.6662 -305.59775 1833.0 1
-44.347507 -304.09726 1824.0 1
-24.813469 -297.7619 1786.0 1
-6.1096168 -293.26047 1759.0 1
12.156713 -291.75998 1750.0 1
30.235367 -290.2595 1741.0 1
48.12646 -288.759 1732.0 1
66.173965 -288.759 1732.0 1
84.22136 -288.759 1732.0 1
102.80029 -290.2595 1741.0 1
122.191864 -293.26047 1759.0 1
140.5206 -293.26047 1759.0 1
159.6622 -294.76093 1768.0 1
178.99126 -296.2614 1777.0 1
199.50832 -299.2624 1795.0 1
218.21216 -299.2624 1795.0 1
238.1039 -300.76285 1804.0 1
261.03143 -305.59775 1833.0 1
319.63702 -326.43774 1958.0 1
338.129 -324.60382 1947.0 1
356.39172 -322.7699 1936.0 1
378.7045 -324.60382 1947.0 1
403.50058 -328.27167 1969.0 1
-163.50716 -333.55457 1883.0 1
-141.59389 -328.2404 1853.0 1
-120.96575 -324.69757 1833.0 1
-101.36578 -323.10333 1824.0 1
-83.217606 -326.46896 1843.0 1
-65.055534 -331.78317 1873.0 1
-44.566326 -324.69757 1833.0 1
-25.063549 -319.56052 1804.0 1
-6.203397 -316.372 1786.0 1
12.281754 -313.18347 1768.0 1
30.547966 -311.58923 1759.0 1
48.62662 -309.99496 1750.0 1
66.51783 -308.4007 1741.0 1
84.659004 -308.4007 1741.0 1
103.86313 -311.58923 1759.0 1
122.191864 -311.58923 1759.0 1
141.23958 -313.18347 1768.0 1
159.6622 -313.18347 1768.0 1
179.8978 -316.372 1786.0 1
199.50832 -317.96625 1795.0 1
219.30626 -319.56052 1804.0 1
241.9315 -324.69757 1833.0 1
263.87958 -328.2404 1853.0 1
340.03934 -346.8401 1958.0 1
358.4167 -344.89154 1947.0 1
380.8441 -346.8401 1958.0 1
401.24637 -346.8401 1958.0 1
-184.19781 -355.23868 1894.0 1
-162.63882 -351.2999 1873.0 1
-142.35803 -349.42432 1863.0 1
-122.28562 -347.5487 1853.0 1
-102.97741 -347.5487 1853.0 1
-65.055534 -351.2999 1873.0 1
-44.80946 -345.6731 1843.0 1
-25.341415 -342.10947 1824.0 1
-6.234657 -336.67023 1795.0 1
12.469314 -336.67023 1795.0 1
30.860565 -333.29416 1777.0 1
48.876698 -329.91806 1759.0 1
67.20555 -329.91806 1759.0 1
85.53428 -329.91806 1759.0 1
103.86313 -329.91806 1759.0 1
122.81706 -331.6061 1768.0 1
141.23958 -331.6061 1768.0 1
160.47496 -333.29416 1777.0 1
180.80434 -336.67023 1795.0 1
200.50864 -338.35828 1804.0 1
220.52193 -340.23386 1814.0 1
243.25137 -345.6731 1843.0 1
340.03934 -367.24252 1958.0 1
360.44162 -367.24252 1958.0 1
378.7045 -365.17935 1947.0 1
396.738 -363.11618 1936.0 1
-184.19781 -374.97412 1894.0 1
-162.63882 -370.81656 1873.0 1
-143.12216 -370.81656 1873.0 1
-123.605484 -370.81656 1873.0 1
-104.088875 -370.81656 1873.0 1
-65.055534 -370.81656 1873.0 1
-44.80946 -364.87717 1843.0 1
-25.466455 -362.89734 1833.0 1
-6.3006506 -359.13574 1814.0 1
12.531835 -357.15594 1804.0 1
31.173166 -355.3741 1795.0 1
49.376858 -351.8105 1777.0 1
67.54941 -350.02866 1768.0 1
85.971924 -350.02866 1768.0 1
104.394554 -350.02866 1768.0 1
122.81706 -350.02866 1768.0 1
142.67754 -353.5923 1786.0 1
161.28773 -353.5923 1786.0 1
180.80434 -355.3741 1795.0 1
200.50864 -357.15594 1804.0 1
221.7376 -361.11554 1824.0 1
244.57124 -366.85696 1853.0 1
341.94965 -389.82263 1969.0 1
358.4167 -385.46707 1947.0 1
378.7045 -385.46707 1947.0 1
396.738 -383.2893 1936.0 1
416.9112 -383.2893 1936.0 1
-184.19781 -394.7096 1894.0 1
-162.63882 -390.3332 1873.0 1
-143.88629 -392.4172 1883.0 1
-124.99135 -394.7096 1894.0 1
-66.13226 -396.79358 1904.0 1
-45.295727 -388.2492 1863.0 1
-25.466455 -381.9972 1833.0 1
-6.335384 -380.12158 1824.0 1
12.601301 -378.0376 1814.0 1
31.329466 -375.95358 1804.0 1
49.877018 -374.078 1795.0 1
67.89327 -370.32678 1777.0 1
86.40956 -370.32678 1777.0 1
104.92597 -370.32678 1777.0 1
122.81706 -368.4512 1768.0 1
142.67754 -372.2024 1786.0 1
162.1005 -374.078 1795.0 1
181.71088 -375.95358 1804.0 1
201.6201 -378.0376 1814.0 1
222.8317 -381.9972 1833.0 1
248.53084 -392.4172 1883.0 1
345.944 -415.13278 1992.0 1
360.44162 -408.04718 1958.0 1
376.5649 -403.4624 1936.0 1
396.738 -403.4624 1936.0 1
414.5424 -401.16998 1925.0 1
-184.19781 -414.44507 1894.0 1
-164.46233 -414.44507 1894.0 1
-144.72684 -414.44507 1894.0 1
-125.651276 -416.63324 1904.0 1
-66.13226 -416.63324 1904.0 1
-45.53886 -409.84982 1873.0 1
-25.605389 -403.28525 1843.0 1
-6.3666444 -401.09705 1833.0 1
12.670768 -399.12766 1824.0 1
31.503132 -396.93945 1814.0 1
50.127098 -394.75125 1804.0 1
68.580986 -392.78186 1795.0 1
87.28484 -392.78186 1795.0 1
105.45739 -390.8125 1786.0 1
123.44226 -388.8431 1777.0 1
143.39651 -392.78186 1795.0 1
162.1005 -392.78186 1795.0 1
181.71088 -394.75125 1804.0 1
202.73157 -399.12766 1824.0 1
224.04736 -403.28525 1843.0 1
251.30255 -416.63324 1904.0 1
343.86 -433.26358 1980.0 1
360.44162 -428.44952 1958.0 1
374.42535 -421.2285 1925.0 1
392.43454 -419.04028 1915.0 1
412.38892 -419.04028 1915.0 1
434.60083 -421.2285 1925.0 1
-205.01006 -436.4729 1904.0 1
-183.12804 -431.65887 1883.0 1
-163.50716 -431.65887 1883.0 1
-145.49097 -436.4729 1904.0 1
-126.377205 -438.99457 1915.0 1
-86.92018 -441.28696 1925.0 1
-66.13226 -436.4729 1904.0 1
-45.53886 -429.3665 1873.0 1
-25.605389 -422.4893 1843.0 1
-6.335384 -418.13373 1824.0 1
12.733289 -420.19687 1833.0 1
31.8331 -420.19687 1833.0 1
50.404964 -415.8413 1814.0 1
68.92485 -413.54892 1804.0 1
87.28484 -411.48575 1795.0 1
105.988815 -411.48575 1795.0 1
124.692665 -411.48575 1795.0 1
143.39651 -411.48575 1795.0 1
162.91325 -413.54892 1804.0 1
181.71088 -413.54892 1804.0 1
203.73189 -420.19687 1833.0 1
225.26303 -424.78168 1853.0 1
358.4167 -446.33023 1947.0 1
374.42535 -441.28696 1925.0 1
392.43454 -438.99457 1915.0 1
410.0201 -436.4729 1904.0 1
434.60083 -441.28696 1925.0 1
-205.01006 -456.31268 1904.0 1
-184.19781 -453.91608 1894.0 1
-164.46233 -453.91608 1894.0 1
-145.49097 -456.31268 1904.0 1
-127.03714 -461.34552 1925.0 1
-86.92018 -461.34552 1925.0 1
-66.13226 -456.31268 1904.0 1
-45.53886 -448.8832 1873.0 1
-25.744322 -444.09 1853.0 1
-6.3666444 -439.2968 1833.0 1
12.670768 -437.13986 1824.0 1
31.6768 -437.13986 1824.0 1
50.404964 -434.74326 1814.0 1
68.92485 -432.34668 1804.0 1
87.28484 -430.18973 1795.0 1
105.988815 -430.18973 1795.0 1
125.31786 -432.34668 1804.0 1
144.1155 -432.34668 1804.0 1
162.91325 -432.34668 1804.0 1
183.72542 -437.13986 1824.0 1
203.73189 -439.2968 1833.0 1
227.69437 -448.8832 1873.0 1
254.07428 -461.34552 1925.0 1
374.42535 -461.34552 1925.0 1
392.43454 -458.94894 1915.0 1
410.0201 -456.31268 1904.0 1
429.8597 -456.31268 1904.0 1
-206.19446 -478.9032 1915.0 1
-185.17035 -476.15234 1904.0 1
-164.46233 -473.65152 1894.0 1
-146.33151 -478.9032 1915.0 1
-87.91355 -486.90576 1947.0 1
-66.13226 -476.15234 1904.0 1
-45.53886 -468.39984 1873.0 1
-25.744322 -463.39825 1853.0 1
-6.3666444 -458.39664 1833.0 1
12.733289 -458.39664 1833.0 1
31.8331 -458.39664 1833.0 1
50.404964 -453.64514 1814.0 1
69.306915 -453.64514 1814.0 1
87.72248 -451.14432 1804.0 1
106.52023 -451.14432 1804.0 1
125.31786 -451.14432 1804.0 1
144.1155 -451.14432 1804.0 1
164.71938 -456.14594 1824.0 1
184.63196 -458.39664 1833.0 1
204.84335 -460.89746 1843.0 1
228.91003 -470.90067 1883.0 1
256.978 -486.90576 1947.0 1
374.42535 -481.40402 1925.0 1
392.43454 -478.9032 1915.0 1
410.0201 -476.15234 1904.0 1
425.11862 -470.90067 1883.0 1
-205.01006 -495.992 1904.0 1
-185.17035 -495.992 1904.0 1
-165.33066 -495.992 1904.0 1
-146.33151 -498.85748 1915.0 1
-87.91355 -507.19348 1947.0 1
-66.514336 -498.85748 1915.0 1
-45.53886 -487.9165 1873.0 1
-25.883255 -485.3115 1863.0 1
-6.4013777 -480.1015 1843.0 1
12.802755 -480.1015 1843.0 1
31.8331 -477.4965 1833.0 1
50.68283 -475.15198 1824.0 1
69.306915 -472.547 1814.0 1
88.20875 -472.547 1814.0 1
106.52023 -469.942 1804.0 1
125.31786 -469.942 1804.0 1
145.71323 -475.15198 1824.0 1
164.71938 -475.15198 1824.0 1
184.63196 -477.4965 1833.0 1
207.06628 -485.3115 1863.0 1
230.24727 -493.387 1894.0 1
259.88168 -512.9245 1969.0 1
392.43454 -498.85748 1915.0 1
407.86664 -493.387 1894.0 1
425.11862 -490.52148 1883.0 1
-206.19446 -518.81177 1915.0 1
-185.17035 -515.83167 1904.0 1
-165.33066 -515.83167 1904.0 1
-146.33151 -518.81177 1915.0 1
-87.41686 -524.5011 1936.0 1
-66.13226 -515.83167 1904.0 1
-45.781994 -510.14233 1883.0 1
-25.883255 -504.72394 1863.0 1
-6.436111 -502.01474 1853.0 1
12.872222 -502.01474 1853.0 1
32.006767 -499.30554 1843.0 1
50.68283 -494.15805 1824.0 1
69.68898 -494.15805 1824.0 1
88.695015 -494.15805 1824.0 1
107.1107 -491.44885 1814.0 1
126.7072 -494.15805 1824.0 1
146.4322 -496.59634 1833.0 1
165.53214 -496.59634 1833.0 1
186.64648 -502.01474 1853.0 1
208.17775 -507.43314 1873.0 1
232.80016 -518.81177 1915.0 1
259.88168 -533.44147 1969.0 1
392.43454 -518.81177 1915.0 1
405.4978 -510.14233 1883.0 1
422.86096 -507.43314 1873.0 1
444.73944 -510.14233 1883.0 1
-227.32964 -541.57947 1925.0 1
-206.19446 -538.76605 1915.0 1
-186.24014 -538.76605 1915.0 1
-166.28583 -538.76605 1915.0 1
-86.92018 -541.57947 1925.0 1
-66.13226 -535.6713 1904.0 1
-46.04944 -532.8579 1894.0 1
-26.022188 -526.94977 1873.0 1
-6.4708447 -524.13635 1863.0 1
12.872222 -521.323 1853.0 1
32.006767 -518.5096 1843.0 1
51.210777 -518.5096 1843.0 1
70.032845 -515.69617 1833.0 1
89.13265 -515.69617 1833.0 1
108.23259 -515.69617 1833.0 1
127.3324 -515.69617 1833.0 1
146.4322 -515.69617 1833.0 1
166.43521 -518.5096 1843.0 1
187.65375 -524.13635 1863.0 1
211.6233 -535.6713 1904.0 1
238.02753 -550.86365 1958.0 1
259.88168 -553.95844 1969.0 1
392.43454 -538.76605 1915.0 1
405.4978 -529.7632 1883.0 1
422.86096 -526.94977 1873.0 1
442.37756 -526.94977 1873.0 1
-227.32964 -561.638 1925.0 1
-206.19446 -558.7204 1915.0 1
-186.24014 -558.7204 1915.0 1
-167.15416 -561.638 1925.0 1
-87.91355 -568.05676 1947.0 1
-66.861664 -561.638 1925.0 1
-45.781994 -549.3841 1883.0 1
-26.022188 -546.4665 1873.0 1
-6.4708447 -543.5489 1863.0 1
13.011156 -546.4665 1873.0 1
32.3541 -543.5489 1863.0 1
51.488644 -540.6313 1853.0 1
70.41491 -537.7137 1843.0 1
89.61892 -537.7137 1843.0 1
108.82305 -537.7137 1843.0 1
128.02707 -537.7137 1843.0 1
147.23108 -537.7137 1843.0 1
169.14441 -546.4665 1873.0 1
190.77628 -552.59344 1894.0 1
215.18 -564.8474 1936.0 1
239.36476 -574.47546 1969.0 1
264.36923 -584.3953 2003.0 1
403.34436 -546.4665 1873.0 1
422.86096 -546.4665 1873.0 1
437.65384 -540.6313 1853.0 1
-227.32964 -581.69653 1925.0 1
-206.19446 -578.6747 1915.0 1
-186.24014 -578.6747 1915.0 1
-167.15416 -581.69653 1925.0 1
-87.91355 -588.3445 1947.0 1
-66.514336 -578.6747 1915.0 1
-46.04944 -572.3289 1894.0 1
-26.022188 -565.98315 1873.0 1
-6.505578 -565.98315 1873.0 1
13.011156 -565.98315 1873.0 1
32.527767 -565.98315 1873.0 1
52.044376 -565.98315 1873.0 1
71.17905 -562.96136 1863.0 1
90.10519 -559.9396 1853.0 1
110.00399 -562.96136 1863.0 1
129.4164 -562.96136 1863.0 1
149.62767 -565.98315 1873.0 1
171.04085 -572.3289 1894.0 1
193.8988 -581.69653 1925.0 1
215.18 -585.0205 1936.0 1
240.702 -598.3164 1980.0 1
264.36923 -605.26654 2003.0 1
405.4978 -569.00494 1883.0 1
418.3456 -559.9396 1853.0 1
437.65384 -559.9396 1853.0 1
452.03003 -553.89594 1833.0 1
-227.32964 -601.755 1925.0 1
-206.19446 -598.62897 1915.0 1
-186.24014 -598.62897 1915.0 1
-166.28583 -598.62897 1915.0 1
-87.41686 -605.1936 1936.0 1
-66.514336 -598.62897 1915.0 1
-46.292572 -595.19037 1904.0 1
-26.022188 -585.4998 1873.0 1
-6.505578 -585.4998 1873.0 1
13.080623 -588.6258 1883.0 1
32.70143 -588.6258 1883.0 1
52.044376 -585.4998 1873.0 1
71.56111 -585.4998 1873.0 1
91.07772 -585.4998 1873.0 1
111.18492 -588.6258 1883.0 1
130.80573 -588.6258 1883.0 1
151.3053 -592.0644 1894.0 1
172.93729 -598.62897 1915.0 1
193.8988 -601.755 1925.0 1
217.62521 -612.0708 1958.0 1
242.1608 -622.6992 1992.0 1
264.36923 -626.1378 2003.0 1
416.08795 -576.12177 1843.0 1
437.65384 -579.2478 1853.0 1
456.96216 -579.2478 1853.0 1
-227.32964 -621.8135 1925.0 1
-206.19446 -618.58325 1915.0 1
-186.24014 -618.58325 1915.0 1
-86.92018 -621.8135 1925.0 1
-66.514336 -618.58325 1915.0 1
-46.04944 -611.79987 1894.0 1
-26.022188 -605.0164 1873.0 1
-6.505578 -605.0164 1873.0 1
13.080623 -608.24664 1883.0 1
32.70143 -608.24664 1883.0 1
52.322243 -608.24664 1883.0 1
71.94318 -608.24664 1883.0 1
92.09888 -611.79987 1894.0 1
111.834435 -611.79987 1894.0 1
131.56987 -611.79987 1894.0 1
152.10416 -615.03 1904.0 1
173.84036 -621.8135 1925.0 1
196.11479 -628.9199 1947.0 1
217.62521 -632.47314 1958.0 1
240.702 -639.5796 1980.0 1
265.95306 -650.88525 2015.0 1
413.8303 -592.09564 1833.0 1
435.29196 -595.3258 1843.0 1
454.4961 -595.3258 1843.0 1
-227.32964 -641.87195 1925.0 1
-206.19446 -638.53754 1915.0 1
-185.17035 -634.8697 1904.0 1
-87.41686 -645.5398 1936.0 1
-66.13226 -634.8697 1904.0 1
-45.781994 -627.8675 1883.0 1
-26.022188 -624.5331 1873.0 1
-6.505578 -624.5331 1873.0 1
13.080623 -627.8675 1883.0 1
32.70143 -627.8675 1883.0 1
52.322243 -627.8675 1883.0 1
71.94318 -627.8675 1883.0 1
92.585144 -634.8697 1904.0 1
113.07442 -638.53754 1915.0 1
133.02867 -638.53754 1915.0 1
152.98291 -638.53754 1915.0 1
173.84036 -641.87195 1925.0 1
196.11479 -649.20764 1947.0 1
218.84784 -656.54333 1969.0 1
242.1608 -664.2124 1992.0 1
265.95306 -671.88153 2015.0 1
396.88394 -614.52985 1843.0 1
411.7984 -608.1945 1824.0 1
430.8044 -608.1945 1824.0 1
452.03003 -611.1955 1833.0 1
468.81662 -608.1945 1824.0 1
-247.38815 -661.93054 1925.0 1
-228.62866 -665.713 1936.0 1
-206.19446 -658.49194 1915.0 1
-186.24014 -658.49194 1915.0 1
-86.92018 -661.93054 1925.0 1
-66.13226 -654.7095 1904.0 1
-45.781994 -647.4884 1883.0 1
-26.022188 -644.0498 1873.0 1
-6.4708447 -640.6112 1863.0 1
13.011156 -644.0498 1873.0 1
32.70143 -647.4884 1883.0 1
52.322243 -647.4884 1883.0 1
72.36345 -651.2709 1894.0 1
92.585144 -654.7095 1904.0 1
112.424904 -654.7095 1904.0 1
133.02867 -658.49194 1915.0 1
152.98291 -658.49194 1915.0 1
173.84036 -661.93054 1925.0 1
197.22278 -673.2779 1958.0 1
220.07045 -680.84283 1980.0 1
243.49803 -688.7516 2003.0 1
267.53693 -697.0043 2027.0 1
396.88394 -633.734 1843.0 1
409.54074 -623.7621 1814.0 1
428.44257 -623.7621 1814.0 1
447.3445 -623.7621 1814.0 1
468.81662 -627.2007 1824.0 1
-227.32964 -681.989 1925.0 1
-206.19446 -678.4462 1915.0 1
-186.24014 -678.4462 1915.0 1
-166.28583 -678.4462 1915.0 1
-86.92018 -681.989 1925.0 1
-66.13226 -674.54913 1904.0 1
-45.781994 -667.10925 1883.0 1
-26.022188 -663.56647 1873.0 1
-6.505578 -663.56647 1873.0 1
13.080623 -667.10925 1883.0 1
32.70143 -667.10925 1883.0 1
52.322243 -667.10925 1883.0 1
72.745514 -674.54913 1904.0 1
93.12004 -678.4462 1915.0 1
113.07442 -678.4462 1915.0 1
133.72333 -681.989 1925.0 1
153.78178 -681.989 1925.0 1
176.82048 -693.68024 1958.0 1
198.33078 -697.57733 1969.0 1
221.4042 -705.72577 1992.0 1
244.95683 -713.8742 2015.0 1
407.28305 -639.12115 1804.0 1
428.44257 -642.66394 1814.0 1
444.87845 -639.12115 1804.0 1
463.6761 -639.12115 1804.0 1
-227.32964 -702.0475 1925.0 1
-206.19446 -698.4005 1915.0 1
-187.21268 -702.0475 1925.0 1
-167.15416 -702.0475 1925.0 1
-87.91355 -710.07086 1947.0 1
-66.13226 -694.3888 1904.0 1
-46.04944 -690.74176 1894.0 1
-26.161121 -686.7301 1883.0 1
-6.505578 -683.08307 1873.0 1
13.080623 -686.7301 1883.0 1
32.70143 -686.7301 1883.0 1
52.322243 -686.7301 1883.0 1
73.165794 -698.4005 1915.0 1
93.12004 -698.4005 1915.0 1
113.66488 -702.0475 1925.0 1
133.72333 -702.0475 1925.0 1
157.2968 -718.0943 1969.0 1
177.81384 -718.0943 1969.0 1
199.43877 -722.10596 1980.0 1
222.62682 -730.4941 2003.0 1
247.87444 -743.6233 2039.0 1
407.28305 -657.91876 1804.0 1
426.0807 -657.91876 1804.0 1
444.87845 -657.91876 1804.0 1
466.24634 -661.5658 1814.0 1
-228.62866 -726.2323 1936.0 1
-206.19446 -718.3548 1915.0 1
-186.24014 -718.3548 1915.0 1
-168.10933 -726.2323 1936.0 1
-147.9362 -726.2323 1936.0 1
-87.41686 -726.2323 1936.0 1
-66.13226 -714.22845 1904.0 1
-46.04944 -710.47723 1894.0 1
-26.022188 -702.59973 1873.0 1
-6.505578 -702.59973 1873.0 1
13.080623 -706.35095 1883.0 1
32.70143 -706.35095 1883.0 1
52.322243 -706.35095 1883.0 1
72.745514 -714.22845 1904.0 1
93.12004 -718.3548 1915.0 1
115.61343 -734.4849 1958.0 1
139.14172 -751.36536 2003.0 1
160.01294 -751.36536 2003.0 1
179.8909 -747.239 1992.0 1
201.75548 -751.36536 2003.0 1
223.96059 -755.86676 2015.0 1
249.33322 -769.3711 2051.0 1
407.28305 -676.71643 1804.0 1
432.9301 -687.5949 1833.0 1
442.659 -673.3404 1795.0 1
463.6761 -676.71643 1804.0 1
-227.32964 -742.1644 1925.0 1
-206.19446 -738.309 1915.0 1
-187.21268 -742.1644 1925.0 1
-169.0645 -750.6463 1947.0 1
-148.77675 -750.6463 1947.0 1
-86.46864 -738.309 1915.0 1
-66.13226 -734.0681 1904.0 1
-45.781994 -725.97174 1883.0 1
-26.022188 -722.1164 1873.0 1
-6.505578 -722.1164 1873.0 1
13.080623 -725.97174 1883.0 1
32.892467 -730.2127 1894.0 1
52.627895 -730.2127 1894.0 1
73.165794 -738.309 1915.0 1
97.982704 -776.86304 2015.0 1
118.97909 -776.86304 2015.0 1
140.80893 -781.4895 2027.0 1
160.97157 -776.86304 2015.0 1
181.96796 -776.86304 2015.0 1
202.9642 -776.86304 2015.0 1
226.6281 -786.116 2039.0 1
250.79202 -795.36896 2063.0 1
407.28305 -695.5141 1804.0 1
426.0807 -695.5141 1804.0 1
440.4395 -688.5744 1786.0 1
463.6761 -695.5141 1804.0 1
-207.2712 -762.223 1925.0 1
-189.35225 -770.93414 1947.0 1
-171.93 -784.00085 1980.0 1
-148.77675 -770.93414 1947.0 1
-86.92018 -762.223 1925.0 1
-66.514336 -758.2634 1915.0 1
-46.04944 -749.94824 1894.0 1
-26.022188 -741.6331 1873.0 1
-6.505578 -741.6331 1873.0 1
13.080623 -745.5927 1883.0 1
32.892467 -749.94824 1894.0 1
52.627895 -749.94824 1894.0 1
73.54786 -762.223 1925.0 1
100.94893 -822.013 2076.0 1
121.10477 -812.114 2051.0 1
142.47614 -812.114 2051.0 1
161.93022 -802.61096 2027.0 1
181.96796 -797.85944 2015.0 1
205.38164 -807.3625 2039.0 1
230.74052 -822.013 2076.0 1
255.41156 -831.912 2101.0 1
397.12357 -696.49365 1759.0 1
423.95502 -710.7482 1795.0 1
444.87845 -714.3119 1804.0 1
463.6761 -714.3119 1804.0 1
-231.22672 -795.692 1958.0 1
-209.64 -791.22186 1947.0 1
-189.35225 -791.22186 1947.0 1
-170.97482 -800.16223 1969.0 1
-88.41024 -795.692 1958.0 1
-66.514336 -778.2177 1915.0 1
-46.04944 -769.6837 1894.0 1
-26.313948 -769.6837 1894.0 1
-6.505578 -761.1497 1873.0 1
13.080623 -765.21356 1883.0 1
32.70143 -765.21356 1883.0 1
53.211414 -778.2177 1915.0 1
73.54786 -782.2815 1925.0 1
101.53245 -848.5214 2088.0 1
121.813324 -838.36194 2063.0 1
143.30974 -838.36194 2063.0 1
163.84749 -833.4854 2051.0 1
185.219 -833.4854 2051.0 1
207.79909 -838.36194 2063.0 1
229.29562 -838.36194 2063.0 1
