ply
format ascii 1.0
comment : created from Kinect user tracker
element vertex 386
property float x
property float y
property float z
property int userId
end_header
1356.823 133.897 2570.0 1
1353.4537 130.9794 2514.0 1
1301.062 104.78355 2514.0 1
1327.2579 104.78355 2514.0 1
1334.0726 103.283066 2478.0 1
1295.8555 81.55733 2609.0 1
1312.8992 80.93213 2589.0 1
1320.2104 79.74425 2551.0 1
1317.7549 78.02495 2496.0 1
1343.7632 78.02495 2496.0 1
1268.6697 54.37157 2609.0 1
1295.8555 54.37157 2609.0 1
1303.2642 53.55881 2570.0 1
1301.062 52.391773 2514.0 1
1317.7549 52.01665 2496.0 1
1324.382 51.26641 2460.0 1
1290.0204 28.248592 2711.0 1
1278.395 27.394154 2629.0 1
1285.9216 26.977354 2589.0 1
1303.2642 26.779373 2570.0 1
1310.3774 26.383415 2532.0 1
1317.7549 26.008295 2496.0 1
1334.0726 25.820734 2478.0 1
1260.5178 0.0 2649.0 1
1278.395 0.0 2629.0 1
1276.4846 0.0 2570.0 1
1303.2642 0.0 2570.0 1
1310.3774 0.0 2532.0 1
1327.2579 0.0 2514.0 1
1343.7632 0.0 2496.0 1
1242.2238 -27.810953 2669.0 1
1260.5178 -27.602552 2649.0 1
1288.1204 -27.602552 2649.0 1
1285.9216 -26.977354 2589.0 1
1303.2642 -26.779373 2570.0 1
1320.2104 -26.581394 2551.0 1
1336.761 -26.383415 2532.0 1
1353.4537 -26.195854 2514.0 1
1233.5231 -56.497185 2711.0 1
1242.2238 -55.621906 2669.0 1
1260.5178 -55.205105 2649.0 1
1278.395 -54.788307 2629.0 1
1295.8555 -54.371506 2609.0 1
1333.1835 -54.788307 2629.0 1
1339.8765 -53.95471 2589.0 1
1346.792 -53.16279 2551.0 1
1353.4537 -52.39171 2514.0 1
1223.9679 -84.089455 2690.0 1
1242.2238 -83.43299 2669.0 1
1260.5178 -82.80779 2649.0 1
1288.1204 -82.80779 2649.0 1
1336.087 -84.089455 2690.0 1
1343.3256 -82.80779 2649.0 1
1339.8765 -80.93219 2589.0 1
1356.823 -80.33825 2570.0 1
1363.1444 -79.15037 2532.0 1
1205.2744 -112.99451 2711.0 1
1205.3126 -110.41035 2649.0 1
1242.2238 -111.24394 2669.0 1
1270.0348 -111.24394 2669.0 1
1328.9668 -113.91147 2733.0 1
1346.5175 -112.99451 2711.0 1
1343.3256 -110.41035 2649.0 1
1339.8765 -107.909546 2589.0 1
1356.823 -107.11762 2570.0 1
1373.3733 -106.32571 2551.0 1
1195.938 -140.149 2690.0 1
1214.4128 -139.0549 2669.0 1
1232.9152 -138.0129 2649.0 1
1280.0276 -140.149 2690.0 1
1328.9668 -142.3893 2733.0 1
1346.5175 -141.2431 2711.0 1
1343.3256 -138.0129 2649.0 1
1350.227 -135.9289 2609.0 1
1366.854 -134.8869 2589.0 1
1363.1444 -131.91719 2532.0 1
1167.9083 -168.17877 2690.0 1
1195.938 -168.17877 2690.0 1
1205.3126 -165.61545 2649.0 1
1232.9152 -165.61545 2649.0 1
1300.489 -170.86713 2733.0 1
1328.9668 -170.86713 2733.0 1
1336.087 -168.17877 2690.0 1
1343.3256 -165.61545 2649.0 1
1360.5775 -164.36505 2629.0 1
1366.854 -161.86426 2589.0 1
1373.3733 -159.4885 2551.0 1
1177.0258 -197.74028 2711.0 1
1186.6017 -194.6768 2669.0 1
1205.3126 -193.218 2649.0 1
1251.9977 -196.20854 2690.0 1
1290.0204 -197.74028 2711.0 1
1328.9668 -199.34496 2733.0 1
1336.087 -196.20854 2690.0 1
1343.3256 -193.218 2649.0 1
1360.5775 -191.7592 2629.0 1
1366.854 -188.8416 2589.0 1
1383.6023 -187.45575 2570.0 1
1177.0258 -225.98901 2711.0 1
1186.6017 -222.48788 2669.0 1
1205.3126 -220.8207 2649.0 1
1272.011 -227.82294 2733.0 1
1300.489 -227.82294 2733.0 1
1328.9668 -227.82294 2733.0 1
1325.6566 -222.48788 2669.0 1
1353.4677 -222.48788 2669.0 1
1350.227 -217.48628 2609.0 1
1366.854 -215.81909 2589.0 1
1383.6023 -214.23524 2570.0 1
1177.0258 -254.23761 2711.0 1
1195.938 -252.26822 2690.0 1
1214.4128 -250.29884 2669.0 1
1272.011 -256.30075 2733.0 1
1290.0204 -254.23761 2711.0 1
1318.2689 -254.23761 2711.0 1
1325.6566 -250.29884 2669.0 1
1353.4677 -250.29884 2669.0 1
1360.5775 -246.54764 2629.0 1
1366.854 -242.79645 2589.0 1
1383.6023 -241.01462 2570.0 1
1177.0258 -282.4862 2711.0 1
1186.6017 -278.1098 2669.0 1
1223.9679 -280.298 2690.0 1
1272.011 -284.7786 2733.0 1
1290.0204 -282.4862 2711.0 1
1328.9668 -284.7786 2733.0 1
1336.087 -280.298 2690.0 1
1353.4677 -278.1098 2669.0 1
1360.5775 -273.9418 2629.0 1
1366.854 -269.7738 2589.0 1
1393.8313 -269.7738 2589.0 1
1177.0258 -310.7348 2711.0 1
1186.6017 -305.92075 2669.0 1
1233.5231 -310.7348 2711.0 1
1272.011 -313.25644 2733.0 1
1300.489 -313.25644 2733.0 1
1328.9668 -313.25644 2733.0 1
1336.087 -308.32776 2690.0 1
1353.4677 -305.92075 2669.0 1
1360.5775 -301.33594 2629.0 1
1366.854 -296.75116 2589.0 1
1393.8313 -296.75116 2589.0 1
1177.0258 -338.98337 2711.0 1
1186.6017 -333.7317 2669.0 1
1233.5231 -338.98337 2711.0 1
1272.011 -341.73425 2733.0 1
1290.0204 -338.98337 2711.0 1
1339.1783 -344.3601 2754.0 1
1346.5175 -338.98337 2711.0 1
1353.4677 -333.7317 2669.0 1
1370.9281 -331.2309 2649.0 1
1377.4128 -326.2293 2609.0 1
1393.8313 -323.72852 2589.0 1
1158.7908 -361.5428 2669.0 1
1177.71 -358.8336 2649.0 1
1223.9679 -364.38745 2690.0 1
1272.011 -370.21222 2733.0 1
1290.0204 -367.23212 2711.0 1
1328.9668 -370.21222 2733.0 1
1346.5175 -367.23212 2711.0 1
1353.4677 -361.5428 2669.0 1
1370.9281 -358.8336 2649.0 1
1398.5308 -358.8336 2649.0 1
1415.366 -356.1244 2629.0 1
1148.7772 -395.4807 2711.0 1
1158.7908 -389.35373 2669.0 1
1177.71 -386.43613 2649.0 1
1223.9679 -392.4172 2690.0 1
1272.011 -398.69006 2733.0 1
1290.0204 -395.4807 2711.0 1
1328.9668 -398.69006 2733.0 1
1346.5175 -395.4807 2711.0 1
1364.117 -392.4172 2690.0 1
1381.2786 -389.35373 2669.0 1
1409.0897 -389.35373 2669.0 1
1436.9006 -389.35373 2669.0 1
1148.7772 -423.72928 2711.0 1
1158.7908 -417.1647 2669.0 1
1177.71 -414.0387 2649.0 1
1214.4128 -417.1647 2669.0 1
1272.011 -427.16788 2733.0 1
1300.489 -427.16788 2733.0 1
1328.9668 -427.16788 2733.0 1
1346.5175 -423.72928 2711.0 1
1364.117 -420.447 2690.0 1
1392.1467 -420.447 2690.0 1
1409.0897 -417.1647 2669.0 1
1426.1333 -414.0387 2649.0 1
1158.0997 -455.64572 2733.0 1
1167.9083 -448.47678 2690.0 1
1177.71 -441.64124 2649.0 1
1214.4128 -444.97565 2669.0 1
1272.011 -455.64572 2733.0 1
1300.489 -455.64572 2733.0 1
1339.1783 -459.14685 2754.0 1
1357.4446 -455.64572 2733.0 1
1364.117 -448.47678 2690.0 1
1392.1467 -448.47678 2690.0 1
1409.0897 -444.97565 2669.0 1
1436.9006 -444.97565 2669.0 1
1195.8131 -499.889 2822.0 1
1186.5775 -484.12357 2733.0 1
1186.6017 -472.7866 2669.0 1
1233.5231 -480.22647 2711.0 1
1281.785 -487.8435 2754.0 1
1300.489 -484.12357 2733.0 1
1339.1783 -487.8435 2754.0 1
1357.4446 -484.12357 2733.0 1
1385.9225 -484.12357 2733.0 1
1414.4003 -484.12357 2733.0 1
1409.0897 -472.7866 2669.0 1
1436.9006 -472.7866 2669.0 1
1195.754 -542.61115 2893.0 1
1195.8131 -529.2944 2822.0 1
1215.2324 -524.98047 2799.0 1
1234.6171 -520.8542 2777.0 1
1253.0884 -516.5403 2754.0 1
1272.011 -512.6015 2733.0 1
1300.489 -512.6015 2733.0 1
1339.1783 -516.5403 2754.0 1
1357.4446 -512.6015 2733.0 1
1385.9225 -512.6015 2733.0 1
1414.4003 -512.6015 2733.0 1
1420.1766 -504.53644 2690.0 1
1436.9006 -500.5977 2669.0 1
1195.4241 -587.4067 2967.0 1
1195.754 -572.75616 2893.0 1
1205.5593 -563.2531 2845.0 1
1215.2324 -554.14606 2799.0 1
1244.398 -554.14606 2799.0 1
1273.5637 -554.14606 2799.0 1
1281.785 -545.23694 2754.0 1
1310.4818 -545.23694 2754.0 1
1339.1783 -545.23694 2754.0 1
1357.4446 -541.07935 2733.0 1
1408.2352 -549.79047 2777.0 1
1437.1715 -549.79047 2777.0 1
1431.2634 -536.7238 2711.0 1
1448.2063 -532.5662 2690.0 1
1185.3514 -613.1128 2942.0 1
1195.754 -602.9012 2893.0 1
1205.5593 -592.898 2845.0 1
1225.2183 -588.1048 2822.0 1
1244.398 -583.3116 2799.0 1
1273.5637 -583.3116 2799.0 1
1302.7291 -583.3116 2799.0 1
1331.8949 -583.3116 2799.0 1
1425.2684 -573.9336 2754.0 1
1442.8783 -569.5572 2733.0 1
1459.512 -564.9724 2711.0 1
1185.3514 -643.7684 2942.0 1
1195.754 -633.0462 2893.0 1
1215.7292 -627.79456 2869.0 1
1225.2183 -617.51 2822.0 1
1254.6235 -617.51 2822.0 1
1284.0288 -617.51 2822.0 1
1313.434 -617.51 2822.0 1
1437.1715 -607.6631 2777.0 1
1453.9652 -602.63025 2754.0 1
1459.512 -593.221 2711.0 1
1276.4847 -765.89075 3341.0 1
1154.6957 -674.424 2942.0 1
1175.2788 -668.693 2917.0 1
1195.754 -663.1912 2893.0 1
1215.7292 -657.6895 2869.0 1
1235.2041 -652.18774 2845.0 1
1275.519 -657.6895 2869.0 1
1294.494 -652.18774 2845.0 1
1472.3633 -652.18774 2845.0 1
1453.9652 -631.3269 2754.0 1
1471.3561 -626.5129 2733.0 1
1153.4592 -723.53357 3019.0 1
1164.5078 -711.0713 2967.0 1
1175.2788 -699.08826 2917.0 1
1195.754 -693.3364 2893.0 1
1225.8992 -693.3364 2893.0 1
1256.0442 -693.3364 2893.0 1
1286.1891 -693.3364 2893.0 1
1460.4602 -676.32056 2822.0 1
1466.1079 -665.5359 2777.0 1
1471.3561 -654.99084 2733.0 1
1153.4592 -754.9915 3019.0 1
1164.5078 -741.98737 2967.0 1
1175.2788 -729.4834 2917.0 1
1216.007 -735.73535 2942.0 1
1236.0691 -729.4834 2917.0 1
1266.4641 -729.4834 2917.0 1
1472.3633 -711.4776 2845.0 1
1466.1079 -694.47217 2777.0 1
1482.6617 -688.72034 2754.0 1
1152.4763 -807.8105 3101.0 1
1163.775 -793.483 3046.0 1
1174.7125 -779.6765 2993.0 1
1195.4241 -772.9035 2967.0 1
1226.3402 -772.9035 2967.0 1
1257.2565 -772.9035 2967.0 1
1460.4602 -735.131 2822.0 1
1466.1079 -723.4085 2777.0 1
1482.6617 -717.417 2754.0 1
1152.4763 -840.12286 3101.0 1
1163.775 -825.2223 3046.0 1
1184.9171 -817.9074 3019.0 1
1216.3752 -817.9074 3019.0 1
1247.8331 -817.9074 3019.0 1
1477.7228 -758.30505 2799.0 1
1495.0442 -752.3448 2777.0 1
1130.2782 -880.3128 3129.0 1
1152.4763 -872.43524 3101.0 1
1184.7887 -872.43524 3101.0 1
1206.1115 -864.55774 3073.0 1
1216.3752 -849.36536 3019.0 1
1247.8331 -849.36536 3019.0 1
1472.3633 -800.41223 2845.0 1
1489.8656 -793.9414 2822.0 1
1495.0442 -781.2811 2777.0 1
1150.868 -929.5474 3186.0 1
1152.4763 -904.7478 3101.0 1
1184.7887 -904.7478 3101.0 1
1206.1115 -896.57855 3073.0 1
1227.2538 -888.701 3046.0 1
1472.3633 -830.05725 2845.0 1
1489.8656 -823.34674 2822.0 1
1506.8883 -816.6363 2799.0 1
1130.2782 -945.52124 3129.0 1
1162.8824 -945.52124 3129.0 1
1195.4866 -945.52124 3129.0 1
1228.0907 -945.52124 3129.0 1
1484.7839 -866.9544 2869.0 1
1489.8656 -852.75195 2822.0 1
1506.8883 -845.8018 2799.0 1
1117.67 -995.9436 3186.0 1
1130.2782 -978.12537 3129.0 1
1162.8824 -978.12537 3129.0 1
1195.4866 -978.12537 3129.0 1
1217.1011 -969.37256 3101.0 1
1484.7839 -896.84937 2869.0 1
1502.0083 -889.347 2845.0 1
1519.2708 -882.15717 2822.0 1
1094.6835 -1038.8323 3216.0 1
1107.4967 -1019.7741 3157.0 1
1140.3926 -1019.7741 3157.0 1
1173.2886 -1019.7741 3157.0 1
1206.1844 -1019.7741 3157.0 1
1491.9078 -950.32477 2942.0 1
1472.3633 -918.9919 2845.0 1
1502.0083 -918.9919 2845.0 1
1519.2708 -911.5624 2822.0 1
1150.868 -1062.3397 3186.0 1
1184.0663 -1062.3397 3186.0 1
1491.9078 -980.9804 2942.0 1
1472.3633 -948.6367 2845.0 1
1489.8656 -940.9676 2822.0 1
1519.2708 -940.9676 2822.0 1
1027.6621 -1105.8538 3216.0 1
1061.1727 -1105.8538 3216.0 1
1117.67 -1095.538 3186.0 1
1172.5417 -1116.1696 3246.0 1
1479.2301 -1003.0397 2917.0 1
1484.7839 -986.53436 2869.0 1
1514.6791 -986.53436 2869.0 1
1531.6532 -978.28174 2845.0 1
1512.9075 -1079.1368 3046.0 1
1491.9078 -1042.2917 2942.0 1
1484.7839 -1016.4293 2869.0 1
1527.3497 -1024.932 2893.0 1
1557.4948 -1024.932 2893.0 1
1491.9078 -1072.9474 2942.0 1
1509.6252 -1063.8298 2917.0 1
1540.0205 -1063.8298 2917.0 1
1583.8748 -1072.9474 2942.0 1
1491.9078 -1103.603 2942.0 1
1522.5634 -1103.603 2942.0 1
1527.3497 -1085.2222 2893.0 1
1583.8748 -1103.603 2942.0 1
1491.9078 -1134.2585 2942.0 1
1522.5634 -1134.2585 2942.0 1
1514.6791 -1106.1141 2869.0 1
1570.4155 -1124.6201 2917.0 1
1504.5854 -1174.8134 2967.0 1
1522.5634 -1164.9143 2942.0 1
1540.0205 -1155.0154 2917.0 1
1583.8748 -1164.9143 2942.0 1
1504.5854 -1205.7295 2967.0 1
1535.5016 -1205.7295 2967.0 1
1553.2191 -1195.57 2942.0 1
1583.8748 -1195.57 2942.0 1
