ply
format ascii 1.0
comment : created from Kinect user tracker
element vertex 1130
property float x
property float y
property float z
property int userId
end_header
101.73745 215.44392 1723.0 1
119.13533 214.4436 1715.0 1
137.64468 215.44392 1723.0 1
155.5984 215.44392 1723.0 1
174.45856 216.56929 1732.0 1
83.78372 197.49023 1723.0 1
100.73366 195.5417 1706.0 1
117.39867 193.70778 1690.0 1
133.65034 191.75925 1673.0 1
151.08307 191.75925 1673.0 1
170.22804 193.70778 1690.0 1
188.72708 194.62474 1698.0 1
207.39273 195.5417 1706.0 1
64.56929 176.09799 1690.0 1
81.7414 175.1602 1681.0 1
98.78512 174.3266 1673.0 1
114.55053 171.82579 1649.0 1
132.37216 172.6594 1657.0 1
150.36063 173.493 1665.0 1
167.70987 173.493 1665.0 1
185.05923 173.493 1665.0 1
206.4202 176.9316 1698.0 1
224.11331 176.9316 1698.0 1
47.404007 159.9887 1706.0 1
63.919773 156.89395 1673.0 1
80.57436 155.39348 1657.0 1
97.84037 155.39348 1657.0 1
114.55053 154.64323 1649.0 1
131.73306 154.64323 1649.0 1
148.91571 154.64323 1649.0 1
166.90407 155.39348 1657.0 1
184.17007 155.39348 1657.0 1
203.38103 156.89395 1673.0 1
225.1692 159.9887 1706.0 1
242.94579 159.9887 1706.0 1
46.709343 140.12814 1681.0 1
63.61412 138.79439 1665.0 1
80.57436 138.1275 1657.0 1
97.368 137.46063 1649.0 1
115.10626 138.1275 1657.0 1
131.73306 137.46063 1649.0 1
148.91571 137.46063 1649.0 1
166.09825 137.46063 1649.0 1
184.17007 138.1275 1657.0 1
202.4085 138.79439 1665.0 1
219.75775 138.79439 1665.0 1
242.94579 142.21214 1706.0 1
29.922766 125.67563 1723.0 1
46.709343 122.612144 1681.0 1
63.919773 122.028625 1673.0 1
81.7414 122.612144 1681.0 1
98.312744 121.44511 1665.0 1
115.661995 121.44511 1665.0 1
132.37216 120.86159 1657.0 1
149.63817 120.86159 1657.0 1
166.90407 120.86159 1657.0 1
184.17007 120.86159 1657.0 1
202.4085 121.44511 1665.0 1
219.75775 121.44511 1665.0 1
242.94579 124.435646 1706.0 1
29.627533 106.6591 1706.0 1
47.181713 106.15894 1698.0 1
64.225426 105.0961 1681.0 1
82.17904 105.65878 1690.0 1
98.78512 104.59594 1673.0 1
115.10626 103.59562 1657.0 1
132.37216 103.59562 1657.0 1
149.63817 103.59562 1657.0 1
166.90407 103.59562 1657.0 1
185.05923 104.09578 1665.0 1
203.38103 104.59594 1673.0 1
224.11331 106.15894 1698.0 1
251.77501 110.53534 1768.0 1
12.0316725 90.2372 1732.0 1
29.627533 88.8826 1706.0 1
47.404007 88.8826 1706.0 1
64.87494 88.4658 1698.0 1
82.568054 88.4658 1698.0 1
98.312744 86.7465 1665.0 1
115.661995 86.7465 1665.0 1
132.37216 86.3297 1657.0 1
149.63817 86.3297 1657.0 1
166.90407 86.3297 1657.0 1
185.05923 86.7465 1665.0 1
204.35356 87.5801 1681.0 1
233.35237 92.1128 1768.0 1
254.33833 93.0506 1786.0 1
29.922766 71.81466 1723.0 1
47.404007 71.106094 1706.0 1
65.52445 71.48122 1715.0 1
82.95707 71.106094 1706.0 1
99.25749 70.064095 1681.0 1
115.661995 69.39722 1665.0 1
133.01126 69.39722 1665.0 1
150.36063 69.39722 1665.0 1
167.70987 69.39722 1665.0 1
185.94841 69.73065 1673.0 1
207.39273 71.106094 1706.0 1
232.16449 73.31514 1759.0 1
12.406794 55.83035 1786.0 1
30.391666 54.70499 1750.0 1
47.181713 53.07947 1698.0 1
65.83011 53.86097 1723.0 1
83.39471 53.61089 1715.0 1
99.78891 52.82939 1690.0 1
116.77347 52.54805 1681.0 1
134.28944 52.54805 1681.0 1
151.80553 52.54805 1681.0 1
167.70987 52.04789 1665.0 1
187.8379 52.82939 1690.0 1
208.48683 53.61089 1715.0 1
238.1039 56.39303 1804.0 1
12.469314 37.407806 1795.0 1
30.704266 36.845127 1768.0 1
48.37654 36.282448 1741.0 1
67.20555 36.65757 1759.0 1
83.78372 35.90733 1723.0 1
100.261284 35.38633 1698.0 1
116.77347 35.032047 1681.0 1
135.00842 35.21961 1690.0 1
151.80553 35.032047 1681.0 1
167.70987 34.69861 1665.0 1
188.72708 35.38633 1698.0 1
208.48683 35.74061 1715.0 1
238.1039 37.595367 1804.0 1
31.173166 18.703882 1795.0 1
49.626938 18.610102 1786.0 1
68.92485 18.79766 1804.0 1
84.22136 18.047422 1732.0 1
100.73366 17.776503 1706.0 1
117.39867 17.609783 1690.0 1
135.00842 17.609783 1690.0 1
151.80553 17.516003 1681.0 1
167.70987 17.349283 1665.0 1
188.72708 17.693142 1698.0 1
208.48683 17.870283 1715.0 1
32.70143 0.0 1883.0 1
51.76651 0.0 1863.0 1
70.032845 0.0 1833.0 1
87.72248 0.0 1804.0 1
101.73745 0.0 1723.0 1
118.51013 0.0 1706.0 1
135.6475 0.0 1698.0 1
152.61829 0.0 1690.0 1
170.22804 0.0 1690.0 1
189.61626 0.0 1706.0 1
231.46294 0.0 1904.0 1
251.30255 0.0 1904.0 1
272.7088 0.0 1915.0 1
294.1913 0.0 1925.0 1
-26.313948 -19.73546 1894.0 1
-6.6132517 -19.83966 1904.0 1
13.080623 -19.62084 1883.0 1
32.527767 -19.516642 1873.0 1
51.76651 -19.412441 1863.0 1
70.41491 -19.20404 1843.0 1
87.72248 -18.79766 1804.0 1
104.394554 -18.422543 1768.0 1
119.13533 -17.870283 1715.0 1
136.2866 -17.776503 1706.0 1
154.06319 -17.776503 1706.0 1
171.03386 -17.693142 1698.0 1
192.50607 -18.047422 1732.0 1
227.69437 -19.516642 1873.0 1
248.53084 -19.62084 1883.0 1
269.71826 -19.73546 1894.0 1
292.66302 -19.95428 1915.0 1
312.6174 -19.95428 1915.0 1
332.57166 -19.95428 1915.0 1
-65.40286 -39.24168 1883.0 1
-45.53886 -39.033283 1873.0 1
-25.883255 -38.824883 1863.0 1
-6.4708447 -38.824883 1863.0 1
13.011156 -39.033283 1873.0 1
32.3541 -38.824883 1863.0 1
51.210777 -38.40808 1843.0 1
70.41491 -38.40808 1843.0 1
88.695015 -38.012123 1824.0 1
106.52023 -37.59532 1804.0 1
123.44226 -37.032642 1777.0 1
137.64468 -35.907284 1723.0 1
155.5984 -35.907284 1723.0 1
173.55202 -35.907284 1723.0 1
204.84335 -38.40808 1843.0 1
225.26303 -38.61648 1853.0 1
247.21097 -39.033283 1873.0 1
268.15176 -39.24168 1883.0 1
289.45367 -39.47092 1894.0 1
309.18924 -39.47092 1894.0 1
330.66132 -39.67932 1904.0 1
354.3668 -40.116962 1925.0 1
-85.023735 -58.862617 1883.0 1
-64.7082 -58.237415 1863.0 1
-45.052593 -57.924816 1853.0 1
-25.744322 -57.924816 1853.0 1
-6.436111 -57.924816 1853.0 1
12.872222 -57.924816 1853.0 1
32.006767 -57.612217 1843.0 1
51.210777 -57.612217 1843.0 1
70.032845 -57.299614 1833.0 1
89.13265 -57.299614 1833.0 1
107.1107 -56.705673 1814.0 1
125.31786 -56.393074 1804.0 1
144.1155 -56.393074 1804.0 1
162.91325 -56.393074 1804.0 1
184.63196 -57.299614 1833.0 1
205.95482 -57.924816 1853.0 1
225.26303 -57.924816 1853.0 1
245.89111 -58.237415 1863.0 1
266.7277 -58.550014 1873.0 1
287.77258 -58.862617 1883.0 1
307.39352 -58.862617 1883.0 1
327.0143 -58.862617 1883.0 1
350.50095 -59.519077 1904.0 1
-84.572205 -78.06666 1873.0 1
-64.013535 -76.81625 1843.0 1
-44.566326 -76.39946 1833.0 1
-25.605389 -76.81625 1843.0 1
-6.3666444 -76.39946 1833.0 1
12.802755 -76.81625 1843.0 1
31.8331 -76.39946 1833.0 1
50.93291 -76.39946 1833.0 1
69.68898 -76.02434 1824.0 1
88.695015 -76.02434 1824.0 1
107.701164 -76.02434 1824.0 1
126.7072 -76.02434 1824.0 1
144.91437 -75.60754 1814.0 1
163.81631 -75.60754 1814.0 1
184.63196 -76.39946 1833.0 1
203.73189 -76.39946 1833.0 1
224.04736 -76.81625 1843.0 1
244.57124 -77.233055 1853.0 1
265.30365 -77.64986 1863.0 1
286.24432 -78.06666 1873.0 1
307.39352 -78.48346 1883.0 1
327.0143 -78.48346 1883.0 1
350.50095 -79.358734 1904.0 1
374.42535 -80.23402 1925.0 1
-104.088875 -97.5833 1873.0 1
-84.120674 -97.0623 1863.0 1
-64.013535 -96.0203 1843.0 1
-44.566326 -95.4993 1833.0 1
-25.466455 -95.4993 1833.0 1
-6.335384 -95.030396 1824.0 1
12.733289 -95.4993 1833.0 1
31.8331 -95.4993 1833.0 1
50.68283 -95.030396 1824.0 1
69.306915 -94.5094 1814.0 1
87.72248 -93.988396 1804.0 1
106.52023 -93.988396 1804.0 1
126.01253 -94.5094 1814.0 1
144.91437 -94.5094 1814.0 1
164.71938 -95.030396 1824.0 1
183.72542 -95.030396 1824.0 1
203.73189 -95.4993 1833.0 1
222.8317 -95.4993 1833.0 1
244.57124 -96.5413 1853.0 1
263.87958 -96.5413 1853.0 1
284.71606 -97.0623 1863.0 1
305.76105 -97.5833 1873.0 1
325.27765 -97.5833 1873.0 1
350.50095 -99.198395 1904.0 1
372.4803 -99.7715 1915.0 1
-104.088875 -117.09994 1873.0 1
-84.120674 -116.47474 1863.0 1
-64.36086 -115.84954 1853.0 1
-44.80946 -115.22434 1843.0 1
-25.466455 -114.59914 1833.0 1
-6.335384 -114.03646 1824.0 1
12.733289 -114.59914 1833.0 1
31.6768 -114.03646 1824.0 1
50.404964 -113.41126 1814.0 1
69.306915 -113.41126 1814.0 1
88.20875 -113.41126 1814.0 1
106.52023 -112.78606 1804.0 1
125.31786 -112.78606 1804.0 1
144.1155 -112.78606 1804.0 1
163.81631 -113.41126 1814.0 1
182.71814 -113.41126 1814.0 1
202.73157 -114.03646 1824.0 1
222.8317 -114.59914 1833.0 1
243.25137 -115.22434 1843.0 1
262.4555 -115.22434 1843.0 1
284.71606 -116.47474 1863.0 1
305.76105 -117.09994 1873.0 1
325.27765 -117.09994 1873.0 1
350.50095 -119.038055 1904.0 1
374.42535 -120.350975 1925.0 1
-104.64461 -137.34598 1883.0 1
-84.572205 -136.61658 1873.0 1
-64.7082 -135.88718 1863.0 1
-44.80946 -134.42838 1843.0 1
-25.341415 -133.04253 1824.0 1
-6.335384 -133.04253 1824.0 1
12.733289 -133.69897 1833.0 1
31.6768 -133.04253 1824.0 1
50.404964 -132.31313 1814.0 1
69.306915 -132.31313 1814.0 1
87.72248 -131.58372 1804.0 1
106.52023 -131.58372 1804.0 1
125.31786 -131.58372 1804.0 1
144.1155 -131.58372 1804.0 1
162.91325 -131.58372 1804.0 1
182.71814 -132.31313 1814.0 1
201.6201 -132.31313 1814.0 1
222.8317 -133.69897 1833.0 1
241.9315 -133.69897 1833.0 1
262.4555 -134.42838 1843.0 1
283.18777 -135.15778 1853.0 1
305.76105 -136.61658 1873.0 1
325.27765 -136.61658 1873.0 1
350.50095 -138.87772 1904.0 1
374.42535 -140.40945 1925.0 1
394.4838 -140.40945 1925.0 1
-104.64461 -156.96692 1883.0 1
-84.572205 -156.13332 1873.0 1
-64.7082 -155.29971 1863.0 1
-44.80946 -153.6325 1843.0 1
-25.466455 -152.79892 1833.0 1
-6.335384 -152.04868 1824.0 1
12.733289 -152.79892 1833.0 1
31.6768 -152.04868 1824.0 1
50.127098 -150.38147 1804.0 1
69.306915 -151.21507 1814.0 1
87.72248 -150.38147 1804.0 1
106.52023 -150.38147 1804.0 1
125.31786 -150.38147 1804.0 1
144.1155 -150.38147 1804.0 1
162.91325 -150.38147 1804.0 1
182.71814 -151.21507 1814.0 1
201.6201 -151.21507 1814.0 1
222.8317 -152.79892 1833.0 1
241.9315 -152.79892 1833.0 1
262.4555 -153.6325 1843.0 1
284.71606 -155.29971 1863.0 1
304.12857 -155.29971 1863.0 1
327.0143 -156.96692 1883.0 1
352.5259 -159.63443 1915.0 1
376.5649 -161.385 1936.0 1
396.738 -161.385 1936.0 1
-127.03714 -180.52652 1925.0 1
-105.25591 -177.61934 1894.0 1
-84.572205 -175.64995 1873.0 1
-64.7082 -174.71216 1863.0 1
-44.80946 -172.83655 1843.0 1
-25.466455 -171.89876 1833.0 1
-6.335384 -171.05473 1824.0 1
12.670768 -171.05473 1824.0 1
31.503132 -170.11693 1814.0 1
50.127098 -169.17914 1804.0 1
68.92485 -169.17914 1804.0 1
87.72248 -169.17914 1804.0 1
105.988815 -168.33511 1795.0 1
125.31786 -169.17914 1804.0 1
144.1155 -169.17914 1804.0 1
162.91325 -169.17914 1804.0 1
182.71814 -170.11693 1814.0 1
202.73157 -171.05473 1824.0 1
222.8317 -171.89876 1833.0 1
243.25137 -172.83655 1843.0 1
262.4555 -172.83655 1843.0 1
286.24432 -175.64995 1873.0 1
304.12857 -174.71216 1863.0 1
328.92465 -177.61934 1894.0 1
352.5259 -179.58871 1915.0 1
376.5649 -181.55809 1936.0 1
398.9922 -182.58968 1947.0 1
-126.377205 -199.543 1915.0 1
-105.25591 -197.3548 1894.0 1
-84.572205 -195.1666 1873.0 1
-65.055534 -195.1666 1873.0 1
-45.052593 -193.0826 1853.0 1
-25.466455 -190.9986 1833.0 1
-6.335384 -190.06079 1824.0 1
12.601301 -189.0188 1814.0 1
31.503132 -189.0188 1814.0 1
50.404964 -189.0188 1814.0 1
68.92485 -187.97679 1804.0 1
87.72248 -187.97679 1804.0 1
106.52023 -187.97679 1804.0 1
125.31786 -187.97679 1804.0 1
144.1155 -187.97679 1804.0 1
162.91325 -187.97679 1804.0 1
182.71814 -189.0188 1814.0 1
202.73157 -190.06079 1824.0 1
221.7376 -190.06079 1824.0 1
243.25137 -192.0406 1843.0 1
262.4555 -192.0406 1843.0 1
284.71606 -194.1246 1863.0 1
307.39352 -196.2086 1883.0 1
332.57166 -199.543 1915.0 1
352.5259 -199.543 1915.0 1
376.5649 -201.7312 1936.0 1
396.738 -201.7312 1936.0 1
-149.6173 -224.42593 1958.0 1
-126.377205 -219.49728 1915.0 1
-105.81165 -218.23645 1904.0 1
-85.023735 -215.82944 1883.0 1
-65.055534 -214.68324 1873.0 1
-45.295727 -213.53703 1863.0 1
-25.605389 -211.24464 1843.0 1
-6.335384 -209.06686 1824.0 1
12.670768 -209.06686 1824.0 1
31.503132 -207.92065 1814.0 1
50.127098 -206.77446 1804.0 1
68.92485 -206.77446 1804.0 1
87.72248 -206.77446 1804.0 1
106.52023 -206.77446 1804.0 1
125.31786 -206.77446 1804.0 1
144.1155 -206.77446 1804.0 1
163.81631 -207.92065 1814.0 1
182.71814 -207.92065 1814.0 1
202.73157 -209.06686 1824.0 1
222.8317 -210.09843 1833.0 1
241.9315 -210.09843 1833.0 1
262.4555 -211.24464 1843.0 1
284.71606 -213.53703 1863.0 1
307.39352 -215.82944 1883.0 1
332.57166 -219.49728 1915.0 1
352.5259 -219.49728 1915.0 1
376.5649 -221.9043 1936.0 1
394.4838 -220.64348 1925.0 1
-127.03714 -240.70195 1925.0 1
-105.81165 -238.07611 1904.0 1
-85.971954 -238.07611 1904.0 1
-66.13226 -238.07611 1904.0 1
-46.292572 -238.07611 1904.0 1
-25.883255 -232.94948 1863.0 1
-6.3666444 -229.19827 1833.0 1
12.733289 -229.19827 1833.0 1
31.503132 -226.82253 1814.0 1
50.127098 -225.57211 1804.0 1
68.92485 -225.57211 1804.0 1
87.72248 -225.57211 1804.0 1
107.1107 -226.82253 1814.0 1
126.01253 -226.82253 1814.0 1
144.91437 -226.82253 1814.0 1
163.81631 -226.82253 1814.0 1
182.71814 -226.82253 1814.0 1
202.73157 -228.07292 1824.0 1
221.7376 -228.07292 1824.0 1
241.9315 -229.19827 1833.0 1
262.4555 -230.44868 1843.0 1
284.71606 -232.94948 1863.0 1
312.6174 -239.45155 1915.0 1
334.30832 -240.70195 1925.0 1
354.3668 -240.70195 1925.0 1
380.8441 -244.82828 1958.0 1
403.50058 -246.20372 1969.0 1
-129.21492 -265.2307 1958.0 1
-106.97869 -260.76053 1925.0 1
-86.46864 -259.40594 1915.0 1
-66.861664 -260.76053 1925.0 1
-47.0706 -262.25058 1936.0 1
-26.022188 -253.71661 1873.0 1
-6.4013777 -249.65282 1843.0 1
12.733289 -248.29822 1833.0 1
31.6768 -247.07907 1824.0 1
50.404964 -245.72447 1814.0 1
68.92485 -244.36987 1804.0 1
88.20875 -245.72447 1814.0 1
107.1107 -245.72447 1814.0 1
126.01253 -245.72447 1814.0 1
144.91437 -245.72447 1814.0 1
163.81631 -245.72447 1814.0 1
184.63196 -248.29822 1833.0 1
203.73189 -248.29822 1833.0 1
221.7376 -247.07907 1824.0 1
241.9315 -248.29822 1833.0 1
262.4555 -249.65282 1843.0 1
284.71606 -252.36201 1863.0 1
321.43274 -266.72076 1969.0 1
336.21866 -262.25058 1936.0 1
356.39172 -262.25058 1936.0 1
378.7045 -263.74066 1947.0 1
396.738 -262.25058 1936.0 1
-152.21535 -290.593 1992.0 1
-129.94084 -287.23773 1969.0 1
-108.2013 -284.02838 1947.0 1
-87.91355 -284.02838 1947.0 1
-68.38993 -287.23773 1969.0 1
-47.338047 -284.02838 1947.0 1
-26.45288 -277.75552 1904.0 1
-6.4708447 -271.77444 1863.0 1
12.802755 -268.85684 1843.0 1
31.6768 -266.08514 1824.0 1
50.68283 -266.08514 1824.0 1
69.306915 -264.62634 1814.0 1
88.20875 -264.62634 1814.0 1
107.701164 -266.08514 1824.0 1
126.01253 -264.62634 1814.0 1
145.71323 -266.08514 1824.0 1
165.53214 -267.39804 1833.0 1
184.63196 -267.39804 1833.0 1
203.73189 -267.39804 1833.0 1
224.04736 -268.85684 1843.0 1
243.25137 -268.85684 1843.0 1
263.87958 -270.31564 1853.0 1
321.43274 -287.23773 1969.0 1
340.03934 -285.63306 1958.0 1
358.4167 -284.02838 1947.0 1
376.5649 -282.4237 1936.0 1
396.738 -282.4237 1936.0 1
-152.21535 -311.3496 1992.0 1
-129.94084 -307.7547 1969.0 1
-108.81261 -306.0354 1958.0 1
-88.41024 -306.0354 1958.0 1
-69.57086 -313.0689 2003.0 1
-47.60549 -306.0354 1958.0 1
-26.605707 -299.31448 1915.0 1
-6.505578 -292.7499 1873.0 1
13.011156 -292.7499 1873.0 1
32.006767 -288.06088 1843.0 1
50.93291 -286.4979 1833.0 1
69.68898 -285.0912 1824.0 1
88.695015 -285.0912 1824.0 1
107.701164 -285.0912 1824.0 1
127.3324 -286.4979 1833.0 1
146.4322 -286.4979 1833.0 1
165.53214 -286.4979 1833.0 1
185.63922 -288.06088 1843.0 1
204.84335 -288.06088 1843.0 1
225.26303 -289.6239 1853.0 1
247.21097 -292.7499 1873.0 1
268.15176 -294.3129 1883.0 1
340.03934 -306.0354 1958.0 1
358.4167 -304.3161 1947.0 1
378.7045 -304.3161 1947.0 1
401.24637 -306.0354 1958.0 1
-172.972 -332.1062 1992.0 1
-152.21535 -332.1062 1992.0 1
-130.66678 -330.10556 1980.0 1
-109.42392 -328.27167 1969.0 1
-89.40361 -330.10556 1980.0 1
-47.338047 -324.60382 1947.0 1
-26.74464 -320.93597 1925.0 1
-6.5785184 -315.76767 1894.0 1
13.011156 -312.26654 1873.0 1
32.3541 -310.59933 1863.0 1
51.210777 -307.26492 1843.0 1
70.032845 -305.59775 1833.0 1
89.13265 -305.59775 1833.0 1
108.23259 -305.59775 1833.0 1
127.3324 -305.59775 1833.0 1
146.4322 -305.59775 1833.0 1
165.53214 -305.59775 1833.0 1
185.63922 -307.26492 1843.0 1
207.06628 -310.59933 1863.0 1
226.4787 -310.59933 1863.0 1
248.53084 -313.93375 1883.0 1
274.13284 -320.93597 1925.0 1
340.03934 -326.43774 1958.0 1
360.44162 -326.43774 1958.0 1
378.7045 -324.60382 1947.0 1
401.24637 -326.43774 1958.0 1
421.6488 -326.43774 1958.0 1
-173.92717 -354.81137 2003.0 1
-152.21535 -352.86282 1992.0 1
-131.4587 -352.86282 1992.0 1
-110.7021 -352.86282 1992.0 1
-90.44214 -354.81137 2003.0 1
-47.87294 -348.7886 1969.0 1
-26.74464 -340.99445 1925.0 1
-6.6132517 -337.2745 1904.0 1
13.157037 -335.5031 1894.0 1
32.527767 -331.78317 1873.0 1
51.76651 -330.01178 1863.0 1
70.41491 -326.46896 1843.0 1
89.13265 -324.69757 1833.0 1
108.82305 -326.46896 1843.0 1
127.3324 -324.69757 1833.0 1
147.23108 -326.46896 1843.0 1
166.43521 -326.46896 1843.0 1
186.64648 -328.2404 1853.0 1
205.95482 -328.2404 1853.0 1
227.69437 -331.78317 1873.0 1
251.30255 -337.2745 1904.0 1
277.2658 -344.89154 1947.0 1
341.94965 -348.7886 1969.0 1
362.46658 -348.7886 1969.0 1
380.8441 -346.8401 1958.0 1
401.24637 -346.8401 1958.0 1
421.6488 -346.8401 1958.0 1
-194.79843 -375.6827 2003.0 1
-173.92717 -375.6827 2003.0 1
-152.21535 -373.61957 1992.0 1
-131.4587 -373.61957 1992.0 1
-111.31341 -375.6827 2003.0 1
-47.87294 -369.30566 1969.0 1
-26.74464 -361.05304 1925.0 1
-6.6132517 -357.11426 1904.0 1
13.226503 -357.11426 1904.0 1
32.70143 -353.1755 1883.0 1
52.044376 -351.2999 1873.0 1
70.796974 -347.5487 1853.0 1
89.61892 -345.6731 1843.0 1
108.82305 -345.6731 1843.0 1
128.02707 -345.6731 1843.0 1
146.4322 -343.79752 1833.0 1
166.43521 -345.6731 1843.0 1
187.65375 -349.42432 1863.0 1
207.06628 -349.42432 1863.0 1
228.91003 -353.1755 1883.0 1
254.07428 -361.05304 1925.0 1
362.46658 -369.30566 1969.0 1
380.8441 -367.24252 1958.0 1
398.9922 -365.17935 1947.0 1
419.28 -365.17935 1947.0 1
-194.79843 -396.55396 2003.0 1
-172.972 -394.37616 1992.0 1
-152.21535 -394.37616 1992.0 1
-131.4587 -394.37616 1992.0 1
-111.31341 -396.55396 2003.0 1
-47.60549 -387.64487 1958.0 1
-26.897467 -383.2893 1936.0 1
-6.6132517 -376.95392 1904.0 1
13.226503 -376.95392 1904.0 1
32.892467 -374.97412 1894.0 1
52.044376 -370.81656 1873.0 1
71.17905 -368.83676 1863.0 1
89.61892 -364.87717 1843.0 1
108.82305 -364.87717 1843.0 1
128.02707 -364.87717 1843.0 1
148.02994 -366.85696 1853.0 1
167.33827 -366.85696 1853.0 1
187.65375 -368.83676 1863.0 1
208.17775 -370.81656 1873.0 1
230.24727 -374.97412 1894.0 1
256.978 -385.46707 1947.0 1
362.46658 -389.82263 1969.0 1
378.7045 -385.46707 1947.0 1
396.738 -383.2893 1936.0 1
416.9112 -383.2893 1936.0 1
-194.79843 -417.4252 2003.0 1
-172.972 -415.13278 1992.0 1
-152.21535 -415.13278 1992.0 1
-131.4587 -415.13278 1992.0 1
-111.31341 -417.4252 2003.0 1
-69.57086 -417.4252 2003.0 1
-47.60549 -408.04718 1958.0 1
-26.897467 -403.4624 1936.0 1
-6.6514587 -399.086 1915.0 1
13.226503 -396.79358 1904.0 1
32.892467 -394.7096 1894.0 1
52.322243 -392.4172 1883.0 1
71.56111 -390.3332 1873.0 1
90.59145 -388.2492 1863.0 1
109.41352 -386.1652 1853.0 1
128.02707 -384.0812 1843.0 1
148.82881 -388.2492 1863.0 1
168.24135 -388.2492 1863.0 1
188.66103 -390.3332 1873.0 1
209.28922 -392.4172 1883.0 1
232.80016 -399.086 1915.0 1
256.978 -405.7548 1947.0 1
362.46658 -410.3396 1969.0 1
376.5649 -403.4624 1936.0 1
394.4838 -401.16998 1925.0 1
414.5424 -401.16998 1925.0 1
432.34317 -399.086 1915.0 1
-194.79843 -438.29642 2003.0 1
-172.972 -435.8894 1992.0 1
-151.29839 -433.26358 1980.0 1
-131.4587 -435.8894 1992.0 1
-111.31341 -438.29642 2003.0 1
-69.57086 -438.29642 2003.0 1
-47.60549 -428.44952 1958.0 1
-26.897467 -423.6355 1936.0 1
-6.6514587 -419.04028 1915.0 1
13.3029175 -419.04028 1915.0 1
32.892467 -414.44507 1894.0 1
52.322243 -412.03802 1883.0 1
71.56111 -409.84982 1873.0 1
90.59145 -407.66162 1863.0 1
110.00399 -407.66162 1863.0 1
128.72173 -405.47342 1853.0 1
148.82881 -407.66162 1863.0 1
168.24135 -407.66162 1863.0 1
188.66103 -409.84982 1873.0 1
210.51183 -414.44507 1894.0 1
235.35306 -423.6355 1936.0 1
259.88168 -430.85657 1969.0 1
360.44162 -428.44952 1958.0 1
374.42535 -421.2285 1925.0 1
392.43454 -419.04028 1915.0 1
412.38892 -419.04028 1915.0 1
432.34317 -419.04028 1915.0 1
-194.79843 -459.16766 2003.0 1
-172.972 -456.64603 1992.0 1
-152.21535 -456.64603 1992.0 1
-132.18462 -459.16766 2003.0 1
-92.06766 -467.42032 2039.0 1
-69.57086 -459.16766 2003.0 1
-47.87294 -451.3735 1969.0 1
-26.897467 -443.8086 1936.0 1
-6.6514587 -438.99457 1915.0 1
13.3029175 -438.99457 1915.0 1
32.892467 -434.1805 1894.0 1
52.322243 -431.65887 1883.0 1
71.94318 -431.65887 1883.0 1
91.07772 -429.3665 1873.0 1
110.00399 -427.07407 1863.0 1
130.11107 -429.3665 1873.0 1
149.62767 -429.3665 1873.0 1
169.14441 -429.3665 1873.0 1
189.66829 -431.65887 1883.0 1
211.6233 -436.4729 1904.0 1
235.35306 -443.8086 1936.0 1
261.33356 -453.89514 1980.0 1
374.42535 -441.28696 1925.0 1
392.43454 -438.99457 1915.0 1
407.86664 -434.1805 1894.0 1
429.8597 -436.4729 1904.0 1
-193.72865 -477.40274 1992.0 1
-172.972 -477.40274 1992.0 1
-152.21535 -477.40274 1992.0 1
-132.18462 -480.039 2003.0 1
-91.52582 -485.79086 2027.0 1
-69.57086 -480.039 2003.0 1
-47.60549 -469.2543 1958.0 1
-27.050293 -466.61804 1947.0 1
-6.686192 -461.34552 1925.0 1
13.372384 -461.34552 1925.0 1
33.257168 -458.94894 1915.0 1
52.322243 -451.27982 1883.0 1
71.94318 -451.27982 1883.0 1
91.07772 -448.8832 1873.0 1
110.59445 -448.8832 1873.0 1
130.80573 -451.27982 1883.0 1
150.42654 -451.27982 1883.0 1
170.04747 -451.27982 1883.0 1
190.77628 -453.91608 1894.0 1
212.84592 -458.94894 1915.0 1
236.69029 -466.61804 1947.0 1
261.33356 -474.52682 1980.0 1
374.42535 -461.34552 1925.0 1
392.43454 -458.94894 1915.0 1
407.86664 -453.91608 1894.0 1
427.60205 -453.91608 1894.0 1
-222.13011 -515.91504 2063.0 1
-194.79843 -500.91025 2003.0 1
-172.972 -498.15936 1992.0 1
-152.21535 -498.15936 1992.0 1
-69.1888 -498.15936 1992.0 1
-47.60549 -489.65665 1958.0 1
-27.050293 -486.90576 1947.0 1
-6.724399 -484.15488 1936.0 1
13.372384 -481.40402 1925.0 1
33.257168 -478.9032 1915.0 1
52.627895 -473.65152 1894.0 1
72.36345 -473.65152 1894.0 1
91.56399 -470.90067 1883.0 1
111.18492 -470.90067 1883.0 1
130.80573 -470.90067 1883.0 1
151.3053 -473.65152 1894.0 1
171.94391 -476.15234 1904.0 1
192.89154 -478.9032 1915.0 1
213.95738 -481.40402 1925.0 1
238.02753 -489.65665 1958.0 1
262.9174 -498.15936 1992.0 1
374.42535 -481.40402 1925.0 1
390.18033 -476.15234 1904.0 1
405.4978 -470.90067 1883.0 1
425.11862 -470.90067 1883.0 1
-193.72865 -518.916 1992.0 1
-172.972 -518.916 1992.0 1
-153.0559 -521.7815 2003.0 1
-92.6095 -534.28546 2051.0 1
-69.57086 -521.7815 2003.0 1
-47.60549 -510.059 1958.0 1
-27.050293 -507.19348 1947.0 1
-6.7626057 -507.19348 1947.0 1
13.448798 -504.328 1936.0 1
33.430832 -501.4625 1925.0 1
53.211414 -498.85748 1915.0 1
72.745514 -495.992 1904.0 1
91.56399 -490.52148 1883.0 1
111.18492 -490.52148 1883.0 1
131.56987 -493.387 1894.0 1
152.10416 -495.992 1904.0 1
172.93729 -498.85748 1915.0 1
193.8988 -501.4625 1925.0 1
216.4026 -507.19348 1947.0 1
240.702 -515.79 1980.0 1
265.95306 -524.9075 2015.0 1
292.07608 -534.28546 2051.0 1
388.13107 -493.387 1894.0 1
403.34436 -487.9165 1873.0 1
422.86096 -487.9165 1873.0 1
-216.96179 -545.90375 2015.0 1
-193.72865 -539.6726 1992.0 1
-172.972 -539.6726 1992.0 1
-92.06766 -552.4058 2039.0 1
-69.57086 -542.6527 2003.0 1
-47.87294 -533.44147 1969.0 1
-27.050293 -527.4812 1947.0 1
-6.7626057 -527.4812 1947.0 1
13.601625 -530.4613 1958.0 1
33.621864 -524.5011 1936.0 1
53.211414 -518.81177 1915.0 1
73.165794 -518.81177 1915.0 1
92.585144 -515.83167 1904.0 1
112.424904 -515.83167 1904.0 1
133.02867 -518.81177 1915.0 1
153.78178 -521.521 1925.0 1
173.84036 -521.521 1925.0 1
197.22278 -530.4613 1958.0 1
218.84784 -533.44147 1969.0 1
243.49803 -542.6527 2003.0 1
267.53693 -549.1548 2027.0 1
288.65833 -549.1548 2027.0 1
385.8769 -510.14233 1883.0 1
401.1909 -504.72394 1863.0 1
420.6033 -504.72394 1863.0 1
-215.66971 -563.524 2003.0 1
-193.72865 -560.42926 1992.0 1
-172.972 -560.42926 1992.0 1
-91.52582 -570.2761 2027.0 1
-69.57086 -563.524 2003.0 1
-48.140385 -557.05316 1980.0 1
-27.20312 -550.86365 1958.0 1
-6.7626057 -547.7689 1947.0 1
13.601625 -550.86365 1958.0 1
33.8129 -547.7689 1947.0 1
54.100586 -547.7689 1947.0 1
73.96813 -544.6742 1936.0 1
93.60631 -541.57947 1925.0 1
113.66488 -541.57947 1925.0 1
133.72333 -541.57947 1925.0 1
154.66054 -544.6742 1936.0 1
176.82048 -550.86365 1958.0 1
198.33078 -553.95844 1969.0 1
221.4042 -560.42926 1992.0 1
244.95683 -566.9 2015.0 1
270.7046 -577.02826 2051.0 1
381.77835 -524.13635 1863.0 1
399.0374 -521.323 1853.0 1
418.3456 -521.323 1853.0 1
440.01572 -524.13635 1863.0 1
-215.66971 -584.3953 2003.0 1
-192.56161 -577.6848 1980.0 1
-170.97482 -574.47546 1969.0 1
-90.98398 -587.8964 2015.0 1
-69.1888 -581.186 1992.0 1
-47.87294 -574.47546 1969.0 1
-27.20312 -571.2661 1958.0 1
-6.7626057 -568.05676 1947.0 1
13.601625 -571.2661 1958.0 1
34.003933 -571.2661 1958.0 1
54.40624 -571.2661 1958.0 1
74.388405 -568.05676 1947.0 1
94.676094 -568.05676 1947.0 1
114.31439 -564.8474 1936.0 1
135.2516 -568.05676 1947.0 1
156.41805 -571.2661 1958.0 1
177.81384 -574.47546 1969.0 1
199.43877 -577.6848 1980.0 1
222.62682 -584.3953 2003.0 1
244.95683 -587.8964 2015.0 1
272.28842 -601.90094 2063.0 1
295.63626 -605.6938 2076.0 1
377.6798 -537.7137 1843.0 1
396.88394 -537.7137 1843.0 1
416.08795 -537.7137 1843.0 1
435.29196 -537.7137 1843.0 1
-214.4853 -601.94257 1992.0 1
-191.49182 -594.99243 1969.0 1
-90.44214 -605.26654 2003.0 1
-68.771996 -598.3164 1980.0 1
-47.60549 -591.66846 1958.0 1
-27.050293 -588.3445 1947.0 1
-6.7626057 -588.3445 1947.0 1
13.525211 -588.3445 1947.0 1
33.8129 -588.3445 1947.0 1
54.40624 -591.66846 1958.0 1
74.80868 -591.66846 1958.0 1
95.21098 -591.66846 1958.0 1
114.96391 -588.3445 1947.0 1
136.01573 -591.66846 1958.0 1
157.2968 -594.99243 1969.0 1
177.81384 -594.99243 1969.0 1
200.64749 -601.94257 1992.0 1
222.62682 -605.26654 2003.0 1
246.41563 -612.51886 2027.0 1
270.7046 -619.7712 2051.0 1
396.88394 -556.9177 1843.0 1
413.8303 -553.89594 1833.0 1
432.9301 -553.89594 1833.0 1
-236.54091 -626.1378 2003.0 1
-214.4853 -622.6992 1992.0 1
-191.49182 -615.5094 1969.0 1
-170.97482 -615.5094 1969.0 1
-90.44214 -626.1378 2003.0 1
-68.771996 -618.948 1980.0 1
-47.60549 -612.0708 1958.0 1
-27.050293 -608.6322 1947.0 1
-6.724399 -605.1936 1936.0 1
13.525211 -608.6322 1947.0 1
33.8129 -608.6322 1947.0 1
54.100586 -608.6322 1947.0 1
74.80868 -612.0708 1958.0 1
95.74588 -615.5094 1969.0 1
116.26294 -615.5094 1969.0 1
136.01573 -612.0708 1958.0 1
157.2968 -615.5094 1969.0 1
178.80722 -618.948 1980.0 1
200.64749 -622.6992 1992.0 1
223.96059 -629.889 2015.0 1
247.87444 -637.3914 2039.0 1
269.12076 -637.3914 2039.0 1
392.79236 -570.1824 1824.0 1
409.54074 -567.0564 1814.0 1
432.9301 -572.9958 1833.0 1
449.81058 -570.1824 1824.0 1
-214.4853 -643.4558 1992.0 1
-191.49182 -636.02637 1969.0 1
-171.93 -639.5796 1980.0 1
-90.44214 -647.00903 2003.0 1
-68.771996 -639.5796 1980.0 1
-47.60549 -632.47314 1958.0 1
-27.050293 -628.9199 1947.0 1
-6.724399 -625.3667 1936.0 1
13.525211 -628.9199 1947.0 1
33.8129 -628.9199 1947.0 1
54.100586 -628.9199 1947.0 1
74.80868 -632.47314 1958.0 1
95.74588 -636.02637 1969.0 1
115.61343 -632.47314 1958.0 1
136.01573 -632.47314 1958.0 1
157.2968 -636.02637 1969.0 1
178.80722 -639.5796 1980.0 1
201.75548 -647.00903 2003.0 1
223.96059 -650.88525 2015.0 1
246.41563 -654.76154 2027.0 1
272.28842 -666.3902 2063.0 1
388.4854 -582.728 1804.0 1
407.28305 -582.728 1804.0 1
428.44257 -585.95825 1814.0 1
449.81058 -589.1885 1824.0 1
-213.19322 -660.2111 1980.0 1
-190.42204 -652.8755 1958.0 1
-170.97482 -656.54333 1969.0 1
-150.45784 -656.54333 1969.0 1
-90.44214 -667.88025 2003.0 1
-68.38993 -656.54333 1969.0 1
-47.60549 -652.8755 1958.0 1
-27.050293 -649.20764 1947.0 1
-6.724399 -645.5398 1936.0 1
13.601625 -652.8755 1958.0 1
34.003933 -652.8755 1958.0 1
54.711895 -656.54333 1969.0 1
75.22895 -656.54333 1969.0 1
95.74588 -656.54333 1969.0 1
116.26294 -656.54333 1969.0 1
137.54399 -660.2111 1980.0 1
159.13419 -664.2124 1992.0 1
180.88428 -667.88025 2003.0 1
202.9642 -671.88153 2015.0 1
226.6281 -679.8841 2039.0 1
249.33322 -683.8854 2051.0 1
272.28842 -687.88666 2063.0 1
371.73694 -604.8601 1814.0 1
386.5473 -598.5248 1795.0 1
403.21927 -595.5238 1786.0 1
426.0807 -601.5257 1804.0 1
449.81058 -608.1945 1824.0 1
-236.54091 -688.7516 2003.0 1
-212.00882 -677.06036 1969.0 1
-190.42204 -673.2779 1958.0 1
-170.97482 -677.06036 1969.0 1
-150.45784 -677.06036 1969.0 1
-90.44214 -688.7516 2003.0 1
-68.771996 -680.84283 1980.0 1
-47.60549 -673.2779 1958.0 1
-27.050293 -669.4954 1947.0 1
-6.7626057 -669.4954 1947.0 1
13.525211 -669.4954 1947.0 1
34.003933 -673.2779 1958.0 1
54.711895 -677.06036 1969.0 1
75.64922 -680.84283 1980.0 1
96.86429 -684.9692 1992.0 1
117.62101 -684.9692 1992.0 1
139.14172 -688.7516 2003.0 1
160.97157 -692.8779 2015.0 1
181.96796 -692.8779 2015.0 1
204.17293 -697.0043 2027.0 1
227.96187 -705.2569 2051.0 1
250.79202 -709.3832 2063.0 1
367.84332 -617.2287 1795.0 1
384.6092 -614.134 1786.0 1
401.18735 -611.03925 1777.0 1
421.82935 -614.134 1786.0 1
442.659 -617.2287 1795.0 1
-212.00882 -697.57733 1969.0 1
-190.42204 -693.68024 1958.0 1
-172.972 -705.72577 1992.0 1
-149.6173 -693.68024 1958.0 1
-90.44214 -709.62286 2003.0 1
-68.771996 -701.4744 1980.0 1
-47.60549 -693.68024 1958.0 1
-27.050293 -689.78314 1947.0 1
-6.7626057 -689.78314 1947.0 1
13.525211 -689.78314 1947.0 1
34.003933 -693.68024 1958.0 1
54.711895 -697.57733 1969.0 1
76.107704 -705.72577 1992.0 1
97.982704 -713.8742 2015.0 1
120.3962 -722.37695 2039.0 1
142.47614 -726.6283 2051.0 1
162.88885 -722.37695 2039.0 1
184.13531 -722.37695 2039.0 1
205.38164 -722.37695 2039.0 1
227.96187 -726.6283 2051.0 1
250.79202 -730.87964 2063.0 1
279.01974 -748.94794 2114.0 1
365.999 -632.7441 1786.0 1
382.67108 -629.55554 1777.0 1
399.15546 -626.36707 1768.0 1
419.70364 -629.55554 1777.0 1
440.4395 -632.7441 1786.0 1
-212.00882 -718.0943 1969.0 1
-191.49182 -718.0943 1969.0 1
-174.96916 -734.8705 2015.0 1
-151.29839 -722.10596 1980.0 1
-90.44214 -730.4941 2003.0 1
-68.771996 -722.10596 1980.0 1
-47.60549 -714.0826 1958.0 1
-27.050293 -710.07086 1947.0 1
-6.7626057 -710.07086 1947.0 1
13.601625 -714.0826 1958.0 1
34.003933 -714.0826 1958.0 1
54.711895 -718.0943 1969.0 1
76.52798 -730.4941 2003.0 1
101.53245 -761.4936 2088.0 1
122.58093 -757.1172 2076.0 1
143.30974 -752.3761 2063.0 1
163.84749 -747.9997 2051.0 1
185.219 -747.9997 2051.0 1
207.79909 -752.3761 2063.0 1
229.29562 -752.3761 2063.0 1
252.37239 -757.1172 2076.0 1
365.999 -651.3542 1786.0 1
380.73294 -644.7896 1768.0 1
399.15546 -644.7896 1768.0 1
417.57797 -644.7896 1768.0 1
436.0006 -644.7896 1768.0 1
-191.49182 -738.61127 1969.0 1
-171.93 -742.73755 1980.0 1
-151.29839 -742.73755 1980.0 1
-90.44214 -751.36536 2003.0 1
-68.771996 -742.73755 1980.0 1
-47.60549 -734.4849 1958.0 1
-27.050293 -730.3586 1947.0 1
-6.7626057 -730.3586 1947.0 1
13.601625 -734.4849 1958.0 1
34.194965 -738.61127 1969.0 1
54.711895 -738.61127 1969.0 1
75.64922 -742.73755 1980.0 1
102.796745 -793.00366 2114.0 1
124.0571 -788.1271 2101.0 1
145.0464 -783.25055 2088.0 1
164.80614 -773.8725 2063.0 1
186.30267 -773.8725 2063.0 1
207.79909 -773.8725 2063.0 1
232.0743 -783.25055 2088.0 1
364.15466 -666.5882 1777.0 1
378.79483 -659.83606 1759.0 1
399.15546 -663.21216 1768.0 1
417.57797 -663.21216 1768.0 1
436.0006 -663.21216 1768.0 1
-189.35225 -750.6463 1947.0 1
-170.01967 -754.88727 1958.0 1
-151.29839 -763.36914 1980.0 1
-90.44214 -772.2366 2003.0 1
-68.771996 -763.36914 1980.0 1
-47.60549 -754.88727 1958.0 1
-27.050293 -750.6463 1947.0 1
-6.7626057 -750.6463 1947.0 1
13.678039 -759.12823 1969.0 1
34.194965 -759.12823 1969.0 1
55.017548 -763.36914 1980.0 1
76.107704 -767.9956 1992.0 1
104.693184 -830.06757 2153.0 1
124.82471 -815.0315 2114.0 1
145.94946 -810.0195 2101.0 1
167.84183 -810.0195 2101.0 1
188.56035 -805.00745 2088.0 1
210.31725 -805.00745 2088.0 1
234.96411 -815.0315 2114.0 1
362.3103 -681.63464 1768.0 1
378.79483 -678.1648 1759.0 1
393.05975 -671.2251 1741.0 1
415.4523 -678.1648 1759.0 1
433.78113 -678.1648 1759.0 1
-90.98398 -797.85944 2015.0 1
-69.1888 -788.7523 1992.0 1
-47.60549 -775.28973 1958.0 1
-27.20312 -775.28973 1958.0 1
-6.8008127 -775.28973 1958.0 1
13.678039 -779.64526 1969.0 1
34.194965 -779.64526 1969.0 1
55.017548 -784.00085 1980.0 1
83.825455 -868.73627 2194.0 1
105.373955 -858.04535 2167.0 1
125.592316 -842.207 2127.0 1
146.85252 -837.05945 2114.0 1
167.84183 -831.912 2101.0 1
189.73433 -831.912 2101.0 1
212.93614 -837.05945 2114.0 1
236.40901 -842.207 2127.0 1
265.1369 -863.5888 2181.0 1
378.79483 -696.49365 1759.0 1
393.05975 -689.3664 1741.0 1
417.57797 -700.0573 1768.0 1
-91.52582 -823.73224 2027.0 1
-69.1888 -809.509 1992.0 1
-47.87294 -800.16223 1969.0 1
-27.20312 -795.692 1958.0 1
-6.8008127 -795.692 1958.0 1
13.678039 -800.16223 1969.0 1
34.194965 -800.16223 1969.0 1
55.990078 -818.8557 2015.0 1
78.82038 -838.36194 2063.0 1
105.373955 -880.6255 2167.0 1
127.127525 -874.93616 2153.0 1
147.7556 -864.37024 2127.0 1
168.88036 -859.08734 2114.0 1
190.90833 -859.08734 2114.0 1
215.55504 -869.6532 2140.0 1
237.85391 -869.6532 2140.0 1
