ply
format ascii 1.0
comment : created from Kinect user tracker
element vertex 846
property float x
property float y
property float z
property int userId
end_header
229.75749 404.05634 2281.0 1
178.7064 372.9526 2237.0 1
199.39714 368.11774 2208.0 1
222.40445 368.11774 2208.0 1
248.63515 372.9526 2237.0 1
132.08745 349.6431 2237.0 1
154.4244 347.4549 2223.0 1
176.3897 345.11038 2208.0 1
199.39714 345.11038 2208.0 1
222.40445 345.11038 2208.0 1
243.85583 342.92218 2194.0 1
270.2427 347.4549 2223.0 1
293.40628 347.4549 2223.0 1
109.507225 328.5218 2252.0 1
131.2608 324.29126 2223.0 1
154.4244 324.29126 2223.0 1
176.3897 322.10306 2208.0 1
199.39714 322.10306 2208.0 1
220.99428 320.06073 2194.0 1
240.85487 316.12198 2167.0 1
268.4192 322.10306 2208.0 1
291.42648 322.10306 2208.0 1
314.43393 322.10306 2208.0 1
110.9174 308.98425 2281.0 1
132.97314 305.0559 2252.0 1
154.4244 301.12756 2223.0 1
177.588 301.12756 2223.0 1
198.13286 297.19922 2194.0 1
220.99428 297.19922 2194.0 1
242.41093 295.43823 2181.0 1
266.71725 297.19922 2194.0 1
289.57867 297.19922 2194.0 1
316.57004 301.12756 2223.0 1
110.9174 285.21625 2281.0 1
133.7998 283.34064 2266.0 1
156.43893 281.5901 2252.0 1
176.3897 276.08832 2208.0 1
198.13286 274.33777 2194.0 1
220.99428 274.33777 2194.0 1
245.4119 276.08832 2208.0 1
268.4192 276.08832 2208.0 1
293.40628 277.96393 2223.0 1
318.56375 279.71448 2237.0 1
87.14944 261.44818 2281.0 1
110.9174 261.44818 2281.0 1
133.7998 259.72888 2266.0 1
156.43893 258.1242 2252.0 1
177.588 254.80023 2223.0 1
199.39714 253.08093 2208.0 1
220.99428 251.47626 2194.0 1
243.85583 251.47626 2194.0 1
270.2427 254.80023 2223.0 1
297.23392 258.1242 2252.0 1
324.82962 261.44818 2281.0 1
348.5976 261.44818 2281.0 1
88.33384 240.9104 2312.0 1
111.69542 239.3474 2297.0 1
134.6855 237.68019 2281.0 1
157.41147 236.1172 2266.0 1
177.588 231.6366 2223.0 1
200.75174 231.6366 2223.0 1
222.40445 230.0736 2208.0 1
247.0791 231.6366 2223.0 1
271.94464 233.0954 2237.0 1
299.08173 236.1172 2266.0 1
329.24423 240.9104 2312.0 1
360.51807 245.8078 2359.0 1
113.93224 219.72656 2343.0 1
137.40166 218.22607 2327.0 1
158.45346 213.9122 2281.0 1
178.7064 209.78587 2237.0 1
200.75174 208.47296 2223.0 1
222.40445 207.06625 2208.0 1
245.4119 207.06625 2208.0 1
273.76813 211.19258 2252.0 1
301.06152 213.9122 2281.0 1
331.38034 218.22607 2327.0 1
113.93224 195.31247 2343.0 1
138.3464 195.31247 2343.0 1
158.45346 190.14415 2281.0 1
178.7064 186.4763 2237.0 1
200.75174 185.30927 2223.0 1
223.91534 185.30927 2223.0 1
247.0791 185.30927 2223.0 1
271.94464 186.4763 2237.0 1
309.2447 195.31247 2343.0 1
329.24423 192.7283 2312.0 1
96.05159 183.37117 2514.0 1
120.49684 180.74533 2478.0 1
146.3177 180.74533 2478.0 1
170.888 179.4324 2460.0 1
181.02312 165.28204 2266.0 1
202.01604 163.1668 2237.0 1
223.91534 162.14563 2223.0 1
250.30235 164.2609 2252.0 1
281.06213 168.63728 2312.0 1
311.35648 172.06548 2359.0 1
335.93735 172.06548 2359.0 1
69.85561 157.17525 2514.0 1
95.36387 156.0499 2496.0 1
119.62157 153.79918 2460.0 1
145.25487 153.79918 2460.0 1
167.3452 150.61066 2409.0 1
183.4996 143.60841 2297.0 1
202.01604 139.85721 2237.0 1
226.83643 140.79501 2252.0 1
255.30396 143.60841 2297.0 1
284.8307 146.48433 2343.0 1
311.35648 147.48465 2359.0 1
335.93735 147.48465 2359.0 1
358.07285 146.48433 2343.0 1
69.35545 130.0416 2496.0 1
93.988434 128.166 2460.0 1
118.794914 127.2803 2443.0 1
142.24348 125.508896 2409.0 1
166.16426 124.6232 2392.0 1
189.81065 123.7896 2376.0 1
211.58855 122.0703 2343.0 1
236.00255 122.0703 2343.0 1
260.4167 122.0703 2343.0 1
286.77576 122.9039 2359.0 1
311.35648 122.9039 2359.0 1
335.93735 122.9039 2359.0 1
358.07285 122.0703 2343.0 1
382.487 122.0703 2343.0 1
406.901 122.0703 2343.0 1
43.9724 105.53378 2532.0 1
68.85529 103.283066 2478.0 1
93.988434 102.53282 2460.0 1
117.96826 101.1157 2426.0 1
141.23969 99.698586 2392.0 1
165.0528 99.0317 2376.0 1
188.45258 98.32314 2359.0 1
214.56866 99.0317 2376.0 1
237.61417 98.32314 2359.0 1
260.4167 97.656265 2343.0 1
284.8307 97.656265 2343.0 1
309.2447 97.656265 2343.0 1
333.65884 97.656265 2343.0 1
358.07285 97.656265 2343.0 1
379.87506 96.98938 2327.0 1
406.901 97.656265 2343.0 1
428.3696 96.98938 2327.0 1
44.302364 79.74425 2551.0 1
68.85529 77.462265 2478.0 1
93.33892 76.368164 2443.0 1
117.96826 75.83675 2426.0 1
141.23969 74.77391 2392.0 1
165.0528 74.27375 2376.0 1
188.45258 73.742325 2359.0 1
211.58855 73.242165 2343.0 1
234.39091 72.742004 2327.0 1
260.4167 73.242165 2343.0 1
284.8307 73.242165 2343.0 1
305.1531 72.27311 2312.0 1
331.38034 72.742004 2327.0 1
355.62762 72.742004 2327.0 1
379.87506 72.742004 2327.0 1
404.1223 72.742004 2327.0 1
425.6083 72.27311 2312.0 1
17.853 53.55881 2570.0 1
44.302364 53.162853 2551.0 1
68.85529 51.641533 2478.0 1
93.33892 50.912132 2443.0 1
117.14161 50.20357 2409.0 1
140.29494 49.51585 2376.0 1
165.0528 49.51585 2376.0 1
187.1744 48.828133 2343.0 1
210.14365 48.49469 2327.0 1
234.39091 48.49469 2327.0 1
258.63834 48.49469 2327.0 1
282.88562 48.49469 2327.0 1
305.1531 48.18209 2312.0 1
331.38034 48.49469 2327.0 1
353.3352 48.18209 2312.0 1
374.97766 47.86949 2297.0 1
401.51733 48.18209 2312.0 1
425.6083 48.18209 2312.0 1
452.61703 48.49469 2327.0 1
18.123922 27.185753 2609.0 1
44.63233 26.779373 2570.0 1
68.35513 25.633175 2460.0 1
92.68941 25.278896 2426.0 1
116.31495 24.924616 2392.0 1
141.23969 24.924616 2392.0 1
162.76039 24.414036 2343.0 1
187.1744 24.414036 2343.0 1
211.58855 24.414036 2343.0 1
236.00255 24.414036 2343.0 1
258.63834 24.247316 2327.0 1
281.06213 24.091017 2312.0 1
305.1531 24.091017 2312.0 1
331.38034 24.247316 2327.0 1
351.04282 23.934717 2297.0 1
374.97766 23.934717 2297.0 1
401.51733 24.091017 2312.0 1
428.3696 24.247316 2327.0 1
452.61703 24.247316 2327.0 1
18.262856 0.0 2629.0 1
44.63233 0.0 2570.0 1
68.85529 0.0 2478.0 1
92.03989 0.0 2409.0 1
117.14161 0.0 2409.0 1
141.23969 0.0 2392.0 1
163.87186 0.0 2359.0 1
187.1744 0.0 2343.0 1
211.58855 0.0 2343.0 1
234.39091 0.0 2327.0 1
258.63834 0.0 2327.0 1
281.06213 0.0 2312.0 1
305.1531 0.0 2312.0 1
327.10812 0.0 2297.0 1
351.04282 0.0 2297.0 1
377.42636 0.0 2312.0 1
401.51733 0.0 2312.0 1
422.84702 0.0 2297.0 1
452.61703 0.0 2327.0 1
45.30963 -27.185753 2609.0 1
68.85529 -25.820734 2478.0 1
92.03989 -25.101755 2409.0 1
116.31495 -24.924616 2392.0 1
140.29494 -24.757896 2376.0 1
163.87186 -24.580755 2359.0 1
187.1744 -24.414036 2343.0 1
210.14365 -24.247316 2327.0 1
234.39091 -24.247316 2327.0 1
256.97116 -24.091017 2312.0 1
281.06213 -24.091017 2312.0 1
303.1733 -23.934717 2297.0 1
329.24423 -24.091017 2312.0 1
353.3352 -24.091017 2312.0 1
379.87506 -24.247316 2327.0 1
401.51733 -24.091017 2312.0 1
428.3696 -24.247316 2327.0 1
458.84125 -24.580755 2359.0 1
18.686604 -56.059544 2690.0 1
46.35163 -55.621906 2669.0 1
68.35513 -51.26635 2460.0 1
92.03989 -50.20351 2409.0 1
116.31495 -49.84923 2392.0 1
140.29494 -49.515793 2376.0 1
163.87186 -49.16151 2359.0 1
187.1744 -48.82807 2343.0 1
211.58855 -48.82807 2343.0 1
234.39091 -48.494633 2327.0 1
256.97116 -48.182034 2312.0 1
281.06213 -48.182034 2312.0 1
305.1531 -48.182034 2312.0 1
329.24423 -48.182034 2312.0 1
355.62762 -48.494633 2327.0 1
379.87506 -48.494633 2327.0 1
404.1223 -48.494633 2327.0 1
428.3696 -48.494633 2327.0 1
455.72916 -48.82807 2343.0 1
18.832485 -84.74591 2711.0 1
46.71633 -84.089455 2690.0 1
73.05108 -82.182594 2629.0 1
93.33892 -76.368225 2443.0 1
117.14161 -75.30539 2409.0 1
141.23969 -74.773964 2392.0 1
163.87186 -73.742386 2359.0 1
187.1744 -73.242226 2343.0 1
210.14365 -72.742065 2327.0 1
234.39091 -72.742065 2327.0 1
258.63834 -72.742065 2327.0 1
281.06213 -72.27316 2312.0 1
305.1531 -72.27316 2312.0 1
331.38034 -72.742065 2327.0 1
358.07285 -73.242226 2343.0 1
382.487 -73.242226 2343.0 1
406.901 -73.242226 2343.0 1
428.3696 -72.742065 2327.0 1
452.61703 -72.742065 2327.0 1
18.832485 -112.99451 2711.0 1
47.08103 -112.99451 2711.0 1
74.74606 -112.119225 2690.0 1
93.988434 -102.53282 2460.0 1
117.14161 -100.40714 2409.0 1
141.23969 -99.698586 2392.0 1
163.87186 -98.32314 2359.0 1
187.1744 -97.656265 2343.0 1
211.58855 -97.656265 2343.0 1
234.39091 -96.98938 2327.0 1
258.63834 -96.98938 2327.0 1
282.88562 -96.98938 2327.0 1
307.1329 -96.98938 2327.0 1
331.38034 -96.98938 2327.0 1
363.11612 -99.0317 2376.0 1
385.09894 -98.32314 2359.0 1
406.901 -97.656265 2343.0 1
431.315 -97.656265 2343.0 1
455.72916 -97.656265 2343.0 1
-9.492656 -142.3893 2733.0 1
19.131193 -143.4834 2754.0 1
47.4631 -142.3893 2733.0 1
74.74606 -140.149 2690.0 1
93.988434 -128.166 2460.0 1
117.14161 -125.508896 2409.0 1
141.23969 -124.6232 2392.0 1
165.0528 -123.7896 2376.0 1
188.45258 -122.9039 2359.0 1
211.58855 -122.0703 2343.0 1
236.00255 -122.0703 2343.0 1
258.63834 -121.236694 2327.0 1
282.88562 -121.236694 2327.0 1
307.1329 -121.236694 2327.0 1
335.93735 -122.9039 2359.0 1
365.56134 -124.6232 2392.0 1
387.87415 -123.7896 2376.0 1
406.901 -122.0703 2343.0 1
431.315 -122.0703 2343.0 1
455.72916 -122.0703 2343.0 1
-9.492656 -170.86713 2733.0 1
18.985312 -170.86713 2733.0 1
47.4631 -170.86713 2733.0 1
74.74606 -168.17877 2690.0 1
94.67615 -154.92453 2478.0 1
117.14161 -150.61066 2409.0 1
141.23969 -149.54782 2392.0 1
165.0528 -148.5475 2376.0 1
189.81065 -148.5475 2376.0 1
213.03345 -147.48465 2359.0 1
237.61417 -147.48465 2359.0 1
260.4167 -146.48433 2343.0 1
286.77576 -147.48465 2359.0 1
313.60025 -148.5475 2376.0 1
340.63678 -149.54782 2392.0 1
368.1594 -150.61066 2409.0 1
393.2613 -150.61066 2409.0 1
412.632 -148.5475 2376.0 1
437.38986 -148.5475 2376.0 1
465.25998 -149.54782 2392.0 1
-9.565597 -200.87671 2754.0 1
19.131193 -200.87671 2754.0 1
47.4631 -199.34496 2733.0 1
73.60681 -193.218 2649.0 1
94.67615 -180.74527 2478.0 1
117.96826 -176.9524 2426.0 1
142.24348 -175.7124 2409.0 1
166.16426 -174.47243 2392.0 1
188.45258 -172.06541 2359.0 1
214.56866 -173.30539 2376.0 1
237.61417 -172.06541 2359.0 1
262.19504 -172.06541 2359.0 1
288.8424 -173.30539 2376.0 1
315.71204 -174.47243 2392.0 1
343.05768 -175.7124 2409.0 1
373.3555 -178.19237 2443.0 1
393.2613 -175.7124 2409.0 1
415.41064 -174.47243 2392.0 1
440.33524 -174.47243 2392.0 1
465.25998 -174.47243 2392.0 1
-9.565597 -229.57349 2754.0 1
19.290966 -231.49077 2777.0 1
48.227234 -231.49077 2777.0 1
70.355774 -211.06757 2532.0 1
94.67615 -206.56613 2478.0 1
117.96826 -202.2314 2426.0 1
142.24348 -200.81429 2409.0 1
167.3452 -200.81429 2409.0 1
189.81065 -198.0634 2376.0 1
216.01358 -199.39717 2392.0 1
239.32652 -198.0634 2376.0 1
265.86288 -199.39717 2392.0 1
290.78748 -199.39717 2392.0 1
317.9558 -200.81429 2409.0 1
345.4786 -202.2314 2426.0 1
373.3555 -203.64853 2443.0 1
396.03647 -202.2314 2426.0 1
415.41064 -199.39717 2392.0 1
440.33524 -199.39717 2392.0 1
465.25998 -199.39717 2392.0 1
-38.58175 -260.4271 2777.0 1
-9.645483 -260.4271 2777.0 1
19.443794 -262.49023 2799.0 1
48.6093 -262.49023 2799.0 1
70.88372 -239.2328 2551.0 1
94.67615 -232.38686 2478.0 1
117.96826 -227.5103 2426.0 1
142.24348 -225.91605 2409.0 1
166.16426 -224.32178 2392.0 1
191.08884 -224.32178 2392.0 1
216.01358 -224.32178 2392.0 1
240.93816 -224.32178 2392.0 1
267.75238 -225.91605 2409.0 1
294.92072 -227.5103 2426.0 1
320.1996 -227.5103 2426.0 1
350.32043 -230.69882 2460.0 1
378.70444 -232.38686 2478.0 1
404.5253 -232.38686 2478.0 1
418.363 -225.91605 2409.0 1
440.33524 -224.32178 2392.0 1
465.25998 -224.32178 2392.0 1
-38.58175 -289.3634 2777.0 1
-9.645483 -289.3634 2777.0 1
19.443794 -291.6558 2799.0 1
46.35163 -278.1098 2669.0 1
71.93961 -269.7738 2589.0 1
95.36387 -260.0832 2496.0 1
119.62157 -256.332 2460.0 1
143.24727 -252.7892 2426.0 1
167.3452 -251.01779 2409.0 1
192.44691 -251.01779 2409.0 1
217.54878 -251.01779 2409.0 1
242.6505 -251.01779 2409.0 1
267.75238 -251.01779 2409.0 1
294.92072 -252.7892 2426.0 1
320.1996 -252.7892 2426.0 1
350.32043 -256.332 2460.0 1
378.70444 -258.20758 2478.0 1
401.58685 -256.332 2460.0 1
418.363 -251.01779 2409.0 1
443.46472 -251.01779 2409.0 1
465.25998 -249.2464 2392.0 1
-38.58175 -318.2997 2777.0 1
-9.645483 -318.2997 2777.0 1
72.495346 -299.04355 2609.0 1
96.05159 -288.15466 2514.0 1
120.49684 -284.02832 2478.0 1
144.25107 -280.01663 2443.0 1
168.52612 -278.06808 2426.0 1
192.44691 -276.11954 2409.0 1
217.54878 -276.11954 2409.0 1
242.6505 -276.11954 2409.0 1
269.64188 -278.06808 2426.0 1
294.92072 -278.06808 2426.0 1
324.68713 -281.96518 2460.0 1
350.32043 -281.96518 2460.0 1
378.70444 -284.02832 2478.0 1
401.58685 -281.96518 2460.0 1
418.363 -276.11954 2409.0 1
440.33524 -274.17102 2392.0 1
465.25998 -274.17102 2392.0 1
-68.053 -349.9869 2799.0 1
-38.58175 -347.23602 2777.0 1
-9.645483 -347.23602 2777.0 1
72.495346 -326.2293 2609.0 1
96.73931 -316.60123 2532.0 1
120.49684 -309.84906 2478.0 1
145.25487 -307.59836 2460.0 1
170.888 -307.59836 2460.0 1
193.805 -303.347 2426.0 1
219.084 -303.347 2426.0 1
244.36285 -303.347 2426.0 1
269.64188 -303.347 2426.0 1
296.98737 -305.47266 2443.0 1
324.68713 -307.59836 2460.0 1
350.32043 -307.59836 2460.0 1
378.70444 -309.84906 2478.0 1
396.03647 -303.347 2426.0 1
415.41064 -299.09564 2392.0 1
440.33524 -299.09564 2392.0 1
468.5666 -301.2213 2409.0 1
-68.612206 -382.26816 2822.0 1
-38.58175 -376.17245 2777.0 1
-9.645483 -376.17245 2777.0 1
46.71633 -364.38745 2690.0 1
72.495346 -353.4152 2609.0 1
97.46524 -345.5585 2551.0 1
122.247406 -340.54648 2514.0 1
146.3177 -335.66992 2478.0 1
170.888 -333.23163 2460.0 1
195.16306 -330.92883 2443.0 1
220.61922 -330.92883 2443.0 1
246.07521 -330.92883 2443.0 1
271.53137 -330.92883 2443.0 1
299.054 -333.23163 2460.0 1
324.68713 -333.23163 2460.0 1
350.32043 -333.23163 2460.0 1
381.45532 -338.10822 2496.0 1
398.81168 -330.92883 2443.0 1
418.363 -326.32318 2409.0 1
440.33524 -324.02036 2392.0 1
468.5666 -326.32318 2409.0 1
-67.518105 -405.1088 2777.0 1
-38.58175 -405.1088 2777.0 1
-9.645483 -405.1088 2777.0 1
18.540724 -389.35373 2669.0 1
46.35163 -389.35373 2669.0 1
72.495346 -380.60095 2609.0 1
98.19116 -374.91162 2570.0 1
123.12268 -369.36816 2532.0 1
147.38054 -364.1165 2496.0 1
172.1384 -361.49066 2478.0 1
197.95909 -361.49066 2478.0 1
222.15443 -358.8648 2460.0 1
247.78757 -358.8648 2460.0 1
273.42087 -358.8648 2460.0 1
299.054 -358.8648 2460.0 1
324.68713 -358.8648 2460.0 1
352.88376 -361.49066 2478.0 1
378.70444 -361.49066 2478.0 1
401.58685 -358.8648 2460.0 1
418.363 -351.42493 2409.0 1
440.33524 -348.94498 2392.0 1
465.25998 -348.94498 2392.0 1
-68.612206 -441.07858 2822.0 1
-38.8874 -437.4837 2799.0 1
-9.801784 -441.07858 2822.0 1
18.832485 -423.72928 2711.0 1
46.0043 -414.0387 2649.0 1
73.05108 -410.9127 2629.0 1
98.91709 -404.6607 2589.0 1
124.04659 -398.72128 2551.0 1
149.50623 -395.7516 2532.0 1
173.3888 -390.1248 2496.0 1
197.95909 -387.3114 2478.0 1
223.77995 -387.3114 2478.0 1
247.78757 -384.498 2460.0 1
275.4215 -387.3114 2478.0 1
301.2422 -387.3114 2478.0 1
327.0629 -387.3114 2478.0 1
352.88376 -387.3114 2478.0 1
375.95355 -384.498 2460.0 1
393.2613 -376.5267 2409.0 1
418.363 -376.5267 2409.0 1
440.33524 -373.8696 2392.0 1
-68.053 -466.64923 2799.0 1
-38.8874 -466.64923 2799.0 1
-9.721897 -466.64923 2799.0 1
19.290966 -462.9814 2777.0 1
46.0043 -441.64124 2649.0 1
73.05108 -438.30685 2629.0 1
98.91709 -431.63806 2589.0 1
124.04659 -425.30267 2551.0 1
149.50623 -422.135 2532.0 1
174.63919 -419.13403 2514.0 1
199.39705 -416.1331 2496.0 1
223.77995 -413.13214 2478.0 1
249.60065 -413.13214 2478.0 1
275.4215 -413.13214 2478.0 1
301.2422 -413.13214 2478.0 1
327.0629 -413.13214 2478.0 1
355.44705 -416.1331 2496.0 1
386.9571 -422.135 2532.0 1
396.03647 -404.46268 2426.0 1
415.41064 -398.79422 2392.0 1
443.46472 -401.62845 2409.0 1
18.832485 -480.22647 2711.0 1
46.0043 -469.2438 2649.0 1
72.495346 -462.1582 2609.0 1
98.91709 -458.6154 2589.0 1
124.04659 -451.8841 2551.0 1
149.50623 -448.51843 2532.0 1
174.63919 -445.3299 2514.0 1
199.39705 -442.1414 2496.0 1
225.40547 -442.1414 2496.0 1
249.60065 -438.95285 2478.0 1
275.4215 -438.95285 2478.0 1
301.2422 -438.95285 2478.0 1
327.0629 -438.95285 2478.0 1
355.44705 -442.1414 2496.0 1
389.86078 -451.8841 2551.0 1
396.03647 -429.74158 2426.0 1
418.363 -426.7302 2409.0 1
443.46472 -426.7302 2409.0 1
18.832485 -508.47522 2711.0 1
46.0043 -496.8465 2649.0 1
73.05108 -493.09528 2629.0 1
98.91709 -485.5929 2589.0 1
124.04659 -478.4656 2551.0 1
149.50623 -474.90195 2532.0 1
174.63919 -471.52588 2514.0 1
200.835 -471.52588 2514.0 1
225.40547 -468.1498 2496.0 1
249.60065 -464.7737 2478.0 1
275.4215 -464.7737 2478.0 1
303.4304 -468.1498 2496.0 1
329.43866 -468.1498 2496.0 1
358.01038 -471.52588 2514.0 1
393.2613 -451.8321 2409.0 1
418.363 -451.8321 2409.0 1
443.46472 -451.8321 2409.0 1
18.832485 -536.7238 2711.0 1
46.35163 -528.4086 2669.0 1
73.05108 -520.48944 2629.0 1
99.68123 -516.52985 2609.0 1
124.9705 -508.80862 2570.0 1
150.62811 -505.047 2551.0 1
175.8896 -501.28537 2532.0 1
199.39705 -494.15808 2496.0 1
225.40547 -494.15808 2496.0 1
249.60065 -490.59445 2478.0 1
275.4215 -490.59445 2478.0 1
301.2422 -490.59445 2478.0 1
327.0629 -490.59445 2478.0 1
358.01038 -497.72174 2514.0 1
375.95355 -487.03082 2460.0 1
396.03647 -480.2995 2426.0 1
418.363 -476.93384 2409.0 1
18.832485 -564.9724 2711.0 1
46.71633 -560.596 2690.0 1
73.60681 -552.0516 2649.0 1
100.44536 -547.8836 2629.0 1
126.866936 -543.7156 2609.0 1
150.62811 -531.6284 2551.0 1
175.8896 -527.66876 2532.0 1
199.39705 -520.1664 2496.0 1
225.40547 -520.1664 2496.0 1
251.41373 -520.1664 2496.0 1
275.4215 -516.41516 2478.0 1
301.2422 -516.41516 2478.0 1
331.8144 -523.9176 2514.0 1
358.01038 -523.9176 2514.0 1
396.03647 -505.5784 2426.0 1
421.31534 -505.5784 2426.0 1
18.985312 -598.03503 2733.0 1
46.71633 -588.62573 2690.0 1
74.162544 -584.0305 2669.0 1
101.973625 -584.0305 2669.0 1
128.812 -579.6541 2649.0 1
155.23375 -575.2778 2629.0 1
177.20946 -558.2098 2551.0 1
199.39705 -546.1747 2496.0 1
223.77995 -542.2359 2478.0 1
249.60065 -542.2359 2478.0 1
275.4215 -542.2359 2478.0 1
301.2422 -542.2359 2478.0 1
331.8144 -550.11346 2514.0 1
355.44705 -546.1747 2496.0 1
370.75745 -530.8573 2426.0 1
393.2613 -527.1373 2409.0 1
418.363 -527.1373 2409.0 1
446.59418 -530.8573 2426.0 1
19.131193 -631.3269 2754.0 1
47.08103 -621.4696 2711.0 1
74.74606 -616.6555 2690.0 1
102.77597 -616.6555 2690.0 1
129.78453 -611.8415 2669.0 1
158.8356 -616.6555 2690.0 1
178.52933 -589.1467 2570.0 1
199.39705 -572.183 2496.0 1
223.77995 -568.05664 2478.0 1
249.60065 -568.05664 2478.0 1
275.4215 -568.05664 2478.0 1
301.2422 -568.05664 2478.0 1
329.43866 -572.183 2496.0 1
355.44705 -572.183 2496.0 1
370.75745 -556.13617 2426.0 1
393.2613 -552.2391 2409.0 1
418.363 -552.2391 2409.0 1
443.46472 -552.2391 2409.0 1
19.290966 -665.5359 2777.0 1
47.4631 -654.99084 2733.0 1
75.32958 -649.7183 2711.0 1
102.77597 -644.6854 2690.0 1
131.82686 -649.7183 2711.0 1
160.07558 -649.7183 2711.0 1
178.52933 -615.9263 2570.0 1
200.835 -602.50525 2514.0 1
225.40547 -598.1914 2496.0 1
249.60065 -593.8775 2478.0 1
275.4215 -593.8775 2478.0 1
303.4304 -598.1914 2496.0 1
331.8144 -602.50525 2514.0 1
352.88376 -593.8775 2478.0 1
370.75745 -581.4152 2426.0 1
393.2613 -577.341 2409.0 1
418.363 -577.341 2409.0 1
443.46472 -577.341 2409.0 1
19.290966 -694.47217 2777.0 1
47.4631 -683.4686 2733.0 1
75.94089 -683.4686 2733.0 1
104.41885 -683.4686 2733.0 1
131.82686 -677.9669 2711.0 1
161.3746 -683.4686 2733.0 1
178.52933 -642.7056 2570.0 1
202.27296 -633.2026 2532.0 1
225.40547 -624.1997 2496.0 1
249.60065 -619.69824 2478.0 1
275.4215 -619.69824 2478.0 1
303.4304 -624.1997 2496.0 1
336.6979 -637.9541 2551.0 1
370.75745 -606.6941 2426.0 1
393.2613 -602.44275 2409.0 1
424.26767 -610.94543 2443.0 1
19.443794 -729.13947 2799.0 1
47.8278 -717.417 2754.0 1
76.52441 -717.417 2754.0 1
105.22119 -717.417 2754.0 1
133.9178 -717.417 2754.0 1
163.97267 -723.4085 2777.0 1
178.52933 -669.485 2570.0 1
202.27296 -659.586 2532.0 1
225.40547 -650.208 2496.0 1
251.41373 -650.208 2496.0 1
277.42215 -650.208 2496.0 1
307.8068 -659.586 2532.0 1
336.6979 -664.53546 2551.0 1
373.3555 -636.4015 2443.0 1
396.03647 -631.97296 2426.0 1
427.22 -640.83 2460.0 1
48.227234 -752.3448 2777.0 1
76.52441 -746.11365 2754.0 1
106.099945 -752.3448 2777.0 1
135.03621 -752.3448 2777.0 1
165.2717 -758.30505 2799.0 1
178.52933 -696.26434 2570.0 1
203.79082 -691.1169 2551.0 1
227.03099 -681.09283 2514.0 1
253.2268 -681.09283 2514.0 1
279.4228 -681.09283 2514.0 1
307.8068 -685.9694 2532.0 1
336.6979 -691.1169 2551.0 1
48.227234 -781.2811 2777.0 1
77.1635 -781.2811 2777.0 1
106.9405 -787.4706 2799.0 1
136.106 -787.4706 2799.0 1
165.2717 -787.4706 2799.0 1
178.52933 -723.04376 2570.0 1
202.27296 -712.35284 2532.0 1
227.03099 -707.2887 2514.0 1
255.03989 -712.35284 2532.0 1
281.42343 -712.35284 2532.0 1
307.8068 -712.35284 2532.0 1
49.408165 -830.05725 2845.0 1
77.7748 -816.6363 2799.0 1
106.9405 -816.6363 2799.0 1
136.106 -816.6363 2799.0 1
178.52933 -749.82324 2570.0 1
203.79082 -744.2798 2551.0 1
228.65651 -738.7363 2532.0 1
256.95367 -744.2798 2551.0 1
281.42343 -738.7363 2532.0 1
307.8068 -738.7363 2532.0 1
49.824966 -866.9544 2869.0 1
78.413895 -852.75195 2822.0 1
108.698006 -859.7021 2845.0 1
137.22441 -852.75195 2822.0 1
165.2717 -845.8018 2799.0 1
181.23853 -788.38763 2609.0 1
203.79082 -770.8612 2551.0 1
228.65651 -765.11975 2532.0 1
255.03989 -765.11975 2532.0 1
283.53522 -770.8612 2551.0 1
314.73608 -782.34406 2589.0 1
349.6326 -800.47485 2649.0 1
50.241764 -904.3518 2893.0 1
79.71987 -896.84937 2869.0 1
109.61496 -896.84937 2869.0 1
139.50987 -896.84937 2869.0 1
167.98784 -889.347 2845.0 1
182.62787 -821.8254 2629.0 1
203.79082 -797.44257 2551.0 1
230.37233 -797.44257 2551.0 1
256.95367 -797.44257 2551.0 1
283.53522 -797.44257 2551.0 1
312.42633 -803.38196 2570.0 1
349.6326 -828.0774 2649.0 1
386.0645 -847.45856 2711.0 1
50.658566 -942.24927 2917.0 1
80.38675 -934.4968 2893.0 1
109.61496 -926.7443 2869.0 1
139.50987 -926.7443 2869.0 1
170.82208 -934.4968 2893.0 1
182.62787 -849.21954 2629.0 1
206.8265 -836.29877 2589.0 1
230.37233 -824.024 2551.0 1
256.95367 -824.024 2551.0 1
285.647 -830.1614 2570.0 1
317.16742 -842.75916 2609.0 1
349.6326 -855.67993 2649.0 1
392.188 -889.59705 2754.0 1
438.45966 -926.7443 2869.0 1
488.59735 -966.7988 2993.0 1
50.658566 -972.6444 2917.0 1
80.38675 -964.64185 2893.0 1
110.53192 -964.64185 2893.0 1
139.50987 -956.6393 2869.0 1
170.82208 -964.64185 2893.0 1
232.08817 -856.94073 2570.0 1
260.7813 -863.2761 2589.0 1
289.98172 -869.9449 2609.0 1
319.59875 -876.6137 2629.0 1
352.27234 -889.9513 2669.0 1
392.188 -918.2937 2754.0 1
438.45966 -956.6393 2869.0 1
484.35294 -989.3164 2967.0 1
51.526897 -1020.23267 2967.0 1
81.05363 -1003.0397 2917.0 1
110.53192 -994.78705 2893.0 1
140.67691 -994.78705 2893.0 1
170.82208 -994.78705 2893.0 1
292.20465 -904.008 2629.0 1
329.56723 -932.20447 2711.0 1
369.4306 -962.4642 2799.0 1
401.87164 -970.373 2822.0 1
438.45966 -986.53436 2869.0 1
484.35294 -1020.23267 2967.0 1
51.526897 -1051.1488 2967.0 1
81.05363 -1033.4348 2917.0 1
111.44888 -1033.4348 2917.0 1
143.05962 -1042.2917 2942.0 1
351.69235 -1024.932 2893.0 1
378.66968 -1016.4293 2869.0 1
408.56476 -1016.4293 2869.0 1
442.1275 -1024.932 2893.0 1
488.59735 -1060.3601 2993.0 1
50.658566 -1063.8298 2917.0 1
81.05363 -1063.8298 2917.0 1
112.40405 -1072.9474 2942.0 1
143.05962 -1072.9474 2942.0 1
381.83734 -1055.077 2893.0 1
418.96045 -1072.9474 2942.0 1
453.43668 -1082.0648 2967.0 1
488.59735 -1091.5471 2993.0 1
50.658566 -1094.225 2917.0 1
81.05363 -1094.225 2917.0 1
111.44888 -1094.225 2917.0 1
144.27528 -1112.981 2967.0 1
391.60434 -1112.981 2967.0 1
422.5206 -1112.981 2967.0 1
453.43668 -1112.981 2967.0 1
484.35294 -1112.981 2967.0 1
528.98865 -1142.6155 3046.0 1
21.347187 -1184.7643 3073.0 1
51.526897 -1143.8971 2967.0 1
81.74829 -1134.2585 2942.0 1
113.359215 -1143.8971 2967.0 1
144.27528 -1143.8971 2967.0 1
363.84903 -1153.9211 2993.0 1
391.60434 -1143.8971 2967.0 1
422.5206 -1143.8971 2967.0 1
449.616 -1134.2585 2942.0 1
484.35294 -1143.8971 2967.0 1
519.7843 -1153.9211 2993.0 1
-10.395726 -1185.1083 2993.0 1
20.791452 -1185.1083 2993.0 1
51.09273 -1164.9143 2942.0 1
81.74829 -1164.9143 2942.0 1
113.359215 -1174.8134 2967.0 1
145.53957 -1185.1083 2993.0 1
178.26196 -1195.4033 3019.0 1
391.60434 -1174.8134 2967.0 1
418.96045 -1164.9143 2942.0 1
449.616 -1164.9143 2942.0 1
488.59735 -1185.1083 2993.0 1
-40.874146 -1195.57 2942.0 1
-10.131752 -1185.4105 2917.0 1
20.43717 -1195.57 2942.0 1
51.09273 -1195.57 2942.0 1
81.74829 -1195.57 2942.0 1
113.359215 -1205.7295 2967.0 1
388.3047 -1195.57 2942.0 1
418.96045 -1195.57 2942.0 1
449.616 -1195.57 2942.0 1
