ply
format ascii 1.0
comment : created from Kinect user tracker
element vertex 654
property float x
property float y
property float z
property int userId
end_header
868.3263 451.88416 2551.0 1
829.5362 419.13403 2514.0 1
849.60504 416.1331 2496.0 1
928.3525 428.47037 2570.0 1
773.35156 404.6607 2589.0 1
777.1444 392.9382 2514.0 1
797.5885 390.1248 2496.0 1
823.5968 390.1248 2496.0 1
843.4781 387.3114 2478.0 1
869.29895 387.3114 2478.0 1
895.1196 387.3114 2478.0 1
934.31976 392.9382 2514.0 1
729.9418 369.36816 2532.0 1
767.67615 374.91162 2570.0 1
788.5821 372.1399 2551.0 1
803.3404 366.74234 2514.0 1
823.5968 364.1165 2496.0 1
843.4781 361.49066 2478.0 1
869.29895 361.49066 2478.0 1
882.4767 356.38486 2443.0 1
773.35156 350.70593 2589.0 1
794.4555 348.13217 2570.0 1
809.0922 342.9847 2532.0 1
823.5968 338.10815 2496.0 1
849.60504 338.10815 2496.0 1
869.29895 335.66986 2478.0 1
901.6217 338.10815 2496.0 1
927.6301 338.10815 2496.0 1
773.35156 323.72858 2589.0 1
794.4555 321.3528 2570.0 1
809.0922 316.6013 2532.0 1
829.5362 314.35056 2514.0 1
849.60504 312.09985 2496.0 1
869.29895 309.84912 2478.0 1
901.6217 312.09985 2496.0 1
948.0707 318.97705 2551.0 1
967.39276 316.6013 2532.0 1
791.274 303.62836 2649.0 1
806.5114 299.04355 2609.0 1
815.1636 292.3956 2551.0 1
829.5362 288.15466 2514.0 1
849.60504 286.0915 2496.0 1
875.61346 286.0915 2496.0 1
914.62585 290.2178 2532.0 1
941.0094 290.2178 2532.0 1
967.39276 290.2178 2532.0 1
815.1636 265.8142 2551.0 1
823.5968 260.0832 2496.0 1
849.60504 260.0832 2496.0 1
888.2425 263.83438 2532.0 1
908.1238 261.9588 2514.0 1
955.13196 267.794 2570.0 1
865.2455 262.49023 2799.0 1
821.235 241.01462 2570.0 1
835.4756 237.45097 2532.0 1
861.85895 237.45097 2532.0 1
888.2425 237.45097 2532.0 1
849.8205 237.15918 2845.0 1
865.2455 233.32462 2799.0 1
846.4792 220.82062 2649.0 1
841.74493 212.65134 2551.0 1
868.3263 212.65134 2551.0 1
901.5732 214.23518 2570.0 1
949.66486 219.15343 2629.0 1
969.6262 217.48622 2609.0 1
996.8119 217.48622 2609.0 1
827.09436 209.26488 2869.0 1
836.07996 204.15907 2799.0 1
851.3348 200.87677 2754.0 1
866.2911 197.74036 2711.0 1
874.08167 193.21806 2649.0 1
894.87646 191.75926 2629.0 1
922.27075 191.75926 2629.0 1
949.66486 191.75926 2629.0 1
969.6262 190.30048 2609.0 1
989.1706 188.84167 2589.0 1
1016.1479 188.84167 2589.0 1
1043.1254 188.84167 2589.0 1
824.43036 185.49681 2967.0 1
820.1755 177.86937 2845.0 1
836.07996 174.99345 2799.0 1
844.84314 170.86713 2733.0 1
866.2911 169.49168 2711.0 1
874.08167 165.61545 2649.0 1
901.6842 165.61545 2649.0 1
922.27075 164.36505 2629.0 1
942.4403 163.11465 2609.0 1
962.1933 161.86426 2589.0 1
989.1706 161.86426 2589.0 1
1008.6907 160.67638 2570.0 1
1035.4701 160.67638 2570.0 1
1054.3962 159.4885 2551.0 1
803.8682 150.7253 2893.0 1
813.54486 147.0262 2822.0 1
829.5084 144.6817 2777.0 1
838.04236 141.2431 2711.0 1
859.58057 140.149 2690.0 1
874.08167 138.0129 2649.0 1
894.87646 136.9709 2629.0 1
915.25464 135.9289 2609.0 1
935.21576 134.8869 2589.0 1
962.1933 134.8869 2589.0 1
981.9113 133.897 2570.0 1
1008.6907 133.897 2570.0 1
1027.815 132.9071 2551.0 1
1046.5431 131.91719 2532.0 1
1080.9778 132.9071 2551.0 1
803.8682 120.58027 2893.0 1
813.54486 117.62099 2822.0 1
822.6382 114.78674 2754.0 1
838.04236 112.99451 2711.0 1
852.8701 111.24394 2669.0 1
874.08167 110.41035 2649.0 1
894.87646 109.576744 2629.0 1
915.25464 108.74314 2609.0 1
935.21576 107.909546 2589.0 1
955.13196 107.11762 2570.0 1
974.65204 106.32571 2551.0 1
1001.2334 106.32571 2551.0 1
1020.15967 105.53378 2532.0 1
1039.1031 104.78355 2514.0 1
1065.2992 104.78355 2514.0 1
810.53705 91.1854 2917.0 1
806.9143 87.49673 2799.0 1
816.36536 85.43356 2733.0 1
838.04236 84.74584 2711.0 1
852.8701 83.43292 2669.0 1
874.08167 82.807724 2649.0 1
894.87646 82.182526 2629.0 1
915.25464 81.55733 2609.0 1
928.3525 80.33819 2570.0 1
948.0707 79.74425 2551.0 1
974.65204 79.74425 2551.0 1
1001.2334 79.74425 2551.0 1
1020.15967 79.15031 2532.0 1
1039.1031 78.58762 2514.0 1
1089.0289 80.33819 2570.0 1
1124.0575 80.93213 2589.0 1
790.53064 59.289814 2845.0 1
800.57196 57.872692 2777.0 1
816.36536 56.955734 2733.0 1
838.04236 56.497253 2711.0 1
846.4792 55.205173 2649.0 1
874.08167 55.205173 2649.0 1
894.87646 54.788372 2629.0 1
908.23846 53.954773 2589.0 1
935.21576 53.954773 2589.0 1
955.13196 53.55881 2570.0 1
974.65204 53.162853 2551.0 1
993.7762 52.76689 2532.0 1
1027.815 53.162853 2551.0 1
1039.1031 52.391773 2514.0 1
1057.6718 52.01665 2496.0 1
1115.8083 53.55881 2570.0 1
784.1397 29.40521 2822.0 1
793.9414 28.696651 2754.0 1
816.36536 28.477833 2733.0 1
838.04236 28.248592 2711.0 1
852.8701 27.810953 2669.0 1
867.48236 27.394154 2629.0 1
888.0687 27.185753 2609.0 1
908.23846 26.977354 2589.0 1
928.3525 26.779373 2570.0 1
955.13196 26.779373 2570.0 1
974.65204 26.581394 2551.0 1
1001.2334 26.581394 2551.0 1
1020.15967 26.383415 2532.0 1
1054.3962 26.581394 2551.0 1
1072.9266 26.383415 2532.0 1
1091.495 26.195854 2514.0 1
797.19946 0.0 2869.0 1
806.9143 0.0 2799.0 1
816.36536 0.0 2733.0 1
838.04236 0.0 2711.0 1
846.4792 0.0 2649.0 1
867.48236 0.0 2629.0 1
888.0687 0.0 2609.0 1
901.5732 0.0 2570.0 1
928.3525 0.0 2570.0 1
955.13196 0.0 2570.0 1
974.65204 0.0 2551.0 1
1001.2334 0.0 2551.0 1
1027.815 0.0 2551.0 1
1046.5431 0.0 2532.0 1
1080.9778 0.0 2551.0 1
1115.8083 0.0 2570.0 1
838.87946 -31.457949 3019.0 1
806.9143 -29.165552 2799.0 1
816.36536 -28.477833 2733.0 1
838.04236 -28.248592 2711.0 1
852.8701 -27.810953 2669.0 1
867.48236 -27.394154 2629.0 1
888.0687 -27.185753 2609.0 1
901.5732 -26.779373 2570.0 1
935.21576 -26.977354 2589.0 1
955.13196 -26.779373 2570.0 1
981.9113 -26.779373 2570.0 1
1001.2334 -26.581394 2551.0 1
1027.815 -26.581394 2551.0 1
1054.3962 -26.581394 2551.0 1
1080.9778 -26.581394 2551.0 1
1115.8083 -26.779373 2570.0 1
829.3522 -64.62478 3101.0 1
838.87946 -62.915897 3019.0 1
813.54486 -58.81042 2822.0 1
816.36536 -56.955666 2733.0 1
838.04236 -56.497185 2711.0 1
859.58057 -56.059544 2690.0 1
867.48236 -54.788307 2629.0 1
894.87646 -54.788307 2629.0 1
915.25464 -54.371506 2609.0 1
942.4403 -54.371506 2609.0 1
977.05914 -54.788307 2629.0 1
1004.45325 -54.788307 2629.0 1
1008.6907 -53.558746 2570.0 1
1035.4701 -53.558746 2570.0 1
1054.3962 -53.16279 2551.0 1
1089.0289 -53.558746 2570.0 1
1107.5592 -53.16279 2551.0 1
821.86365 -96.06204 3073.0 1
838.87946 -94.374 3019.0 1
806.9143 -87.496796 2799.0 1
822.6382 -86.090096 2754.0 1
838.04236 -84.74591 2711.0 1
859.58057 -84.089455 2690.0 1
874.08167 -82.80779 2649.0 1
894.87646 -82.182594 2629.0 1
929.28687 -82.80779 2649.0 1
949.66486 -82.182594 2629.0 1
977.05914 -82.182594 2629.0 1
1004.45325 -82.182594 2629.0 1
1016.1479 -80.93219 2589.0 1
1035.4701 -80.33825 2570.0 1
1062.2495 -80.33825 2570.0 1
1097.0802 -80.93219 2589.0 1
821.86365 -128.08267 3073.0 1
838.87946 -125.83195 3019.0 1
800.57196 -115.745384 2777.0 1
822.6382 -114.78674 2754.0 1
838.04236 -112.99451 2711.0 1
859.58057 -112.119225 2690.0 1
880.681 -111.24394 2669.0 1
901.6842 -110.41035 2649.0 1
929.28687 -110.41035 2649.0 1
956.8894 -110.41035 2649.0 1
984.49207 -110.41035 2649.0 1
1012.0946 -110.41035 2649.0 1
1023.9976 -108.74314 2609.0 1
1043.1254 -107.909546 2589.0 1
1062.2495 -107.11762 2570.0 1
1089.0289 -107.11762 2570.0 1
797.0396 -161.5621 3101.0 1
829.3522 -161.5621 3101.0 1
817.4837 -153.2782 2942.0 1
806.9143 -145.8279 2799.0 1
822.6382 -143.4834 2754.0 1
844.84314 -142.3893 2733.0 1
866.2911 -141.2431 2711.0 1
887.6103 -140.149 2690.0 1
908.49194 -139.0549 2669.0 1
929.28687 -138.0129 2649.0 1
956.8894 -138.0129 2649.0 1
984.49207 -138.0129 2649.0 1
1012.0946 -138.0129 2649.0 1
1039.6971 -138.0129 2649.0 1
1051.1835 -135.9289 2609.0 1
1062.2495 -133.897 2570.0 1
1089.0289 -133.897 2570.0 1
804.2364 -195.62505 3129.0 1
829.3522 -193.87448 3101.0 1
810.53705 -182.3708 2917.0 1
806.9143 -174.99345 2799.0 1
822.6382 -172.18005 2754.0 1
844.84314 -170.86713 2733.0 1
866.2911 -169.49168 2711.0 1
887.6103 -168.17877 2690.0 1
915.6401 -168.17877 2690.0 1
936.30304 -166.86584 2669.0 1
956.8894 -165.61545 2649.0 1
984.49207 -165.61545 2649.0 1
1012.0946 -165.61545 2649.0 1
1047.5469 -166.86584 2669.0 1
1059.2417 -164.36505 2629.0 1
1062.2495 -160.67638 2570.0 1
1089.0289 -160.67638 2570.0 1
1141.4242 -164.36505 2629.0 1
764.7273 -226.18687 3101.0 1
797.0396 -226.18687 3101.0 1
829.3522 -226.18687 3101.0 1
797.19946 -209.2648 2869.0 1
813.54486 -205.83662 2822.0 1
829.5084 -202.55432 2777.0 1
844.84314 -199.34496 2733.0 1
873.3211 -199.34496 2733.0 1
894.5396 -197.74028 2711.0 1
915.6401 -196.20854 2690.0 1
936.30304 -194.6768 2669.0 1
964.1139 -194.6768 2669.0 1
991.925 -194.6768 2669.0 1
1027.7593 -196.20854 2690.0 1
1055.7891 -196.20854 2690.0 1
1059.2417 -191.7592 2629.0 1
1062.2495 -187.45575 2570.0 1
1089.0289 -187.45575 2570.0 1
771.63226 -260.8335 3129.0 1
797.0396 -258.49942 3101.0 1
810.53705 -243.16118 2917.0 1
813.54486 -235.24197 2822.0 1
829.5084 -231.49077 2777.0 1
844.84314 -227.82294 2733.0 1
873.3211 -227.82294 2733.0 1
894.5396 -225.98901 2711.0 1
915.6401 -224.23845 2690.0 1
936.30304 -222.48788 2669.0 1
971.6997 -224.23845 2690.0 1
1007.5342 -225.98901 2711.0 1
1027.7593 -224.23845 2690.0 1
1064.0312 -225.98901 2711.0 1
1059.2417 -219.15349 2629.0 1
1062.2495 -214.23524 2570.0 1
739.02795 -293.43765 3129.0 1
771.63226 -293.43765 3129.0 1
803.8682 -271.30557 2893.0 1
820.1755 -266.80414 2845.0 1
836.07996 -262.49023 2799.0 1
851.3348 -258.27014 2754.0 1
873.3211 -256.30075 2733.0 1
901.7989 -256.30075 2733.0 1
922.78815 -254.23761 2711.0 1
951.03687 -254.23761 2711.0 1
979.28546 -254.23761 2711.0 1
1007.5342 -254.23761 2711.0 1
1035.7827 -254.23761 2711.0 1
1047.5469 -250.29884 2669.0 1
1059.2417 -246.54764 2629.0 1
1078.3693 -244.67204 2609.0 1
1097.0802 -242.79645 2589.0 1
745.64124 -328.95938 3157.0 1
771.63226 -326.0418 3129.0 1
824.43036 -309.1614 2967.0 1
827.09436 -298.9498 2869.0 1
842.95026 -294.0524 2822.0 1
865.2455 -291.6558 2799.0 1
880.03156 -286.9668 2754.0 1
901.7989 -284.7786 2733.0 1
922.78815 -282.4862 2711.0 1
951.03687 -282.4862 2711.0 1
979.28546 -282.4862 2711.0 1
1007.5342 -282.4862 2711.0 1
1035.7827 -282.4862 2711.0 1
1039.6971 -276.0258 2649.0 1
1059.2417 -273.9418 2629.0 1
1078.3693 -271.8578 2609.0 1
1089.0289 -267.794 2570.0 1
726.0656 -368.6179 3216.0 1
745.64124 -361.85532 3157.0 1
764.7273 -355.43658 3101.0 1
803.8682 -331.5956 2893.0 1
827.09436 -328.84476 2869.0 1
842.95026 -323.4576 2822.0 1
872.3554 -323.4576 2822.0 1
887.38116 -318.2997 2777.0 1
901.7989 -313.25644 2733.0 1
922.78815 -310.7348 2711.0 1
951.03687 -310.7348 2711.0 1
979.28546 -310.7348 2711.0 1
1007.5342 -310.7348 2711.0 1
1035.7827 -310.7348 2711.0 1
1047.5469 -305.92075 2669.0 1
1059.2417 -301.33594 2629.0 1
1070.1027 -296.75116 2589.0 1
1080.9778 -292.3956 2551.0 1
745.64124 -394.75122 3157.0 1
778.5373 -394.75122 3157.0 1
803.8682 -361.74066 2893.0 1
827.09436 -358.7397 2869.0 1
836.07996 -349.9869 2799.0 1
865.2455 -349.9869 2799.0 1
880.03156 -344.3601 2754.0 1
901.7989 -341.73425 2733.0 1
922.78815 -338.98337 2711.0 1
951.03687 -338.98337 2711.0 1
979.28546 -338.98337 2711.0 1
1007.5342 -338.98337 2711.0 1
1035.7827 -338.98337 2711.0 1
1039.6971 -331.2309 2649.0 1
1059.2417 -328.7301 2629.0 1
1078.3693 -326.2293 2609.0 1
739.02795 -423.8544 3129.0 1
778.5373 -427.64728 3157.0 1
803.8682 -391.88583 2893.0 1
827.09436 -388.6348 2869.0 1
836.07996 -379.1526 2799.0 1
851.3348 -373.0569 2754.0 1
873.3211 -370.21222 2733.0 1
894.5396 -367.23212 2711.0 1
922.78815 -367.23212 2711.0 1
958.75464 -370.21222 2733.0 1
987.2324 -370.21222 2733.0 1
1015.7104 -370.21222 2733.0 1
1035.7827 -367.23212 2711.0 1
1039.6971 -358.8336 2649.0 1
1059.2417 -356.1244 2629.0 1
785.68884 -464.7737 3186.0 1
831.6549 -436.61887 2993.0 1
827.09436 -418.52975 2869.0 1
836.07996 -408.31815 2799.0 1
851.3348 -401.75354 2754.0 1
873.3211 -398.69006 2733.0 1
894.5396 -395.4807 2711.0 1
922.78815 -395.4807 2711.0 1
958.75464 -398.69006 2733.0 1
987.2324 -398.69006 2733.0 1
1023.51495 -401.75354 2754.0 1
1035.7827 -395.4807 2711.0 1
1031.8474 -383.51852 2629.0 1
1051.1835 -380.60095 2609.0 1
813.54486 -441.07858 2822.0 1
829.5084 -434.0451 2777.0 1
858.4447 -434.0451 2777.0 1
880.03156 -430.4502 2754.0 1
901.7989 -427.16788 2733.0 1
922.78815 -423.72928 2711.0 1
958.75464 -427.16788 2733.0 1
987.2324 -427.16788 2733.0 1
1015.7104 -427.16788 2733.0 1
1012.0946 -414.0387 2649.0 1
1031.8474 -410.9127 2629.0 1
797.19946 -478.31964 2869.0 1
806.9143 -466.64923 2799.0 1
829.5084 -462.9814 2777.0 1
851.3348 -459.14685 2754.0 1
880.03156 -459.14685 2754.0 1
901.7989 -455.64572 2733.0 1
930.2767 -455.64572 2733.0 1
974.1901 -462.9814 2777.0 1
1003.1264 -462.9814 2777.0 1
1007.5342 -451.97787 2711.0 1
1012.0946 -441.64124 2649.0 1
1031.8474 -438.30685 2629.0 1
784.1397 -499.889 2822.0 1
806.9143 -495.8148 2799.0 1
829.5084 -491.91772 2777.0 1
851.3348 -487.8435 2754.0 1
880.03156 -487.8435 2754.0 1
901.7989 -484.12357 2733.0 1
930.2767 -484.12357 2733.0 1
974.1901 -491.91772 2777.0 1
987.2324 -484.12357 2733.0 1
991.925 -472.7866 2669.0 1
1012.0946 -469.2438 2649.0 1
1031.8474 -465.701 2629.0 1
790.53064 -533.6083 2845.0 1
806.9143 -524.98047 2799.0 1
829.5084 -520.8542 2777.0 1
851.3348 -516.5403 2754.0 1
880.03156 -516.5403 2754.0 1
908.7282 -516.5403 2754.0 1
952.7422 -524.98047 2799.0 1
979.28546 -508.47522 2711.0 1
984.49207 -496.8465 2649.0 1
1012.0946 -496.8465 2649.0 1
1039.6971 -496.8465 2649.0 1
1051.1835 -489.3441 2609.0 1
773.72327 -572.75616 2893.0 1
790.53064 -563.2531 2845.0 1
806.9143 -554.14606 2799.0 1
829.5084 -549.79047 2777.0 1
858.4447 -549.79047 2777.0 1
887.38116 -549.79047 2777.0 1
923.57666 -554.14606 2799.0 1
1027.6272 -597.70166 3019.0 1
1068.5571 -603.0471 3046.0 1
979.28546 -536.7238 2711.0 1
991.925 -528.4086 2669.0 1
1019.7359 -528.4086 2669.0 1
1039.6971 -524.44904 2649.0 1
767.30457 -597.8996 2869.0 1
784.1397 -588.1048 2822.0 1
806.9143 -583.3116 2799.0 1
836.07996 -583.3116 2799.0 1
865.2455 -583.3116 2799.0 1
894.4112 -583.3116 2799.0 1
931.1659 -588.1048 2822.0 1
1027.6272 -629.1596 3019.0 1
1068.5571 -634.7864 3046.0 1
979.28546 -564.9724 2711.0 1
991.925 -556.2196 2669.0 1
1012.0946 -552.0516 2649.0 1
1055.7891 -560.596 2690.0 1
760.8858 -622.54285 2845.0 1
784.1397 -617.51 2822.0 1
806.9143 -612.4771 2799.0 1
836.07996 -612.4771 2799.0 1
865.2455 -612.4771 2799.0 1
901.76074 -617.51 2822.0 1
996.1694 -660.61755 3019.0 1
1036.8176 -666.5257 3046.0 1
1068.5571 -666.5257 3046.0 1
987.2324 -598.03503 2733.0 1
999.7296 -588.62573 2690.0 1
1027.7593 -588.62573 2690.0 1
1047.5469 -584.0305 2669.0 1
743.5781 -663.1912 2893.0 1
760.8858 -652.18774 2845.0 1
784.1397 -646.9152 2822.0 1
813.54486 -646.9152 2822.0 1
836.07996 -641.6427 2799.0 1
872.3554 -646.9152 2822.0 1
990.9143 -710.87317 3101.0 1
1013.98755 -704.45447 3073.0 1
1046.0082 -704.45447 3073.0 1
1068.5571 -698.26495 3046.0 1
719.3517 -699.08826 2917.0 1
737.4095 -687.5846 2869.0 1
760.8858 -681.83276 2845.0 1
784.1397 -676.32056 2822.0 1
806.9143 -670.8084 2799.0 1
836.07996 -670.8084 2799.0 1
865.2455 -670.8084 2799.0 1
990.9143 -743.1857 3101.0 1
1013.98755 -736.4752 3073.0 1
1046.0082 -736.4752 3073.0 1
1087.8514 -743.1857 3101.0 1
1130.2782 -749.8962 3129.0 1
719.3517 -729.4834 2917.0 1
737.4095 -717.47955 2869.0 1
760.8858 -711.4776 2845.0 1
790.53064 -711.4776 2845.0 1
813.54486 -705.72577 2822.0 1
842.95026 -705.72577 2822.0 1
1018.07574 -796.7549 3186.0 1
1032.4657 -782.50037 3129.0 1
1065.0698 -782.50037 3129.0 1
1097.6741 -782.50037 3129.0 1
1130.2782 -782.50037 3129.0 1
719.3517 -759.8785 2917.0 1
743.5781 -753.62646 2893.0 1
767.30457 -747.3745 2869.0 1
797.19946 -747.3745 2869.0 1
820.1755 -741.1225 2845.0 1
842.95026 -735.131 2822.0 1
1018.07574 -829.953 3186.0 1
1041.7047 -822.3985 3157.0 1
1065.0698 -815.1045 3129.0 1
1097.6741 -815.1045 3129.0 1
1130.2782 -815.1045 3129.0 1
725.51685 -797.0466 2942.0 1
743.5781 -783.77155 2893.0 1
767.30457 -777.2694 2869.0 1
797.19946 -777.2694 2869.0 1
827.09436 -777.2694 2869.0 1
1041.7047 -855.2944 3157.0 1
1065.0698 -847.7086 3129.0 1
1097.6741 -847.7086 3129.0 1
1130.2782 -847.7086 3129.0 1
1173.2886 -855.2944 3157.0 1
725.8015 -864.55774 3073.0 1
725.51685 -827.7022 2942.0 1
743.5781 -813.91656 2893.0 1
767.30457 -807.16437 2869.0 1
803.8682 -813.91656 2893.0 1
834.01324 -813.91656 2893.0 1
1094.6835 -904.78937 3216.0 1
1107.4967 -888.1903 3157.0 1
1130.2782 -880.3128 3129.0 1
1184.0663 -896.3492 3186.0 1
719.3517 -851.06396 2917.0 1
743.5781 -844.0617 2893.0 1
773.72327 -844.0617 2893.0 1
803.8682 -844.0617 2893.0 1
827.09436 -837.0595 2869.0 1
1094.6835 -938.30023 3216.0 1
1107.4967 -921.08636 3157.0 1
1140.3926 -921.08636 3157.0 1
1173.2886 -921.08636 3157.0 1
706.9066 -904.42474 2993.0 1
719.3517 -881.45905 2917.0 1
743.5781 -874.2067 2893.0 1
773.72327 -874.2067 2893.0 1
803.8682 -874.2067 2893.0 1
1104.895 -980.8763 3246.0 1
1128.1942 -971.8109 3216.0 1
1150.868 -962.7455 3186.0 1
1184.0663 -962.7455 3186.0 1
700.76575 -927.4842 2967.0 1
719.3517 -911.8542 2917.0 1
743.5781 -904.3518 2893.0 1
773.72327 -904.3518 2893.0 1
803.8682 -904.3518 2893.0 1
1115.447 -1024.3901 3277.0 1
1128.1942 -1005.3216 3216.0 1
1161.705 -1005.3216 3216.0 1
1195.2157 -1005.3216 3216.0 1
681.58954 -975.1973 3019.0 1
700.76575 -958.40027 2967.0 1
725.51685 -950.32477 2942.0 1
756.1724 -950.32477 2942.0 1
780.14197 -942.24927 2917.0 1
1104.895 -1048.5228 3246.0 1
1128.1942 -1038.8323 3216.0 1
1161.705 -1038.8323 3216.0 1
1195.2157 -1038.8323 3216.0 1
669.8497 -989.3164 2967.0 1
700.76575 -989.3164 2967.0 1
731.682 -989.3164 2967.0 1
756.1724 -980.9804 2942.0 1
780.14197 -972.6444 2917.0 1
1081.3008 -1092.6827 3277.0 1
1094.6835 -1072.3429 3216.0 1
1128.1942 -1072.3429 3216.0 1
1161.705 -1072.3429 3216.0 1
1195.2157 -1072.3429 3216.0 1
644.53265 -1029.173 2993.0 1
664.2055 -1011.63617 2942.0 1
700.76575 -1020.23267 2967.0 1
731.682 -1020.23267 2967.0 1
769.28076 -1029.173 2993.0 1
1094.6835 -1105.8538 3216.0 1
1128.1942 -1105.8538 3216.0 1
624.2066 -1079.1368 3046.0 1
638.93365 -1051.1488 2967.0 1
669.8497 -1051.1488 2967.0 1
700.76575 -1051.1488 2967.0 1
725.51685 -1042.2917 2942.0 1
775.96344 -1069.5713 3019.0 1
613.34546 -1091.5471 2993.0 1
638.93365 -1082.0648 2967.0 1
669.8497 -1082.0648 2967.0 1
706.9066 -1091.5471 2993.0 1
725.51685 -1072.9474 2942.0 1
533.6777 -1152.7437 3073.0 1
550.9713 -1122.7341 2993.0 1
577.1013 -1112.981 2967.0 1
608.0174 -1112.981 2967.0 1
638.93365 -1112.981 2967.0 1
669.8497 -1112.981 2967.0 1
719.4245 -1142.6155 3046.0 1
488.59735 -1153.9211 2993.0 1
519.7843 -1153.9211 2993.0 1
546.18506 -1143.8971 2967.0 1
577.1013 -1143.8971 2967.0 1
602.8942 -1134.2585 2942.0 1
638.93365 -1143.8971 2967.0 1
675.7196 -1153.9211 2993.0 1
484.35294 -1174.8134 2967.0 1
510.92734 -1164.9143 2942.0 1
541.5829 -1164.9143 2942.0 1
572.23865 -1164.9143 2942.0 1
602.8942 -1164.9143 2942.0 1
638.93365 -1174.8134 2967.0 1
675.7196 -1185.1083 2993.0 1
506.58566 -1185.4105 2917.0 1
567.376 -1185.4105 2917.0 1
