ply
format ascii 1.0
comment : created from Kinect user tracker
element vertex 1097
property float x
property float y
property float z
property int userId
end_header
111.9108 184.6528 1611.0 1
129.25658 185.45514 1618.0 1
95.537544 168.5956 1618.0 1
111.355064 167.0326 1603.0 1
126.939865 165.57379 1589.0 1
145.48405 167.8662 1611.0 1
164.58734 170.2628 1634.0 1
77.948524 150.32935 1603.0 1
94.23852 149.6729 1596.0 1
109.8268 148.26619 1581.0 1
125.182365 146.95328 1567.0 1
143.49731 149.01643 1589.0 1
160.75974 149.6729 1596.0 1
178.16815 150.32935 1603.0 1
44.347477 133.04256 1596.0 1
60.137314 131.20863 1574.0 1
76.53835 131.20863 1574.0 1
92.52617 130.6251 1567.0 1
107.88173 129.45807 1553.0 1
123.504745 128.87456 1546.0 1
139.61412 128.87456 1546.0 1
157.13358 130.0416 1560.0 1
174.94489 131.20863 1574.0 1
193.16943 132.45903 1589.0 1
209.72676 132.45903 1589.0 1
27.7172 116.41225 1596.0 1
43.930676 115.318146 1581.0 1
59.869865 114.29699 1567.0 1
75.51719 113.275826 1553.0 1
91.28619 112.76524 1546.0 1
106.909195 112.25467 1539.0 1
122.38633 111.74409 1532.0 1
139.61412 112.76524 1546.0 1
155.7234 112.76524 1546.0 1
171.05476 112.25467 1539.0 1
189.644 113.78641 1560.0 1
211.57458 116.92283 1603.0 1
227.28105 116.41225 1596.0 1
27.7172 99.7819 1596.0 1
43.73617 98.40646 1574.0 1
59.334972 97.093544 1553.0 1
74.83642 96.21826 1539.0 1
90.0462 95.34298 1525.0 1
105.51987 94.967865 1519.0 1
121.827126 95.34298 1525.0 1
138.98198 96.21826 1539.0 1
154.31323 95.780624 1532.0 1
170.27673 95.780624 1532.0 1
187.94206 96.6559 1546.0 1
206.82306 97.96883 1567.0 1
227.28105 99.7819 1596.0 1
242.84155 99.34426 1589.0 1
27.838766 83.5163 1603.0 1
43.347157 81.276 1560.0 1
59.067528 80.5466 1546.0 1
74.83642 80.1819 1539.0 1
90.0462 79.4525 1525.0 1
106.42293 79.8172 1532.0 1
122.94553 80.1819 1539.0 1
138.98198 80.1819 1539.0 1
155.01831 80.1819 1539.0 1
171.05476 80.1819 1539.0 1
187.94206 80.5466 1546.0 1
204.97525 80.9113 1553.0 1
224.14812 82.0054 1574.0 1
247.27351 84.2978 1618.0 1
11.295322 67.7717 1626.0 1
27.595633 66.22954 1589.0 1
43.541664 65.31258 1567.0 1
59.60242 65.02081 1560.0 1
75.857574 65.02081 1560.0 1
91.69952 64.72906 1553.0 1
107.39546 64.437294 1546.0 1
122.94553 64.14553 1539.0 1
138.34984 63.853775 1532.0 1
154.31323 63.853775 1532.0 1
171.83278 64.437294 1546.0 1
187.0911 64.14553 1539.0 1
203.12744 64.14553 1539.0 1
221.15756 64.72906 1553.0 1
-5.647661 50.82875 1626.0 1
11.135549 50.10977 1603.0 1
27.4567 49.42205 1581.0 1
43.73617 49.20323 1574.0 1
59.869865 48.984413 1567.0 1
76.19797 48.984413 1567.0 1
92.11284 48.76559 1560.0 1
107.39546 48.32795 1546.0 1
122.94553 48.10913 1539.0 1
138.98198 48.10913 1539.0 1
155.01831 48.10913 1539.0 1
171.83278 48.32795 1546.0 1
189.644 48.76559 1560.0 1
206.82306 48.984413 1567.0 1
-5.6754484 34.052567 1634.0 1
11.191122 33.573246 1611.0 1
27.7172 33.260647 1596.0 1
43.930676 32.948048 1581.0 1
60.137314 32.802166 1574.0 1
76.53835 32.802166 1574.0 1
92.52617 32.65629 1567.0 1
107.88173 32.36453 1553.0 1
123.504745 32.218647 1546.0 1
139.61412 32.218647 1546.0 1
155.01831 32.072765 1539.0 1
171.83278 32.218647 1546.0 1
188.79303 32.36453 1553.0 1
207.74696 32.802166 1574.0 1
-5.647661 16.942904 1626.0 1
11.191122 16.786604 1611.0 1
27.838766 16.703243 1603.0 1
44.15297 16.557364 1589.0 1
60.137314 16.401064 1574.0 1
77.26775 16.557364 1589.0 1
92.93949 16.401064 1574.0 1
107.88173 16.182243 1553.0 1
124.06395 16.182243 1553.0 1
140.24628 16.182243 1553.0 1
156.4285 16.182243 1553.0 1
173.38884 16.255184 1560.0 1
194.0204 16.630304 1596.0 1
11.399524 0.0 1641.0 1
27.838766 0.0 1603.0 1
44.15297 0.0 1589.0 1
60.97786 0.0 1596.0 1
77.26775 0.0 1589.0 1
93.35282 0.0 1581.0 1
108.85426 0.0 1567.0 1
125.182365 0.0 1567.0 1
141.51056 0.0 1567.0 1
157.83867 0.0 1567.0 1
172.61081 0.0 1553.0 1
194.87137 0.0 1603.0 1
11.621818 -17.432644 1673.0 1
28.776566 -17.265923 1657.0 1
44.541985 -16.703243 1603.0 1
62.429714 -17.026264 1634.0 1
77.948524 -16.703243 1603.0 1
94.23852 -16.630304 1596.0 1
109.34053 -16.401064 1574.0 1
125.74157 -16.401064 1574.0 1
142.14272 -16.401064 1574.0 1
157.83867 -16.328125 1567.0 1
173.38884 -16.255184 1560.0 1
194.87137 -16.703243 1603.0 1
29.4886 -35.386284 1698.0 1
46.48705 -34.865288 1673.0 1
64.225426 -35.032005 1681.0 1
79.06694 -33.885807 1626.0 1
94.23852 -33.26061 1596.0 1
109.8268 -32.94801 1581.0 1
125.74157 -32.802128 1574.0 1
143.49731 -33.114727 1589.0 1
158.54375 -32.802128 1574.0 1
174.16687 -32.65625 1567.0 1
194.87137 -33.406487 1603.0 1
241.9315 -38.199684 1833.0 1
263.87958 -38.61648 1853.0 1
284.71606 -38.824883 1863.0 1
12.156713 -54.705032 1750.0 1
30.391666 -54.705032 1750.0 1
47.87638 -53.86101 1723.0 1
64.56929 -52.829433 1690.0 1
79.79633 -51.29769 1641.0 1
95.12422 -50.35989 1611.0 1
110.8688 -49.89099 1596.0 1
126.939865 -49.672173 1589.0 1
143.49731 -49.672173 1589.0 1
159.24884 -49.42209 1581.0 1
176.61209 -49.672173 1589.0 1
219.30626 -56.393074 1804.0 1
239.42377 -56.705673 1814.0 1
261.03143 -57.299614 1833.0 1
280.13126 -57.299614 1833.0 1
299.23117 -57.299614 1833.0 1
-24.31331 -72.94002 1750.0 1
-6.0158362 -72.18977 1732.0 1
12.0316725 -72.18977 1732.0 1
29.922766 -71.81466 1723.0 1
47.87638 -71.81466 1723.0 1
65.180595 -71.106094 1706.0 1
82.17904 -70.43922 1690.0 1
97.84037 -69.063774 1657.0 1
111.9108 -67.14649 1611.0 1
128.05829 -66.81306 1603.0 1
144.12946 -66.52129 1596.0 1
160.75974 -66.52129 1596.0 1
178.16815 -66.81306 1603.0 1
218.21216 -74.81561 1795.0 1
238.1039 -75.190735 1804.0 1
258.3257 -75.60754 1814.0 1
278.7558 -76.02434 1824.0 1
300.86365 -76.81625 1843.0 1
-60.15813 -90.2372 1732.0 1
-42.11068 -90.2372 1732.0 1
-23.93819 -89.768295 1723.0 1
-5.984576 -89.768295 1723.0 1
11.969152 -89.768295 1723.0 1
29.922766 -89.768295 1723.0 1
47.87638 -89.768295 1723.0 1
65.180595 -88.8826 1706.0 1
82.568054 -88.4658 1698.0 1
99.78891 -88.048996 1690.0 1
115.10626 -86.3297 1657.0 1
128.69737 -83.9331 1611.0 1
145.48405 -83.9331 1611.0 1
161.46483 -83.5163 1603.0 1
197.50768 -92.581696 1777.0 1
216.02396 -92.581696 1777.0 1
238.1039 -93.988396 1804.0 1
256.90164 -93.988396 1804.0 1
277.22754 -94.5094 1814.0 1
300.86365 -96.0203 1843.0 1
320.06766 -96.0203 1843.0 1
-77.7992 -107.72194 1723.0 1
-59.84553 -107.72194 1723.0 1
-41.89186 -107.72194 1723.0 1
-23.827044 -107.22178 1715.0 1
-5.9567895 -107.22178 1715.0 1
11.969152 -107.72194 1723.0 1
29.783833 -107.22178 1715.0 1
47.654087 -107.22178 1715.0 1
65.52445 -107.22178 1715.0 1
83.39471 -107.22178 1715.0 1
100.261284 -106.15894 1698.0 1
117.9544 -106.15894 1698.0 1
137.00558 -107.22178 1715.0 1
155.5984 -107.72194 1723.0 1
174.45856 -108.28462 1732.0 1
194.50671 -109.40998 1750.0 1
214.92986 -110.53534 1768.0 1
236.91602 -112.22338 1795.0 1
256.90164 -112.78606 1804.0 1
277.22754 -113.41126 1814.0 1
300.86365 -115.22434 1843.0 1
321.80432 -115.84954 1853.0 1
-95.75288 -125.67558 1723.0 1
-77.43797 -125.092064 1715.0 1
-59.255066 -124.4356 1706.0 1
-41.697353 -125.092064 1715.0 1
-23.590857 -123.85208 1698.0 1
-5.925529 -124.4356 1706.0 1
11.851058 -124.4356 1706.0 1
29.627533 -124.4356 1706.0 1
47.404007 -124.4356 1706.0 1
65.180595 -124.4356 1706.0 1
83.39471 -125.092064 1715.0 1
100.73366 -124.4356 1706.0 1
118.51013 -124.4356 1706.0 1
137.64468 -125.67558 1723.0 1
155.5984 -125.67558 1723.0 1
174.45856 -126.33205 1732.0 1
193.5064 -126.9885 1741.0 1
213.83577 -128.30142 1759.0 1
235.72813 -130.2708 1786.0 1
255.61998 -130.92726 1795.0 1
277.22754 -132.31313 1814.0 1
299.23117 -133.69897 1833.0 1
327.0143 -137.34598 1883.0 1
-113.70649 -143.62932 1723.0 1
-95.30829 -142.96243 1715.0 1
-76.30914 -140.87843 1690.0 1
-58.699333 -140.87843 1690.0 1
-41.08952 -140.87843 1690.0 1
-23.47971 -140.87843 1690.0 1
-5.8699555 -140.87843 1690.0 1
11.795485 -141.54532 1698.0 1
29.627533 -142.21219 1706.0 1
47.181713 -141.54532 1698.0 1
64.87494 -141.54532 1698.0 1
82.568054 -141.54532 1698.0 1
100.261284 -141.54532 1698.0 1
119.13533 -142.96243 1715.0 1
137.64468 -143.62932 1723.0 1
155.5984 -143.62932 1723.0 1
174.45856 -144.37955 1732.0 1
192.50607 -144.37955 1732.0 1
213.83577 -146.63028 1759.0 1
234.54025 -148.13075 1777.0 1
255.61998 -149.63123 1795.0 1
277.22754 -151.21507 1814.0 1
299.23117 -152.79892 1833.0 1
325.27765 -156.13332 1873.0 1
-113.70649 -161.58295 1723.0 1
-94.36354 -159.23845 1698.0 1
-76.30914 -158.48822 1690.0 1
-58.699333 -158.48822 1690.0 1
-40.8707 -157.6442 1681.0 1
-23.47971 -158.48822 1690.0 1
-5.8699555 -158.48822 1690.0 1
11.795485 -159.23845 1698.0 1
29.4886 -159.23845 1698.0 1
47.181713 -159.23845 1698.0 1
64.56929 -158.48822 1690.0 1
82.568054 -159.23845 1698.0 1
100.261284 -159.23845 1698.0 1
117.9544 -159.23845 1698.0 1
136.2866 -159.9887 1706.0 1
155.5984 -161.58295 1723.0 1
173.55202 -161.58295 1723.0 1
192.50607 -162.42697 1732.0 1
213.83577 -164.95903 1759.0 1
234.54025 -166.64708 1777.0 1
254.33833 -167.49109 1786.0 1
277.22754 -170.11693 1814.0 1
299.23117 -171.89876 1833.0 1
328.92465 -177.61934 1894.0 1
352.5259 -179.58871 1915.0 1
-134.41104 -183.2878 1759.0 1
-113.70649 -179.53659 1723.0 1
-94.36354 -176.9316 1698.0 1
-76.30914 -176.09799 1690.0 1
-58.699333 -176.09799 1690.0 1
-40.8707 -175.1602 1681.0 1
-23.47971 -176.09799 1690.0 1
-5.8386955 -175.1602 1681.0 1
11.739911 -176.09799 1690.0 1
29.349667 -176.09799 1690.0 1
47.181713 -176.9316 1698.0 1
64.87494 -176.9316 1698.0 1
82.568054 -176.9316 1698.0 1
100.261284 -176.9316 1698.0 1
117.9544 -176.9316 1698.0 1
135.6475 -176.9316 1698.0 1
154.87595 -178.703 1715.0 1
173.55202 -179.53659 1723.0 1
193.5064 -181.4122 1741.0 1
212.74167 -182.34999 1750.0 1
234.54025 -185.16339 1777.0 1
253.05667 -185.16339 1777.0 1
275.69928 -187.97679 1804.0 1
299.23117 -190.9986 1833.0 1
328.92465 -197.3548 1894.0 1
354.3668 -200.58499 1925.0 1
-134.41104 -201.61656 1759.0 1
-113.17854 -196.57327 1715.0 1
-94.80813 -195.5417 1706.0 1
-76.30914 -193.70778 1690.0 1
-58.699333 -193.70778 1690.0 1
-40.8707 -192.6762 1681.0 1
-23.354671 -192.6762 1681.0 1
-5.8386955 -192.6762 1681.0 1
11.739911 -193.70778 1690.0 1
29.349667 -193.70778 1690.0 1
47.181713 -194.62474 1698.0 1
64.87494 -194.62474 1698.0 1
82.568054 -194.62474 1698.0 1
100.73366 -195.5417 1706.0 1
118.51013 -195.5417 1706.0 1
136.2866 -195.5417 1706.0 1
154.87595 -196.57327 1715.0 1
173.55202 -197.49023 1723.0 1
193.5064 -199.5534 1741.0 1
213.83577 -201.61656 1759.0 1
232.16449 -201.61656 1759.0 1
253.05667 -203.67972 1777.0 1
275.69928 -206.77446 1804.0 1
302.49612 -212.39084 1853.0 1
330.66132 -218.23645 1904.0 1
352.5259 -219.49728 1915.0 1
-134.41104 -219.94533 1759.0 1
-113.70649 -215.44388 1723.0 1
-95.30829 -214.44356 1715.0 1
-76.67037 -212.31789 1698.0 1
-58.699333 -211.31757 1690.0 1
-41.08952 -211.31757 1690.0 1
-23.354671 -210.1922 1681.0 1
-5.8386955 -210.1922 1681.0 1
11.795485 -212.31789 1698.0 1
29.4886 -212.31789 1698.0 1
47.181713 -212.31789 1698.0 1
64.87494 -212.31789 1698.0 1
82.568054 -212.31789 1698.0 1
100.73366 -213.3182 1706.0 1
118.51013 -213.3182 1706.0 1
137.00558 -214.44356 1715.0 1
154.87595 -214.44356 1715.0 1
173.55202 -215.44388 1723.0 1
193.5064 -217.6946 1741.0 1
212.74167 -218.81996 1750.0 1
232.16449 -219.94533 1759.0 1
254.33833 -223.3214 1786.0 1
274.32385 -224.44676 1795.0 1
309.18924 -236.82571 1894.0 1
330.66132 -238.07611 1904.0 1
354.3668 -240.70195 1925.0 1
-155.86583 -243.15073 1795.0 1
-134.41104 -238.27417 1759.0 1
-113.70649 -233.39761 1723.0 1
-95.30829 -232.31393 1715.0 1
-77.03159 -231.09479 1706.0 1
-58.9772 -230.01111 1698.0 1
-41.08952 -228.92743 1690.0 1
-23.47971 -228.92743 1690.0 1
-5.8699555 -228.92743 1690.0 1
11.795485 -230.01111 1698.0 1
29.4886 -230.01111 1698.0 1
47.181713 -230.01111 1698.0 1
64.87494 -230.01111 1698.0 1
82.568054 -230.01111 1698.0 1
100.261284 -230.01111 1698.0 1
117.9544 -230.01111 1698.0 1
136.2866 -231.09479 1706.0 1
154.87595 -232.31393 1715.0 1
174.45856 -234.61674 1732.0 1
192.50607 -234.61674 1732.0 1
212.74167 -237.05502 1750.0 1
232.16449 -238.27417 1759.0 1
253.05667 -240.71245 1777.0 1
274.32385 -243.15073 1795.0 1
310.8217 -257.91586 1904.0 1
332.57166 -259.40594 1915.0 1
352.5259 -259.40594 1915.0 1
-155.86583 -261.8546 1795.0 1
-134.41104 -256.60294 1759.0 1
-114.30043 -252.66417 1732.0 1
-95.30829 -250.18422 1715.0 1
-77.43797 -250.18422 1715.0 1
-59.567665 -250.18422 1715.0 1
-41.284027 -247.70425 1698.0 1
-23.47971 -246.53722 1690.0 1
-5.8699555 -246.53722 1690.0 1
11.795485 -247.70425 1698.0 1
29.4886 -247.70425 1698.0 1
47.181713 -247.70425 1698.0 1
64.87494 -247.70425 1698.0 1
82.17904 -246.53722 1690.0 1
100.261284 -247.70425 1698.0 1
117.9544 -247.70425 1698.0 1
137.00558 -250.18422 1715.0 1
155.5984 -251.35126 1723.0 1
175.3651 -253.9771 1741.0 1
193.5064 -253.9771 1741.0 1
212.74167 -255.29001 1750.0 1
232.16449 -256.60294 1759.0 1
253.05667 -259.22876 1777.0 1
272.9484 -260.5417 1786.0 1
312.6174 -279.3602 1915.0 1
332.57166 -279.3602 1915.0 1
356.39172 -282.4237 1936.0 1
-155.08434 -279.1518 1786.0 1
-134.41104 -274.9317 1759.0 1
-114.89437 -272.1183 1741.0 1
-95.75288 -269.3049 1723.0 1
-77.7992 -269.3049 1723.0 1
-59.84553 -269.3049 1723.0 1
-41.478535 -266.6478 1706.0 1
-23.590857 -265.3974 1698.0 1
-5.8977423 -265.3974 1698.0 1
11.795485 -265.3974 1698.0 1
29.4886 -265.3974 1698.0 1
47.181713 -265.3974 1698.0 1
64.87494 -265.3974 1698.0 1
82.568054 -265.3974 1698.0 1
100.261284 -265.3974 1698.0 1
118.51013 -266.6478 1706.0 1
137.64468 -269.3049 1723.0 1
155.5984 -269.3049 1723.0 1
174.45856 -270.7116 1732.0 1
195.50703 -274.9317 1759.0 1
213.83577 -274.9317 1759.0 1
233.35237 -276.3384 1768.0 1
253.05667 -277.7451 1777.0 1
299.2346 -306.0354 1958.0 1
314.24988 -300.8775 1925.0 1
334.30832 -300.8775 1925.0 1
358.4167 -304.3161 1947.0 1
-155.08434 -297.7619 1786.0 1
-134.41104 -293.26047 1759.0 1
-114.89437 -290.2595 1741.0 1
-96.25304 -288.759 1732.0 1
-77.7992 -287.25854 1723.0 1
-60.15813 -288.759 1732.0 1
-41.89186 -287.25854 1723.0 1
-23.827044 -285.92477 1715.0 1
-5.925529 -284.4243 1706.0 1
11.795485 -283.09055 1698.0 1
29.4886 -283.09055 1698.0 1
47.181713 -283.09055 1698.0 1
64.87494 -283.09055 1698.0 1
82.568054 -283.09055 1698.0 1
100.261284 -283.09055 1698.0 1
119.69106 -287.25854 1723.0 1
137.64468 -287.25854 1723.0 1
155.5984 -287.25854 1723.0 1
175.3651 -290.2595 1741.0 1
195.50703 -293.26047 1759.0 1
214.92986 -294.76093 1768.0 1
234.54025 -296.2614 1777.0 1
255.61998 -299.2624 1795.0 1
299.2346 -326.43774 1958.0 1
317.8413 -324.60382 1947.0 1
336.21866 -322.7699 1936.0 1
360.44162 -326.43774 1958.0 1
-155.86583 -317.96625 1795.0 1
-134.41104 -311.58923 1759.0 1
-115.48831 -309.99496 1750.0 1
-96.7532 -308.4007 1741.0 1
-79.01834 -309.99496 1750.0 1
-61.40853 -313.18347 1768.0 1
-43.20478 -314.77774 1777.0 1
-24.18827 -308.4007 1741.0 1
-5.9567895 -303.79507 1715.0 1
11.913579 -303.79507 1715.0 1
29.627533 -302.2008 1706.0 1
47.181713 -300.7837 1698.0 1
64.87494 -300.7837 1698.0 1
82.568054 -300.7837 1698.0 1
100.261284 -300.7837 1698.0 1
119.13533 -303.79507 1715.0 1
137.64468 -305.2122 1723.0 1
156.41116 -306.80643 1732.0 1
177.17818 -311.58923 1759.0 1
195.50703 -311.58923 1759.0 1
214.92986 -313.18347 1768.0 1
235.72813 -316.372 1786.0 1
258.3257 -321.3319 1814.0 1
300.91568 -348.7886 1969.0 1
319.63702 -346.8401 1958.0 1
340.03934 -346.8401 1958.0 1
360.44162 -346.8401 1958.0 1
380.8441 -346.8401 1958.0 1
-176.41756 -340.23386 1814.0 1
-156.64732 -338.35828 1804.0 1
-135.78648 -333.29416 1777.0 1
-116.082245 -329.91806 1759.0 1
-97.25336 -328.23004 1750.0 1
-79.42472 -329.91806 1759.0 1
-63.3536 -342.10947 1824.0 1
-43.64242 -336.67023 1795.0 1
-24.438349 -329.91806 1759.0 1
-6.0158362 -324.85394 1732.0 1
12.0316725 -324.85394 1732.0 1
29.922766 -323.1659 1723.0 1
47.404007 -319.9774 1706.0 1
65.180595 -319.9774 1706.0 1
82.568054 -318.4769 1698.0 1
101.265076 -321.66544 1715.0 1
119.69106 -323.1659 1723.0 1
137.64468 -323.1659 1723.0 1
157.22392 -326.542 1741.0 1
177.17818 -329.91806 1759.0 1
196.50735 -331.6061 1768.0 1
217.11806 -334.98218 1786.0 1
239.42377 -340.23386 1814.0 1
304.4307 -373.61957 1992.0 1
323.22845 -371.36884 1980.0 1
340.03934 -367.24252 1958.0 1
360.44162 -367.24252 1958.0 1
380.8441 -367.24252 1958.0 1
-177.39009 -361.11554 1824.0 1
-156.64732 -357.15594 1804.0 1
-137.16193 -355.3741 1795.0 1
-117.86407 -353.5923 1786.0 1
-98.75384 -351.8105 1777.0 1
-63.6662 -362.89734 1833.0 1
-43.86124 -357.15594 1804.0 1
-24.563389 -350.02866 1768.0 1
-6.0783563 -346.465 1750.0 1
12.0941925 -344.6832 1741.0 1
30.079065 -342.90137 1732.0 1
47.87638 -341.11954 1723.0 1
65.52445 -339.5357 1715.0 1
83.39471 -339.5357 1715.0 1
101.73745 -341.11954 1723.0 1
120.31626 -342.90137 1732.0 1
139.08264 -344.6832 1741.0 1
158.03668 -346.465 1750.0 1
177.17818 -348.24683 1759.0 1
196.50735 -350.02866 1768.0 1
218.21216 -355.3741 1795.0 1
240.74362 -361.11554 1824.0 1
323.22845 -392.00043 1980.0 1
340.03934 -387.64487 1958.0 1
360.44162 -387.64487 1958.0 1
380.8441 -387.64487 1958.0 1
401.24637 -387.64487 1958.0 1
-177.39009 -380.12158 1824.0 1
-156.64732 -375.95358 1804.0 1
-137.16193 -374.078 1795.0 1
-118.45801 -374.078 1795.0 1
-99.75416 -374.078 1795.0 1
-64.013535 -384.0812 1843.0 1
-44.104374 -378.0376 1814.0 1
-24.938509 -374.078 1795.0 1
-6.140877 -368.4512 1768.0 1
12.281754 -368.4512 1768.0 1
30.547966 -366.5756 1759.0 1
48.37654 -362.8244 1741.0 1
66.173965 -360.9488 1732.0 1
84.22136 -360.9488 1732.0 1
102.80029 -362.8244 1741.0 1
120.31626 -360.9488 1732.0 1
139.80162 -364.69998 1750.0 1
158.84944 -366.5756 1759.0 1
178.08472 -368.4512 1768.0 1
197.50768 -370.32678 1777.0 1
219.30626 -375.95358 1804.0 1
239.42377 -378.0376 1814.0 1
323.22845 -412.632 1980.0 1
340.03934 -408.04718 1958.0 1
360.44162 -408.04718 1958.0 1
378.7045 -405.7548 1947.0 1
401.24637 -408.04718 1958.0 1
-199.5187 -405.47342 1853.0 1
-178.26537 -401.09705 1833.0 1
-158.384 -399.12766 1824.0 1
-138.61377 -396.93945 1814.0 1
-119.71188 -396.93945 1814.0 1
-100.81005 -396.93945 1814.0 1
-64.7082 -407.66162 1863.0 1
-44.104374 -396.93945 1814.0 1
-24.938509 -392.78186 1795.0 1
-6.203397 -390.8125 1786.0 1
12.344274 -388.8431 1777.0 1
30.704266 -386.87375 1768.0 1
48.876698 -384.90436 1759.0 1
66.86169 -382.93497 1750.0 1
85.09664 -382.93497 1750.0 1
102.80029 -380.9656 1741.0 1
120.31626 -378.99622 1732.0 1
139.80162 -382.93497 1750.0 1
158.84944 -384.90436 1759.0 1
178.08472 -386.87375 1768.0 1
199.50832 -392.78186 1795.0 1
219.30626 -394.75125 1804.0 1
243.25137 -403.28525 1843.0 1
321.43274 -430.85657 1969.0 1
341.94965 -430.85657 1969.0 1
358.4167 -426.0425 1947.0 1
376.5649 -423.6355 1936.0 1
398.9922 -426.0425 1947.0 1
412.38892 -419.04028 1915.0 1
-198.44197 -422.4893 1843.0 1
-178.26537 -420.19687 1833.0 1
-158.384 -418.13373 1824.0 1
-140.06563 -420.19687 1833.0 1
-120.96575 -420.19687 1833.0 1
-85.023735 -431.65887 1883.0 1
-64.36086 -424.78168 1853.0 1
-44.347507 -418.13373 1824.0 1
-24.938509 -411.48575 1795.0 1
-6.203397 -409.4226 1786.0 1
12.406794 -409.4226 1786.0 1
30.860565 -407.35944 1777.0 1
49.126778 -405.29626 1768.0 1
67.20555 -403.23312 1759.0 1
85.53428 -403.23312 1759.0 1
103.86313 -403.23312 1759.0 1
122.191864 -403.23312 1759.0 1
140.5206 -403.23312 1759.0 1
159.6622 -405.29626 1768.0 1
178.99126 -407.35944 1777.0 1
199.50832 -411.48575 1795.0 1
221.7376 -418.13373 1824.0 1
244.57124 -424.78168 1853.0 1
340.03934 -448.85187 1958.0 1
358.4167 -446.33023 1947.0 1
378.7045 -446.33023 1947.0 1
398.9922 -446.33023 1947.0 1
412.38892 -438.99457 1915.0 1
-198.44197 -441.69342 1843.0 1
-177.39009 -437.13986 1824.0 1
-158.384 -437.13986 1824.0 1
-140.82976 -441.69342 1843.0 1
-124.26542 -451.27982 1883.0 1
-84.572205 -448.8832 1873.0 1
-64.36086 -444.09 1853.0 1
-44.347507 -437.13986 1824.0 1
-25.063549 -432.34668 1804.0 1
-6.203397 -428.03278 1786.0 1
12.406794 -428.03278 1786.0 1
31.173166 -430.18973 1795.0 1
49.376858 -425.87585 1777.0 1
67.89327 -425.87585 1777.0 1
85.971924 -423.7189 1768.0 1
103.86313 -421.56198 1759.0 1
122.81706 -423.7189 1768.0 1
141.23958 -423.7189 1768.0 1
159.6622 -423.7189 1768.0 1
179.8978 -428.03278 1786.0 1
200.50864 -432.34668 1804.0 1
221.7376 -437.13986 1824.0 1
343.86 -474.52682 1980.0 1
360.44162 -469.2543 1958.0 1
378.7045 -466.61804 1947.0 1
398.9922 -466.61804 1947.0 1
416.9112 -463.98178 1936.0 1
-197.36523 -458.39664 1833.0 1
-178.26537 -458.39664 1833.0 1
-159.1655 -458.39664 1833.0 1
-141.59389 -463.39825 1853.0 1
-85.520424 -473.65152 1894.0 1
-64.36086 -463.39825 1853.0 1
-44.347507 -456.14594 1824.0 1
-25.063549 -451.14432 1804.0 1
-6.234657 -448.89362 1795.0 1
12.406794 -446.64288 1786.0 1
31.016867 -446.64288 1786.0 1
49.626938 -446.64288 1786.0 1
67.89327 -444.39218 1777.0 1
85.971924 -442.14145 1768.0 1
104.394554 -442.14145 1768.0 1
122.81706 -442.14145 1768.0 1
141.23958 -442.14145 1768.0 1
161.28773 -446.64288 1786.0 1
180.80434 -448.89362 1795.0 1
201.6201 -453.64514 1814.0 1
224.04736 -460.89746 1843.0 1
251.30255 -476.15234 1904.0 1
360.44162 -489.65665 1958.0 1
376.5649 -484.15488 1936.0 1
394.4838 -481.40402 1925.0 1
414.5424 -481.40402 1925.0 1
-221.18878 -487.9165 1873.0 1
-198.44197 -480.1015 1843.0 1
-178.26537 -477.4965 1833.0 1
-159.1655 -477.4965 1833.0 1
-142.35803 -485.3115 1863.0 1
-85.971954 -495.992 1904.0 1
-64.7082 -485.3115 1863.0 1
-44.566326 -477.4965 1833.0 1
-25.202482 -472.547 1814.0 1
-6.2659173 -469.942 1804.0 1
12.469314 -467.5975 1795.0 1
31.173166 -467.5975 1795.0 1
49.626938 -465.253 1786.0 1
67.89327 -462.90848 1777.0 1
85.971924 -460.564 1768.0 1
104.394554 -460.564 1768.0 1
122.81706 -460.564 1768.0 1
142.67754 -465.253 1786.0 1
161.28773 -465.253 1786.0 1
181.71088 -469.942 1804.0 1
202.73157 -475.15198 1824.0 1
225.26303 -482.70648 1853.0 1
255.52612 -504.328 1936.0 1
378.7045 -507.19348 1947.0 1
396.738 -504.328 1936.0 1
414.5424 -501.4625 1925.0 1
432.34317 -498.85748 1915.0 1
-215.4022 -494.15805 1824.0 1
-198.44197 -499.30554 1843.0 1
-179.2379 -499.30554 1843.0 1
-160.03383 -499.30554 1843.0 1
-142.35803 -504.72394 1863.0 1
-106.42296 -518.81177 1915.0 1
-85.520424 -513.12244 1894.0 1
-65.055534 -507.43314 1873.0 1
-44.80946 -499.30554 1843.0 1
-25.341415 -494.15805 1824.0 1
-6.3006506 -491.44885 1814.0 1
12.601301 -491.44885 1814.0 1
31.173166 -486.30136 1795.0 1
49.626938 -483.8631 1786.0 1
68.23713 -483.8631 1786.0 1
86.8472 -483.8631 1786.0 1
104.92597 -481.4248 1777.0 1
124.06747 -483.8631 1786.0 1
143.39651 -486.30136 1795.0 1
162.91325 -488.73965 1804.0 1
182.71814 -491.44885 1814.0 1
203.73189 -496.59634 1833.0 1
230.24727 -513.12244 1894.0 1
258.42984 -530.4613 1958.0 1
376.5649 -524.5011 1936.0 1
394.4838 -521.521 1925.0 1
414.5424 -521.521 1925.0 1
432.34317 -518.81177 1915.0 1
-220.00786 -524.13635 1863.0 1
-199.5187 -521.323 1853.0 1
-179.2379 -518.5096 1843.0 1
-160.90216 -521.323 1853.0 1
-85.023735 -529.7632 1883.0 1
-65.055534 -526.94977 1873.0 1
-45.295727 -524.13635 1863.0 1
-25.466455 -515.69617 1833.0 1
-6.335384 -513.1641 1824.0 1
12.601301 -510.3507 1814.0 1
31.329466 -507.53732 1804.0 1
50.127098 -507.53732 1804.0 1
68.580986 -505.00525 1795.0 1
87.28484 -505.00525 1795.0 1
105.988815 -505.00525 1795.0 1
124.692665 -505.00525 1795.0 1
144.1155 -507.53732 1804.0 1
162.91325 -507.53732 1804.0 1
184.63196 -515.69617 1833.0 1
205.95482 -521.323 1853.0 1
235.35306 -544.6742 1936.0 1
259.88168 -553.95844 1969.0 1
394.4838 -541.57947 1925.0 1
412.38892 -538.76605 1915.0 1
434.60083 -541.57947 1925.0 1
-220.00786 -543.5489 1863.0 1
-199.5187 -540.6313 1853.0 1
-180.21043 -540.6313 1853.0 1
-161.7705 -543.5489 1863.0 1
-85.520424 -552.59344 1894.0 1
-64.7082 -543.5489 1863.0 1
-45.052593 -540.6313 1853.0 1
-25.466455 -534.7961 1833.0 1
-6.3666444 -534.7961 1833.0 1
12.670768 -532.1703 1824.0 1
31.6768 -532.1703 1824.0 1
50.404964 -529.2527 1814.0 1
68.92485 -526.3351 1804.0 1
87.72248 -526.3351 1804.0 1
105.988815 -523.7092 1795.0 1
125.31786 -526.3351 1804.0 1
144.1155 -526.3351 1804.0 1
164.71938 -532.1703 1824.0 1
185.63922 -537.7137 1843.0 1
209.28922 -549.3841 1883.0 1
238.02753 -571.2661 1958.0 1
264.36923 -584.3953 2003.0 1
394.4838 -561.638 1925.0 1
412.38892 -558.7204 1915.0 1
432.34317 -558.7204 1915.0 1
452.2974 -558.7204 1915.0 1
-221.18878 -565.98315 1873.0 1
-200.59544 -562.96136 1863.0 1
-181.18297 -562.96136 1863.0 1
-162.63882 -565.98315 1873.0 1
-85.971954 -575.3507 1904.0 1
-65.055534 -565.98315 1873.0 1
-45.052593 -559.9396 1853.0 1
-25.466455 -553.89594 1833.0 1
-6.3666444 -553.89594 1833.0 1
12.802755 -556.9177 1843.0 1
31.8331 -553.89594 1833.0 1
50.68283 -551.17633 1824.0 1
69.68898 -551.17633 1824.0 1
88.20875 -548.15454 1814.0 1
107.1107 -548.15454 1814.0 1
126.01253 -548.15454 1814.0 1
146.4322 -553.89594 1833.0 1
166.43521 -556.9177 1843.0 1
189.66829 -569.00494 1883.0 1
212.84592 -578.6747 1915.0 1
239.36476 -594.99243 1969.0 1
262.9174 -601.94257 1992.0 1
394.4838 -581.69653 1925.0 1
412.38892 -578.6747 1915.0 1
429.8597 -575.3507 1904.0 1
449.69934 -575.3507 1904.0 1
-221.18878 -585.4998 1873.0 1
-200.59544 -582.3738 1863.0 1
-181.18297 -582.3738 1863.0 1
-162.63882 -585.4998 1873.0 1
-85.971954 -595.19037 1904.0 1
-65.40286 -588.6258 1883.0 1
-45.295727 -582.3738 1863.0 1
-25.605389 -576.12177 1843.0 1
-6.3666444 -572.9958 1833.0 1
12.802755 -576.12177 1843.0 1
32.006767 -576.12177 1843.0 1
50.93291 -572.9958 1833.0 1
70.032845 -572.9958 1833.0 1
89.13265 -572.9958 1833.0 1
108.82305 -576.12177 1843.0 1
128.02707 -576.12177 1843.0 1
148.02994 -579.2478 1853.0 1
169.14441 -585.4998 1873.0 1
190.77628 -592.0644 1894.0 1
216.4026 -608.6322 1947.0 1
239.36476 -615.5094 1969.0 1
259.88168 -615.5094 1969.0 1
405.75476 -618.948 1980.0 1
412.38892 -598.62897 1915.0 1
429.8597 -595.19037 1904.0 1
449.69934 -595.19037 1904.0 1
-221.18878 -605.0164 1873.0 1
-200.59544 -601.78625 1863.0 1
-181.18297 -601.78625 1863.0 1
-86.46864 -618.58325 1915.0 1
-65.055534 -605.0164 1873.0 1
-45.295727 -601.78625 1863.0 1
-25.744322 -598.556 1853.0 1
-6.4013777 -595.3258 1843.0 1
12.802755 -595.3258 1843.0 1
32.006767 -595.3258 1843.0 1
51.210777 -595.3258 1843.0 1
70.41491 -595.3258 1843.0 1
90.10519 -598.556 1853.0 1
110.00399 -601.78625 1863.0 1
130.11107 -605.0164 1873.0 1
149.62767 -605.0164 1873.0 1
171.04085 -611.79987 1894.0 1
192.89154 -618.58325 1915.0 1
215.18 -625.3667 1936.0 1
239.36476 -636.02637 1969.0 1
264.36923 -647.00903 2003.0 1
407.86664 -611.79987 1894.0 1
427.60205 -611.79987 1894.0 1
447.3375 -611.79987 1894.0 1
-221.18878 -624.5331 1873.0 1
-201.67218 -624.5331 1873.0 1
-181.18297 -621.19867 1863.0 1
-86.46864 -638.53754 1915.0 1
-65.055534 -624.5331 1873.0 1
-45.295727 -621.19867 1863.0 1
-25.744322 -617.86426 1853.0 1
-6.4013777 -614.52985 1843.0 1
12.872222 -617.86426 1853.0 1
32.3541 -621.19867 1863.0 1
51.488644 -617.86426 1853.0 1
71.17905 -621.19867 1863.0 1
91.07772 -624.5331 1873.0 1
110.59445 -624.5331 1873.0 1
130.80573 -627.8675 1883.0 1
150.42654 -627.8675 1883.0 1
171.94391 -634.8697 1904.0 1
192.89154 -638.53754 1915.0 1
216.4026 -649.20764 1947.0 1
239.36476 -656.54333 1969.0 1
405.4978 -627.8675 1883.0 1
422.86096 -624.5331 1873.0 1
444.73944 -627.8675 1883.0 1
467.07303 -631.53534 1894.0 1
-221.18878 -644.0498 1873.0 1
-200.59544 -640.6112 1863.0 1
-182.1555 -644.0498 1873.0 1
-85.971954 -654.7095 1904.0 1
-65.055534 -644.0498 1873.0 1
-45.295727 -640.6112 1863.0 1
-25.744322 -637.1726 1853.0 1
-6.4013777 -633.734 1843.0 1
12.802755 -633.734 1843.0 1
32.18043 -637.1726 1853.0 1
51.76651 -640.6112 1863.0 1
71.56111 -644.0498 1873.0 1
91.07772 -644.0498 1873.0 1
110.59445 -644.0498 1873.0 1
130.80573 -647.4884 1883.0 1
150.42654 -647.4884 1883.0 1
171.04085 -651.2709 1894.0 1
193.8988 -661.93054 1925.0 1
217.62521 -673.2779 1958.0 1
240.702 -680.84283 1980.0 1
264.36923 -688.7516 2003.0 1
405.4978 -647.4884 1883.0 1
425.11862 -647.4884 1883.0 1
444.73944 -647.4884 1883.0 1
464.36038 -647.4884 1883.0 1
-240.70546 -663.56647 1873.0 1
-221.18878 -663.56647 1873.0 1
-200.59544 -660.0236 1863.0 1
-182.1555 -663.56647 1873.0 1
-85.971954 -674.54913 1904.0 1
-65.055534 -663.56647 1873.0 1
-45.295727 -660.0236 1863.0 1
-25.605389 -652.93805 1843.0 1
-6.3666444 -649.39526 1833.0 1
12.802755 -652.93805 1843.0 1
32.18043 -656.48083 1853.0 1
51.488644 -656.48083 1853.0 1
71.17905 -660.0236 1863.0 1
91.07772 -663.56647 1873.0 1
111.18492 -667.10925 1883.0 1
130.80573 -667.10925 1883.0 1
151.3053 -671.00635 1894.0 1
172.93729 -678.4462 1915.0 1
193.8988 -681.989 1925.0 1
216.4026 -689.78314 1947.0 1
240.702 -701.4744 1980.0 1
262.9174 -705.72577 1992.0 1
405.4978 -667.10925 1883.0 1
422.86096 -663.56647 1873.0 1
444.73944 -667.10925 1883.0 1
464.36038 -667.10925 1883.0 1
483.98117 -667.10925 1883.0 1
-240.70546 -683.08307 1873.0 1
-221.18878 -683.08307 1873.0 1
-200.59544 -679.4361 1863.0 1
-182.1555 -683.08307 1873.0 1
-85.971954 -694.3888 1904.0 1
-65.055534 -683.08307 1873.0 1
-45.295727 -679.4361 1863.0 1
-25.744322 -675.78906 1853.0 1
-6.4013777 -672.1421 1843.0 1
12.802755 -672.1421 1843.0 1
32.18043 -675.78906 1853.0 1
51.76651 -679.4361 1863.0 1
71.56111 -683.08307 1873.0 1
91.07772 -683.08307 1873.0 1
111.18492 -686.7301 1883.0 1
131.56987 -690.74176 1894.0 1
152.98291 -698.4005 1915.0 1
173.84036 -702.0475 1925.0 1
196.11479 -710.07086 1947.0 1
217.62521 -714.0826 1958.0 1
243.49803 -730.4941 2003.0 1
264.36923 -730.4941 2003.0 1
405.4978 -686.7301 1883.0 1
422.86096 -683.08307 1873.0 1
444.73944 -686.7301 1883.0 1
459.42822 -679.4361 1863.0 1
-244.68938 -714.22845 1904.0 1
-221.18878 -702.59973 1873.0 1
-201.67218 -702.59973 1873.0 1
-182.1555 -702.59973 1873.0 1
-165.33066 -714.22845 1904.0 1
-85.971954 -714.22845 1904.0 1
-65.055534 -702.59973 1873.0 1
-45.052593 -695.09735 1853.0 1
-25.744322 -695.09735 1853.0 1
-6.4013777 -691.3461 1843.0 1
12.872222 -695.09735 1853.0 1
32.18043 -695.09735 1853.0 1
51.488644 -695.09735 1853.0 1
71.56111 -702.59973 1873.0 1
91.56399 -706.35095 1883.0 1
111.834435 -710.47723 1894.0 1
133.02867 -718.3548 1915.0 1
153.78178 -722.10596 1925.0 1
176.82048 -734.4849 1958.0 1
197.22278 -734.4849 1958.0 1
220.07045 -742.73755 1980.0 1
243.49803 -751.36536 2003.0 1
265.95306 -755.86676 2015.0 1
422.86096 -702.59973 1873.0 1
449.69934 -714.22845 1904.0 1
461.89432 -702.59973 1873.0 1
478.84064 -698.8485 1863.0 1
-244.68938 -734.0681 1904.0 1
-222.36972 -725.97174 1883.0 1
-201.67218 -722.1164 1873.0 1
-184.19781 -730.2127 1894.0 1
-165.33066 -734.0681 1904.0 1
-86.46864 -738.309 1915.0 1
-65.055534 -722.1164 1873.0 1
-45.052593 -714.4056 1853.0 1
-25.605389 -710.5502 1843.0 1
-6.4013777 -710.5502 1843.0 1
12.872222 -714.4056 1853.0 1
32.18043 -714.4056 1853.0 1
51.76651 -718.261 1863.0 1
71.56111 -722.1164 1873.0 1
91.56399 -725.97174 1883.0 1
113.66488 -742.1644 1925.0 1
136.01573 -754.88727 1958.0 1
159.13419 -767.9956 1992.0 1
178.80722 -763.36914 1980.0 1
199.43877 -763.36914 1980.0 1
222.62682 -772.2366 2003.0 1
244.95683 -776.86304 2015.0 1
425.11862 -725.97174 1883.0 1
447.3375 -730.2127 1894.0 1
456.96216 -714.4056 1853.0 1
473.7001 -710.5502 1843.0 1
-246.10301 -758.2634 1915.0 1
-223.66875 -749.94824 1894.0 1
-202.7489 -745.5927 1883.0 1
-183.12804 -745.5927 1883.0 1
-165.33066 -753.90784 1904.0 1
-86.46864 -758.2634 1915.0 1
-65.055534 -741.6331 1873.0 1
-45.295727 -737.6735 1863.0 1
-25.744322 -733.7139 1853.0 1
-6.436111 -733.7139 1853.0 1
12.9416895 -737.6735 1863.0 1
32.527767 -741.6331 1873.0 1
51.76651 -737.6735 1863.0 1
71.94318 -745.5927 1883.0 1
97.399185 -793.1079 2003.0 1
118.97909 -797.85944 2015.0 1
139.14172 -793.1079 2003.0 1
159.13419 -788.7523 1992.0 1
178.80722 -784.00085 1980.0 1
200.64749 -788.7523 1992.0 1
223.96059 -797.85944 2015.0 1
246.41563 -802.61096 2027.0 1
437.65384 -733.7139 1853.0 1
447.3445 -718.2715 1814.0 1
-247.38815 -782.2815 1925.0 1
-224.84967 -773.7475 1904.0 1
-202.7489 -765.21356 1883.0 1
-185.17035 -773.7475 1904.0 1
-166.28583 -778.2177 1915.0 1
-86.46864 -778.2177 1915.0 1
-65.055534 -761.1497 1873.0 1
-45.53886 -761.1497 1873.0 1
-25.883255 -757.08594 1863.0 1
-6.4708447 -757.08594 1863.0 1
13.011156 -761.1497 1873.0 1
32.3541 -757.08594 1863.0 1
52.322243 -765.21356 1883.0 1
72.745514 -773.7475 1904.0 1
99.14974 -828.6088 2039.0 1
119.687645 -823.73224 2027.0 1
139.97533 -818.8557 2015.0 1
160.97157 -818.8557 2015.0 1
180.88428 -813.9791 2003.0 1
202.9642 -818.8557 2015.0 1
225.29434 -823.73224 2027.0 1
249.33322 -833.4854 2051.0 1
