ply
format ascii 1.0
comment : created from Kinect user tracker
element vertex 896
property float x
property float y
property float z
property int userId
end_header
819.5121 282.84045 2088.0 1
793.1704 259.58304 2076.0 1
800.2803 254.95656 2039.0 1
816.69183 253.45609 2027.0 1
832.8532 251.95561 2015.0 1
768.3291 243.7967 2127.0 1
771.5385 237.9511 2076.0 1
774.4491 232.33472 2027.0 1
795.57043 232.33472 2027.0 1
821.52673 233.71016 2039.0 1
832.8532 230.95927 2015.0 1
853.84955 230.95927 2015.0 1
869.6358 229.58383 2003.0 1
895.84204 230.95927 2015.0 1
954.59 235.0856 2051.0 1
754.2412 217.5696 2088.0 1
766.7071 214.9646 2063.0 1
774.4491 211.2134 2027.0 1
800.2803 212.46379 2039.0 1
816.69183 211.2134 2027.0 1
832.8532 209.963 2015.0 1
848.7646 208.7126 2003.0 1
864.86 207.56639 1992.0 1
890.507 208.7126 2003.0 1
916.83844 209.963 2015.0 1
943.4198 211.2134 2027.0 1
970.2514 212.46379 2039.0 1
741.6053 198.25093 2114.0 1
763.6331 198.25093 2114.0 1
762.2474 192.3428 2051.0 1
779.03394 191.21744 2039.0 1
800.2803 191.21744 2039.0 1
816.69183 190.09207 2027.0 1
827.89325 187.84135 2003.0 1
844.1034 186.80978 1992.0 1
869.6358 187.84135 2003.0 1
895.84204 188.96672 2015.0 1
911.37836 187.84135 2003.0 1
943.4198 190.09207 2027.0 1
970.2514 191.21744 2039.0 1
724.0024 177.3067 2127.0 1
732.4843 174.05566 2088.0 1
745.2106 171.97166 2063.0 1
762.2474 170.97134 2051.0 1
774.4491 168.9707 2027.0 1
790.8606 167.97038 2015.0 1
811.85693 167.97038 2015.0 1
832.8532 167.97038 2015.0 1
848.7646 166.97006 2003.0 1
869.6358 166.97006 2003.0 1
885.6166 166.0531 1992.0 1
916.83844 167.97038 2015.0 1
949.00494 169.97102 2039.0 1
970.2514 169.97102 2039.0 1
741.6053 154.19518 2114.0 1
740.87585 149.59995 2051.0 1
753.3278 147.84938 2027.0 1
774.4491 147.84938 2027.0 1
795.57043 147.84938 2027.0 1
811.85693 146.9741 2015.0 1
832.8532 146.9741 2015.0 1
844.1034 145.2965 1992.0 1
869.6358 146.09883 2003.0 1
890.507 146.09883 2003.0 1
927.7586 148.72467 2039.0 1
954.59 149.59995 2051.0 1
732.4843 130.54173 2088.0 1
736.54114 127.47826 2039.0 1
753.3278 126.72802 2027.0 1
765.27954 125.22754 2003.0 1
786.1507 125.22754 2003.0 1
811.85693 125.977776 2015.0 1
823.3467 124.53982 1992.0 1
839.01843 123.78958 1980.0 1
864.86 124.53982 1992.0 1
906.51215 127.47826 2039.0 1
933.2187 128.2285 2051.0 1
719.57733 110.1394 2114.0 1
737.0448 109.4621 2101.0 1
736.54114 106.231895 2039.0 1
766.7071 107.4823 2063.0 1
774.4491 105.6067 2027.0 1
790.8606 104.9815 2015.0 1
821.52673 106.231895 2039.0 1
832.8532 104.9815 2015.0 1
853.84955 104.9815 2015.0 1
880.05585 105.6067 2027.0 1
917.18225 107.4823 2063.0 1
955.969 109.4621 2101.0 1
715.15234 87.5697 2101.0 1
728.27466 86.5277 2076.0 1
749.9065 86.5277 2076.0 1
766.7071 85.985855 2063.0 1
788.2035 85.985855 2063.0 1
795.57043 84.48538 2027.0 1
821.52673 84.98554 2039.0 1
837.8131 84.48538 2027.0 1
858.9345 84.48538 2027.0 1
890.4758 85.4857 2051.0 1
928.2969 87.02786 2088.0 1
961.8841 88.11154 2114.0 1
614.3251 71.80421 2297.0 1
638.2597 71.80421 2297.0 1
653.2575 70.835144 2266.0 1
668.20685 69.928604 2237.0 1
687.18854 69.49097 2223.0 1
696.93134 68.17805 2181.0 1
715.0378 67.74041 2167.0 1
732.8524 67.302765 2153.0 1
741.6053 66.083626 2114.0 1
754.2412 65.27087 2088.0 1
766.7071 64.48937 2063.0 1
779.03394 63.73913 2039.0 1
800.2803 63.73913 2039.0 1
831.1965 64.48937 2063.0 1
858.0661 64.89575 2076.0 1
874.1894 64.48937 2063.0 1
912.18414 65.677246 2101.0 1
928.2969 65.27087 2088.0 1
614.3251 47.86949 2297.0 1
629.6459 47.22345 2266.0 1
644.8972 46.61909 2237.0 1
659.5443 46.01473 2208.0 1
674.2052 45.45205 2181.0 1
692.45764 45.16029 2167.0 1
710.4182 44.86853 2153.0 1
724.0024 44.32669 2127.0 1
741.6053 44.05577 2114.0 1
758.9372 43.78485 2101.0 1
775.9983 43.51393 2088.0 1
793.1704 43.26385 2076.0 1
819.5121 43.51393 2088.0 1
846.5069 43.78485 2101.0 1
868.3993 43.78485 2101.0 1
879.6981 43.26385 2076.0 1
906.54 43.51393 2088.0 1
614.3251 23.934717 2297.0 1
625.75574 23.465816 2252.0 1
640.8612 23.163637 2223.0 1
655.3624 22.861458 2194.0 1
674.2052 22.725998 2181.0 1
692.45764 22.580118 2167.0 1
701.8391 22.163319 2127.0 1
719.57733 22.027859 2114.0 1
741.6053 22.027859 2114.0 1
754.2412 21.756939 2088.0 1
771.5385 21.631899 2076.0 1
802.72205 21.892399 2101.0 1
824.61444 21.892399 2101.0 1
851.7447 22.027859 2114.0 1
873.7725 22.027859 2114.0 1
884.7831 21.756939 2088.0 1
602.21344 0.0 2343.0 1
610.0459 0.0 2281.0 1
621.5877 0.0 2237.0 1
640.8612 0.0 2223.0 1
655.3624 0.0 2194.0 1
674.2052 0.0 2181.0 1
687.984 0.0 2153.0 1
701.8391 0.0 2127.0 1
715.15234 0.0 2101.0 1
732.4843 0.0 2088.0 1
745.2106 0.0 2063.0 1
766.7071 0.0 2063.0 1
793.1704 0.0 2076.0 1
814.80225 0.0 2076.0 1
598.101 -24.247316 2327.0 1
610.0459 -23.767998 2281.0 1
617.6976 -23.163637 2223.0 1
636.53687 -23.007338 2208.0 1
651.47925 -22.725998 2181.0 1
669.87744 -22.580118 2167.0 1
683.8299 -22.298779 2140.0 1
697.5495 -22.027859 2114.0 1
710.7273 -21.756939 2088.0 1
728.27466 -21.631899 2076.0 1
740.87585 -21.371399 2051.0 1
762.2474 -21.371399 2051.0 1
779.03394 -21.246359 2039.0 1
795.57043 -21.121319 2027.0 1
821.52673 -21.246359 2039.0 1
589.8832 -49.84923 2392.0 1
598.101 -48.494633 2327.0 1
606.0342 -47.223392 2266.0 1
617.6976 -46.327274 2223.0 1
632.50085 -45.722916 2194.0 1
651.47925 -45.451996 2181.0 1
669.87744 -45.160236 2167.0 1
679.6758 -44.326637 2127.0 1
693.25995 -43.784798 2101.0 1
706.64264 -43.263798 2076.0 1
723.7142 -42.992878 2063.0 1
736.54114 -42.492718 2039.0 1
757.7876 -42.492718 2039.0 1
779.03394 -42.492718 2039.0 1
795.57043 -42.242638 2027.0 1
816.69183 -42.242638 2027.0 1
842.773 -42.492718 2039.0 1
589.8832 -74.773964 2392.0 1
598.101 -72.742065 2327.0 1
606.0342 -70.835205 2266.0 1
617.6976 -69.49102 2223.0 1
632.50085 -68.58448 2194.0 1
651.47925 -68.1781 2181.0 1
669.87744 -67.74046 2167.0 1
675.52167 -66.08368 2114.0 1
688.9704 -65.27092 2088.0 1
702.21765 -64.48942 2063.0 1
719.5045 -64.114296 2051.0 1
736.54114 -63.739178 2039.0 1
753.3278 -63.36406 2027.0 1
774.4491 -63.36406 2027.0 1
790.8606 -62.988937 2015.0 1
807.0221 -62.61382 2003.0 1
823.3467 -62.26996 1992.0 1
839.01843 -61.894836 1980.0 1
594.0755 -100.40714 2409.0 1
602.21344 -97.656265 2343.0 1
602.2899 -93.86338 2252.0 1
617.6976 -92.65466 2223.0 1
632.50085 -91.44594 2194.0 1
647.29736 -90.32058 2167.0 1
669.87744 -90.32058 2167.0 1
675.52167 -88.11154 2114.0 1
685.0108 -86.5277 2076.0 1
702.21765 -85.985855 2063.0 1
719.5045 -85.4857 2051.0 1
736.54114 -84.98554 2039.0 1
748.8681 -83.98522 2015.0 1
769.8643 -83.98522 2015.0 1
786.1507 -83.48506 2003.0 1
797.7552 -82.52642 1980.0 1
818.3868 -82.52642 1980.0 1
839.01843 -82.52642 1980.0 1
864.86 -83.02658 1992.0 1
598.2678 -126.3946 2426.0 1
610.6953 -123.7896 2376.0 1
602.2899 -117.3292 2252.0 1
617.6976 -115.8183 2223.0 1
632.50085 -114.307396 2194.0 1
647.29736 -112.900696 2167.0 1
661.531 -111.493996 2140.0 1
675.52167 -110.1394 2114.0 1
685.0108 -108.1596 2076.0 1
702.21765 -107.4823 2063.0 1
719.5045 -106.8571 2051.0 1
732.2064 -105.6067 2027.0 1
744.4083 -104.3563 2003.0 1
765.27954 -104.3563 2003.0 1
781.8334 -103.783195 1992.0 1
797.7552 -103.158 1980.0 1
818.3868 -103.158 1980.0 1
839.01843 -103.158 1980.0 1
864.86 -103.783195 1992.0 1
598.2678 -151.6735 2426.0 1
606.32587 -147.48465 2359.0 1
606.0342 -141.67029 2266.0 1
617.6976 -138.98193 2223.0 1
632.50085 -137.16885 2194.0 1
647.29736 -135.48082 2167.0 1
665.5497 -134.60553 2153.0 1
675.52167 -132.16725 2114.0 1
685.0108 -129.7915 2076.0 1
702.21765 -128.97874 2063.0 1
715.2948 -127.47826 2039.0 1
732.2064 -126.72802 2027.0 1
748.8681 -125.977776 2015.0 1
761.0768 -124.53982 1992.0 1
777.12354 -123.78958 1980.0 1
793.32324 -123.10186 1969.0 1
818.3868 -123.78958 1980.0 1
839.01843 -123.78958 1980.0 1
864.86 -124.53982 1992.0 1
885.6166 -124.53982 1992.0 1
602.4601 -178.19237 2443.0 1
606.32587 -172.06541 2359.0 1
606.0342 -165.282 2266.0 1
617.6976 -162.14557 2223.0 1
628.7532 -159.08209 2181.0 1
647.29736 -158.06093 2167.0 1
665.5497 -157.03978 2153.0 1
675.52167 -154.19511 2114.0 1
685.0108 -151.4234 2076.0 1
702.21765 -150.47517 2063.0 1
719.5045 -149.5999 2051.0 1
732.2064 -147.84933 2027.0 1
748.8681 -146.97406 2015.0 1
761.0768 -145.29643 1992.0 1
777.12354 -144.42116 1980.0 1
797.7552 -144.42116 1980.0 1
813.84015 -143.61882 1969.0 1
839.01843 -144.42116 1980.0 1
869.6358 -146.09877 2003.0 1
606.6524 -205.06564 2460.0 1
623.54663 -202.2314 2426.0 1
606.0342 -188.8938 2266.0 1
617.6976 -185.30933 2223.0 1
632.50085 -182.89188 2194.0 1
647.29736 -180.64116 2167.0 1
661.531 -178.39044 2140.0 1
675.52167 -176.22308 2114.0 1
685.0108 -173.0554 2076.0 1
702.21765 -171.97171 2063.0 1
715.2948 -169.97108 2039.0 1
727.8717 -167.97044 2015.0 1
748.8681 -167.97044 2015.0 1
761.0768 -166.05316 1992.0 1
781.8334 -166.05316 1992.0 1
797.7552 -165.05284 1980.0 1
813.84015 -164.13588 1969.0 1
839.01843 -165.05284 1980.0 1
869.6358 -166.97012 2003.0 1
890.507 -166.97012 2003.0 1
585.2705 -232.38686 2478.0 1
615.5303 -234.0749 2496.0 1
623.54663 -227.5103 2426.0 1
602.2899 -211.19258 2252.0 1
617.6976 -208.47296 2223.0 1
632.50085 -205.75334 2194.0 1
647.29736 -203.22128 2167.0 1
661.531 -200.68922 2140.0 1
675.52167 -198.25093 2114.0 1
688.9704 -195.81265 2088.0 1
702.21765 -193.46815 2063.0 1
715.2948 -191.21744 2039.0 1
727.8717 -188.96672 2015.0 1
748.8681 -188.96672 2015.0 1
765.27954 -187.84135 2003.0 1
777.12354 -185.68442 1980.0 1
793.32324 -184.65283 1969.0 1
813.84015 -184.65283 1969.0 1
839.01843 -185.68442 1980.0 1
864.86 -186.80978 1992.0 1
885.6166 -186.80978 1992.0 1
619.9692 -261.9588 2514.0 1
636.91205 -258.20758 2478.0 1
602.2899 -234.6584 2252.0 1
617.6976 -231.6366 2223.0 1
636.53687 -230.0736 2208.0 1
647.29736 -225.80139 2167.0 1
665.5497 -224.34259 2153.0 1
679.6758 -221.63339 2127.0 1
693.25995 -218.9242 2101.0 1
706.64264 -216.3192 2076.0 1
719.5045 -213.7142 2051.0 1
732.2064 -211.2134 2027.0 1
748.8681 -209.963 2015.0 1
761.0768 -207.56639 1992.0 1
777.12354 -206.316 1980.0 1
797.7552 -206.316 1980.0 1
818.3868 -206.316 1980.0 1
839.01843 -206.316 1980.0 1
869.6358 -208.7126 2003.0 1
624.4081 -290.2178 2532.0 1
590.3902 -263.2821 2297.0 1
602.2899 -258.1242 2252.0 1
617.6976 -254.80023 2223.0 1
632.50085 -251.47626 2194.0 1
647.29736 -248.38152 2167.0 1
665.5497 -246.77684 2153.0 1
679.6758 -243.7967 2127.0 1
693.25995 -240.81659 2101.0 1
706.64264 -237.9511 2076.0 1
728.27466 -237.9511 2076.0 1
740.87585 -235.0856 2051.0 1
748.8681 -230.95927 2015.0 1
756.492 -226.94757 1980.0 1
777.12354 -226.94757 1980.0 1
797.7552 -226.94757 1980.0 1
818.3868 -226.94757 1980.0 1
839.01843 -226.94757 1980.0 1
874.8458 -230.95927 2015.0 1
602.21344 -292.96866 2343.0 1
606.0342 -283.34058 2266.0 1
621.5877 -279.71442 2237.0 1
632.50085 -274.3377 2194.0 1
647.29736 -270.96164 2167.0 1
665.5497 -269.21106 2153.0 1
679.6758 -265.96002 2127.0 1
697.5495 -264.3345 2114.0 1
710.7273 -261.08347 2088.0 1
728.27466 -259.583 2076.0 1
745.2106 -257.9575 2063.0 1
753.3278 -253.45604 2027.0 1
761.0768 -249.07964 1992.0 1
777.12354 -247.57916 1980.0 1
797.7552 -247.57916 1980.0 1
818.3868 -247.57916 1980.0 1
848.7646 -250.45508 2003.0 1
880.05585 -253.45604 2027.0 1
581.7451 -319.55017 2359.0 1
598.101 -315.21545 2327.0 1
606.0342 -306.9524 2266.0 1
621.5877 -303.02405 2237.0 1
632.50085 -297.19928 2194.0 1
651.47925 -295.4383 2181.0 1
665.5497 -291.64542 2153.0 1
679.6758 -288.12344 2127.0 1
697.5495 -286.3625 2114.0 1
715.15234 -284.6015 2101.0 1
732.4843 -282.8405 2088.0 1
754.2412 -282.8405 2088.0 1
753.3278 -274.57745 2027.0 1
765.27954 -271.32642 2003.0 1
781.8334 -269.83636 1992.0 1
802.5901 -269.83636 1992.0 1
823.3467 -269.83636 1992.0 1
848.7646 -271.32642 2003.0 1
869.6358 -271.32642 2003.0 1
577.79944 -341.79684 2343.0 1
594.2456 -337.27457 2312.0 1
606.0342 -330.5641 2266.0 1
621.5877 -326.3336 2237.0 1
636.53687 -322.10306 2208.0 1
651.47925 -318.1643 2181.0 1
661.531 -312.18323 2140.0 1
683.8299 -312.18323 2140.0 1
706.12866 -312.18323 2140.0 1
719.57733 -308.39035 2114.0 1
737.0448 -306.4939 2101.0 1
758.9372 -306.4939 2101.0 1
753.3278 -295.69876 2027.0 1
761.0768 -290.593 1992.0 1
781.8334 -290.593 1992.0 1
802.5901 -290.593 1992.0 1
827.89325 -292.19766 2003.0 1
848.7646 -292.19766 2003.0 1
577.79944 -366.2109 2343.0 1
594.2456 -361.3656 2312.0 1
606.0342 -354.17578 2266.0 1
617.6976 -347.4549 2223.0 1
632.50085 -342.92218 2194.0 1
651.47925 -340.8903 2181.0 1
661.531 -334.482 2140.0 1
683.8299 -334.482 2140.0 1
706.12866 -334.482 2140.0 1
724.0024 -332.4501 2127.0 1
741.6053 -330.41818 2114.0 1
763.6331 -330.41818 2114.0 1
753.3278 -316.8201 2027.0 1
761.0768 -311.3496 1992.0 1
786.1507 -313.0689 2003.0 1
797.7552 -309.474 1980.0 1
823.3467 -311.3496 1992.0 1
858.9345 -316.8201 2027.0 1
557.16425 -393.29245 2359.0 1
573.85376 -387.9574 2327.0 1
590.3902 -382.9558 2297.0 1
610.0459 -380.2883 2281.0 1
621.5877 -372.9526 2237.0 1
636.53687 -368.11774 2208.0 1
651.47925 -363.6163 2181.0 1
665.5497 -358.94812 2153.0 1
683.8299 -356.78076 2140.0 1
706.12866 -356.78076 2140.0 1
724.0024 -354.6134 2127.0 1
746.1658 -354.6134 2127.0 1
763.6331 -352.44604 2114.0 1
753.3278 -337.9414 2027.0 1
769.8643 -335.94077 2015.0 1
781.8334 -332.1062 1992.0 1
797.7552 -330.10556 1980.0 1
827.89325 -333.94012 2003.0 1
853.84955 -335.94077 2015.0 1
557.16425 -417.8732 2359.0 1
573.85376 -412.2047 2327.0 1
590.3902 -406.89053 2297.0 1
606.0342 -401.3992 2266.0 1
621.5877 -396.26212 2237.0 1
636.53687 -391.12506 2208.0 1
651.47925 -386.3423 2181.0 1
669.87744 -383.86234 2167.0 1
683.8299 -379.07956 2140.0 1
701.8391 -376.77673 2127.0 1
724.0024 -376.77673 2127.0 1
746.1658 -376.77673 2127.0 1
763.6331 -374.4739 2114.0 1
762.2474 -363.3141 2051.0 1
765.27954 -354.81137 2003.0 1
786.1507 -354.81137 2003.0 1
802.5901 -352.86282 1992.0 1
832.8532 -356.93704 2015.0 1
561.17944 -445.6426 2376.0 1
573.85376 -436.45215 2327.0 1
590.3902 -430.82535 2297.0 1
606.0342 -425.011 2266.0 1
621.5877 -419.57175 2237.0 1
640.8612 -416.94592 2223.0 1
651.47925 -409.0684 2181.0 1
669.87744 -406.44257 2167.0 1
687.984 -403.8167 2153.0 1
701.8391 -398.94016 2127.0 1
724.0024 -398.94016 2127.0 1
746.1658 -398.94016 2127.0 1
768.3291 -398.94016 2127.0 1
757.7876 -382.43488 2039.0 1
765.27954 -375.6827 2003.0 1
781.8334 -373.61957 1992.0 1
802.5901 -373.61957 1992.0 1
832.8532 -377.93344 2015.0 1
561.17944 -470.40048 2376.0 1
573.85376 -460.69946 2327.0 1
586.2778 -451.5924 2281.0 1
606.0342 -448.62268 2266.0 1
621.5877 -442.8813 2237.0 1
636.53687 -437.13986 2208.0 1
651.47925 -431.7944 2181.0 1
669.87744 -429.02267 2167.0 1
687.984 -426.25095 2153.0 1
701.8391 -421.1035 2127.0 1
724.0024 -421.1035 2127.0 1
746.1658 -421.1035 2127.0 1
763.6331 -418.52972 2114.0 1
753.3278 -401.30548 2027.0 1
769.8643 -398.92972 2015.0 1
786.1507 -396.55396 2003.0 1
802.5901 -394.37616 1992.0 1
823.3467 -394.37616 1992.0 1
540.0339 -498.4928 2392.0 1
557.16425 -491.6156 2359.0 1
573.85376 -484.94678 2327.0 1
586.2778 -475.36038 2281.0 1
602.2899 -469.3168 2252.0 1
621.5877 -466.1908 2237.0 1
636.53687 -460.1472 2208.0 1
655.3624 -457.22958 2194.0 1
674.2052 -454.5204 2181.0 1
692.45764 -451.60278 2167.0 1
706.12866 -445.97598 2140.0 1
724.0024 -443.26678 2127.0 1
746.1658 -443.26678 2127.0 1
763.6331 -440.5576 2114.0 1
762.2474 -427.4284 2051.0 1
769.8643 -419.926 2015.0 1
781.8334 -415.13278 1992.0 1
807.0221 -417.4252 2003.0 1
827.89325 -417.4252 2003.0 1
853.84955 -419.926 2015.0 1
543.8719 -527.1373 2409.0 1
557.16425 -516.19635 2359.0 1
570.15466 -505.9118 2312.0 1
586.2778 -499.1284 2281.0 1
602.2899 -492.78262 2252.0 1
621.5877 -489.5003 2237.0 1
636.53687 -483.15454 2208.0 1
651.47925 -477.2464 2181.0 1
669.87744 -474.18292 2167.0 1
687.984 -471.11942 2153.0 1
706.12866 -468.27478 2140.0 1
724.0024 -465.4301 2127.0 1
746.1658 -465.4301 2127.0 1
768.3291 -465.4301 2127.0 1
780.8297 -459.74078 2101.0 1
769.8643 -440.92227 2015.0 1
786.1507 -438.29642 2003.0 1
802.5901 -435.8894 1992.0 1
823.3467 -435.8894 1992.0 1
839.01843 -433.26358 1980.0 1
529.75287 -563.93036 2460.0 1
543.8719 -552.2391 2409.0 1
557.16425 -540.7771 2359.0 1
573.85376 -533.4414 2327.0 1
586.2778 -522.89636 2281.0 1
606.0342 -519.45776 2266.0 1
621.5877 -512.8098 2237.0 1
640.8612 -509.60046 2223.0 1
655.3624 -502.9525 2194.0 1
669.87744 -496.76303 2167.0 1
687.984 -493.55368 2153.0 1
706.12866 -490.57355 2140.0 1
724.0024 -487.5934 2127.0 1
746.1658 -487.5934 2127.0 1
768.3291 -487.5934 2127.0 1
785.6611 -484.6133 2114.0 1
779.03394 -467.42032 2039.0 1
790.8606 -461.91855 2015.0 1
802.5901 -456.64603 1992.0 1
827.89325 -459.16766 2003.0 1
844.1034 -456.64603 1992.0 1
543.8719 -577.341 2409.0 1
561.17944 -569.4322 2376.0 1
577.79944 -561.52344 2343.0 1
590.3902 -550.4991 2297.0 1
606.0342 -543.0696 2266.0 1
621.5877 -536.11945 2237.0 1
640.8612 -532.7642 2223.0 1
655.3624 -525.8141 2194.0 1
674.2052 -522.6985 2181.0 1
692.45764 -519.34326 2167.0 1
710.4182 -515.98804 2153.0 1
728.42737 -512.87244 2140.0 1
746.1658 -509.75687 2127.0 1
768.3291 -509.75687 2127.0 1
795.3239 -512.87244 2140.0 1
788.2035 -494.4186 2063.0 1
790.8606 -482.91492 2015.0 1
807.0221 -480.039 2003.0 1
823.3467 -477.40274 1992.0 1
844.1034 -477.40274 1992.0 1
551.548 -610.94543 2443.0 1
564.95844 -598.19135 2392.0 1
577.79944 -585.93744 2343.0 1
598.101 -581.93616 2327.0 1
610.0459 -570.4325 2281.0 1
625.75574 -563.1802 2252.0 1
640.8612 -555.92786 2223.0 1
659.5443 -552.17664 2208.0 1
678.2239 -548.67554 2194.0 1
696.93134 -545.4245 2181.0 1
715.0378 -541.9234 2167.0 1
737.61786 -541.9234 2167.0 1
760.19806 -541.9234 2167.0 1
782.77814 -541.9234 2167.0 1
805.3584 -541.9234 2167.0 1
807.6889 -528.6691 2114.0 1
790.8606 -503.91122 2015.0 1
811.85693 -503.91122 2015.0 1
832.8532 -503.91122 2015.0 1
853.84955 -503.91122 2015.0 1
568.97363 -627.5445 2409.0 1
577.79944 -610.3515 2343.0 1
602.21344 -610.3515 2343.0 1
614.3251 -598.36847 2297.0 1
633.81384 -594.2005 2281.0 1
649.2215 -586.646 2252.0 1
664.02496 -579.0915 2223.0 1
678.2239 -571.537 2194.0 1
696.93134 -568.1505 2181.0 1
719.6573 -568.1505 2181.0 1
742.38324 -568.1505 2181.0 1
760.19806 -564.5035 2167.0 1
787.8353 -568.1505 2181.0 1
810.5614 -568.1505 2181.0 1
827.9385 -564.5035 2167.0 1
800.2803 -531.1595 2039.0 1
811.85693 -524.9075 2015.0 1
832.8532 -524.9075 2015.0 1
853.84955 -524.9075 2015.0 1
551.548 -661.85754 2443.0 1
568.97363 -652.64624 2409.0 1
589.8832 -648.0406 2392.0 1
606.32587 -639.1002 2359.0 1
622.34845 -630.4308 2327.0 1
638.2597 -622.3032 2297.0 1
657.5818 -617.9685 2281.0 1
672.68744 -610.1118 2252.0 1
682.55164 -598.19135 2208.0 1
701.08545 -594.39844 2194.0 1
719.6573 -590.87646 2181.0 1
742.38324 -590.87646 2181.0 1
760.19806 -587.0836 2167.0 1
787.8353 -590.87646 2181.0 1
815.3928 -594.39844 2194.0 1
838.2543 -594.39844 2194.0 1
804.9901 -555.65686 2051.0 1
816.69183 -549.1548 2027.0 1
832.8532 -545.90375 2015.0 1
858.9345 -549.1548 2027.0 1
551.548 -687.31354 2443.0 1
572.9888 -682.53076 2426.0 1
589.8832 -672.9652 2392.0 1
610.6953 -668.4638 2376.0 1
630.90674 -663.681 2359.0 1
646.5957 -654.6781 2327.0 1
666.5187 -650.458 2312.0 1
681.3499 -641.7365 2281.0 1
691.5163 -629.35754 2237.0 1
710.3523 -625.41876 2223.0 1
723.94684 -617.2599 2194.0 1
746.8083 -617.2599 2194.0 1
769.66986 -617.2599 2194.0 1
792.53125 -617.2599 2194.0 1
815.3928 -617.2599 2194.0 1
843.6032 -621.19867 2208.0 1
866.6105 -621.19867 2208.0 1
821.52673 -573.6522 2039.0 1
837.8131 -570.2761 2027.0 1
853.84955 -566.9 2015.0 1
880.05585 -570.2761 2027.0 1
555.386 -717.7296 2460.0 1
572.9888 -707.8098 2426.0 1
594.0755 -702.84985 2409.0 1
614.80774 -697.88995 2392.0 1
635.4533 -693.2218 2376.0 1
655.4874 -688.2619 2359.0 1
675.45557 -683.5937 2343.0 1
686.1292 -670.1727 2297.0 1
705.11786 -665.5046 2281.0 1
724.0928 -661.1282 2266.0 1
733.51587 -648.5825 2223.0 1
756.6795 -648.5825 2223.0 1
779.84326 -648.5825 2223.0 1
797.58844 -644.2061 2208.0 1
826.1706 -648.5825 2223.0 1
849.33417 -648.5825 2223.0 1
877.9926 -652.6672 2237.0 1
821.52673 -594.8987 2039.0 1
837.8131 -591.3975 2027.0 1
858.9345 -591.3975 2027.0 1
890.4758 -598.3998 2051.0 1
555.386 -743.3628 2460.0 1
572.9888 -733.0887 2426.0 1
594.0755 -727.95166 2409.0 1
614.80774 -722.8146 2392.0 1
635.4533 -717.9797 2376.0 1
664.65704 -722.8146 2392.0 1
689.5816 -722.8146 2392.0 1
699.86975 -708.00775 2343.0 1
714.7008 -698.6402 2312.0 1
728.886 -689.2726 2281.0 1
743.0849 -680.5094 2252.0 1
761.4449 -675.9767 2237.0 1
784.7545 -675.9767 2237.0 1
803.00684 -671.74615 2223.0 1
831.37366 -675.9767 2237.0 1
854.6831 -675.9767 2237.0 1
889.3747 -684.73987 2266.0 1
919.0301 -689.2726 2281.0 1
847.733 -619.7712 2051.0 1
858.9345 -612.51886 2027.0 1
895.6858 -623.39734 2063.0 1
559.44977 -774.6228 2478.0 1
577.00397 -763.68176 2443.0 1
594.0755 -753.0534 2409.0 1
619.1772 -753.0534 2409.0 1
644.27905 -753.0534 2409.0 1
669.3808 -753.0534 2409.0 1
699.38336 -758.3676 2426.0 1
714.50635 -747.7392 2392.0 1
719.3377 -727.42017 2327.0 1
733.9987 -718.0422 2297.0 1
752.65393 -713.0406 2281.0 1
776.42194 -713.0406 2281.0 1
794.9279 -708.35156 2266.0 1
808.064 -699.2862 2237.0 1
836.94836 -703.97516 2252.0 1
865.76306 -708.35156 2266.0 1
907.4291 -722.7312 2312.0 1
931.5202 -722.7312 2312.0 1
847.733 -641.1426 2051.0 1
869.10443 -641.1426 2051.0 1
895.6858 -644.8938 2063.0 1
906.51215 -637.3914 2039.0 1
545.2578 -817.8866 2532.0 1
563.5136 -806.2579 2496.0 1
585.2705 -800.44354 2478.0 1
598.2678 -783.6465 2426.0 1
623.54663 -783.6465 2426.0 1
648.8257 -783.6465 2426.0 1
674.1045 -783.6465 2426.0 1
699.38336 -783.6465 2426.0 1
743.58514 -751.6675 2327.0 1
762.88293 -746.8222 2312.0 1
781.8681 -741.9769 2297.0 1
800.19 -736.8086 2281.0 1
818.5396 -731.96326 2266.0 1
847.7261 -736.8086 2281.0 1
871.4941 -736.8086 2281.0 1
907.4291 -746.8222 2312.0 1
869.10443 -662.514 2051.0 1
885.2658 -658.63776 2039.0 1
906.51215 -658.63776 2039.0 1
537.5053 -832.2662 2496.0 1
563.5136 -832.2662 2496.0 1
581.0191 -820.2623 2460.0 1
602.4601 -814.5939 2443.0 1
623.54663 -808.92535 2426.0 1
648.8257 -808.92535 2426.0 1
678.82825 -814.5939 2443.0 1
759.2429 -792.25336 2376.0 1
778.39136 -786.5849 2359.0 1
797.5259 -781.2499 2343.0 1
805.8029 -765.9116 2297.0 1
829.7376 -765.9116 2297.0 1
853.6724 -765.9116 2297.0 1
883.33813 -770.9132 2312.0 1
907.4291 -770.9132 2312.0 1
944.0103 -781.2499 2343.0 1
874.1894 -687.88666 2063.0 1
890.4758 -683.8854 2051.0 1
917.18225 -687.88666 2063.0 1
515.1856 -864.46405 2514.0 1
533.6291 -852.08514 2478.0 1
559.44977 -852.08514 2478.0 1
577.00397 -840.05 2443.0 1
602.4601 -840.05 2443.0 1
627.9161 -840.05 2443.0 1
653.37225 -840.05 2443.0 1
800.49915 -834.2044 2426.0 1
808.75867 -817.0114 2376.0 1
821.94006 -805.664 2343.0 1
840.5744 -800.16223 2327.0 1
864.82184 -800.16223 2327.0 1
895.1822 -805.664 2343.0 1
913.3164 -800.16223 2327.0 1
874.1894 -709.3832 2063.0 1
895.6858 -709.3832 2063.0 1
928.2969 -717.97974 2088.0 1
485.48868 -884.2829 2496.0 1
507.80823 -877.9058 2478.0 1
533.6291 -877.9058 2478.0 1
559.44977 -877.9058 2478.0 1
585.2705 -877.9058 2478.0 1
602.4601 -865.50604 2443.0 1
632.2856 -871.5288 2460.0 1
657.9188 -871.5288 2460.0 1
800.49915 -859.4833 2426.0 1
814.20483 -847.43774 2392.0 1
839.1296 -847.43774 2392.0 1
852.13367 -835.7465 2359.0 1
870.7682 -830.07806 2343.0 1
895.1822 -830.07806 2343.0 1
919.5962 -830.07806 2343.0 1
873.7725 -748.94794 2114.0 1
874.1894 -730.87964 2063.0 1
895.6858 -730.87964 2063.0 1
922.96185 -735.4853 2076.0 1
944.5939 -735.4853 2076.0 1
481.98755 -903.72656 2478.0 1
507.80823 -903.72656 2478.0 1
529.75287 -897.162 2460.0 1
555.386 -897.162 2460.0 1
581.0191 -897.162 2460.0 1
606.6524 -897.162 2460.0 1
636.91205 -903.72656 2478.0 1
811.71796 -897.162 2460.0 1
831.5646 -890.9621 2443.0 1
845.09326 -878.56226 2409.0 1
864.05414 -872.36237 2392.0 1
876.71454 -860.3273 2359.0 1
901.2952 -860.3273 2359.0 1
932.5482 -866.52716 2376.0 1
851.7447 -770.97577 2114.0 1
868.3993 -766.2347 2101.0 1
869.10443 -747.9997 2051.0 1
895.6858 -752.3761 2063.0 1
922.96185 -757.1172 2076.0 1
478.48642 -922.79517 2460.0 1
504.11957 -922.79517 2460.0 1
529.75287 -922.79517 2460.0 1
555.386 -922.79517 2460.0 1
585.2705 -929.5473 2478.0 1
611.0914 -929.5473 2478.0 1
641.5385 -936.2995 2496.0 1
817.6574 -929.5473 2478.0 1
837.35114 -922.79517 2460.0 1
851.057 -910.0411 2426.0 1
864.05414 -897.287 2392.0 1
876.71454 -884.908 2359.0 1
907.7904 -891.2851 2376.0 1
945.5003 -903.66406 2409.0 1
852.6929 -773.8725 2063.0 1
874.1894 -773.8725 2063.0 1
901.32996 -778.7491 2076.0 1
934.07654 -788.1271 2101.0 1
456.1667 -955.36804 2478.0 1
478.48642 -948.42834 2460.0 1
500.6358 -941.87415 2443.0 1
522.4311 -935.31995 2426.0 1
555.386 -948.42834 2460.0 1
585.2705 -955.36804 2478.0 1
606.6524 -948.42834 2460.0 1
837.35114 -948.42834 2460.0 1
851.057 -935.31995 2426.0 1
876.3358 -935.31995 2426.0 1
895.2969 -928.7658 2409.0 1
926.89374 -935.31995 2426.0 1
436.598 -995.4435 2514.0 1
456.1667 -981.1889 2478.0 1
478.48642 -974.06165 2460.0 1
504.11957 -974.06165 2460.0 1
522.4311 -960.599 2426.0 1
555.386 -974.06165 2460.0 1
581.0191 -974.06165 2460.0 1
817.6574 -981.1889 2478.0 1
837.35114 -974.06165 2460.0 1
851.057 -960.599 2426.0 1
876.3358 -960.599 2426.0 1
901.61487 -960.599 2426.0 1
926.89374 -960.599 2426.0 1
952.17255 -960.599 2426.0 1
401.58685 -999.6948 2460.0 1
430.34598 -1007.00964 2478.0 1
452.85312 -999.6948 2460.0 1
471.8732 -985.87787 2426.0 1
497.15204 -985.87787 2426.0 1
522.4311 -985.87787 2426.0 1
551.548 -992.7863 2443.0 1
581.0191 -999.6948 2460.0 1
823.5968 -1014.32446 2496.0 1
837.35114 -999.6948 2460.0 1
851.057 -985.87787 2426.0 1
870.195 -978.9694 2409.0 1
895.2969 -978.9694 2409.0 1
926.89374 -985.87787 2426.0 1
972.58185 -1007.00964 2478.0 1
