ply
format ascii 1.0
comment : created from Kinect user tracker
element vertex 1134
property float x
property float y
property float z
property int userId
end_header
125.31786 244.36983 1804.0 1
144.1155 244.36983 1804.0 1
162.1005 243.15068 1795.0 1
181.71088 244.36983 1804.0 1
86.40956 222.19609 1777.0 1
105.45739 223.32144 1786.0 1
122.81706 221.07072 1768.0 1
139.80162 218.82 1750.0 1
158.03668 218.82 1750.0 1
178.08472 221.07072 1768.0 1
196.50735 221.07072 1768.0 1
85.53428 201.61656 1759.0 1
104.394554 202.64813 1768.0 1
120.94147 199.5534 1741.0 1
139.08264 199.5534 1741.0 1
156.41116 198.52182 1732.0 1
176.27164 200.58498 1750.0 1
194.50671 200.58498 1750.0 1
216.02396 203.67972 1777.0 1
234.54025 203.67972 1777.0 1
49.877018 187.039 1795.0 1
67.20555 183.2878 1759.0 1
85.09664 182.34999 1750.0 1
102.26887 180.4744 1732.0 1
119.69106 179.53659 1723.0 1
137.64468 179.53659 1723.0 1
155.5984 179.53659 1723.0 1
173.55202 179.53659 1723.0 1
192.50607 180.4744 1732.0 1
212.74167 182.34999 1750.0 1
234.54025 185.16339 1777.0 1
254.33833 186.1012 1786.0 1
49.376858 166.64708 1777.0 1
66.86169 164.11502 1750.0 1
84.22136 162.42697 1732.0 1
101.73745 161.58295 1723.0 1
120.31626 162.42697 1732.0 1
137.64468 161.58295 1723.0 1
155.5984 161.58295 1723.0 1
173.55202 161.58295 1723.0 1
191.50575 161.58295 1723.0 1
210.55347 162.42697 1732.0 1
230.97662 164.11502 1750.0 1
254.33833 167.49109 1786.0 1
272.9484 167.49109 1786.0 1
31.329466 150.38142 1804.0 1
49.126778 147.38046 1768.0 1
67.20555 146.63023 1759.0 1
85.09664 145.87999 1750.0 1
102.80029 145.12975 1741.0 1
120.31626 144.3795 1732.0 1
137.64468 143.62927 1723.0 1
155.5984 143.62927 1723.0 1
173.55202 143.62927 1723.0 1
191.50575 143.62927 1723.0 1
212.74167 145.87999 1750.0 1
229.78874 145.12975 1741.0 1
251.77501 147.38046 1768.0 1
12.802755 134.42842 1843.0 1
31.329466 131.58377 1804.0 1
49.126778 128.95793 1768.0 1
67.54941 128.95793 1768.0 1
85.53428 128.30147 1759.0 1
103.33171 127.645004 1750.0 1
120.31626 126.332085 1732.0 1
137.64468 125.67563 1723.0 1
155.5984 125.67563 1723.0 1
174.45856 126.332085 1732.0 1
192.50607 126.332085 1732.0 1
213.83577 128.30147 1759.0 1
236.91602 130.9273 1795.0 1
262.4555 134.42842 1843.0 1
12.802755 115.22434 1843.0 1
31.173166 112.22338 1795.0 1
49.877018 112.22338 1795.0 1
67.54941 110.53534 1768.0 1
85.971924 110.53534 1768.0 1
103.86313 109.972664 1759.0 1
120.31626 108.28462 1732.0 1
138.36366 108.28462 1732.0 1
155.5984 107.72194 1723.0 1
173.55202 107.72194 1723.0 1
192.50607 108.28462 1732.0 1
213.83577 109.972664 1759.0 1
244.57124 115.84954 1853.0 1
286.94946 125.977776 2015.0 1
31.329466 93.988396 1804.0 1
49.626938 93.0506 1786.0 1
67.89327 92.581696 1777.0 1
85.971924 92.1128 1768.0 1
104.394554 92.1128 1768.0 1
121.566666 91.174995 1750.0 1
139.08264 90.7061 1741.0 1
157.22392 90.7061 1741.0 1
175.3651 90.7061 1741.0 1
194.50671 91.174995 1750.0 1
216.02396 92.581696 1777.0 1
247.21097 97.5833 1873.0 1
31.8331 76.39946 1833.0 1
49.626938 74.4405 1786.0 1
68.580986 74.81561 1795.0 1
87.28484 74.81561 1795.0 1
104.394554 73.690254 1768.0 1
122.191864 73.31514 1759.0 1
140.5206 73.31514 1759.0 1
158.03668 72.94002 1750.0 1
175.3651 72.564896 1741.0 1
195.50703 73.31514 1759.0 1
217.11806 74.4405 1786.0 1
247.21097 78.06666 1873.0 1
32.006767 57.61217 1843.0 1
51.210777 57.61217 1843.0 1
70.41491 57.61217 1843.0 1
88.20875 56.70563 1814.0 1
105.45739 55.83035 1786.0 1
122.81706 55.26767 1768.0 1
140.5206 54.986332 1759.0 1
158.03668 54.70499 1750.0 1
174.45856 54.14231 1732.0 1
194.50671 54.70499 1750.0 1
218.21216 56.11169 1795.0 1
251.30255 59.519028 1904.0 1
52.322243 39.24173 1883.0 1
71.94318 39.24173 1883.0 1
90.10519 38.616528 1853.0 1
105.988815 37.407806 1795.0 1
122.81706 36.845127 1768.0 1
141.23958 36.845127 1768.0 1
159.6622 36.845127 1768.0 1
177.17818 36.65757 1759.0 1
196.50735 36.845127 1768.0 1
218.21216 37.407806 1795.0 1
34.194965 20.51696 1969.0 1
54.100586 20.28772 1947.0 1
73.54786 20.058481 1925.0 1
92.09888 19.73546 1894.0 1
107.1107 18.901861 1814.0 1
124.692665 18.703882 1795.0 1
141.23958 18.422543 1768.0 1
159.6622 18.422543 1768.0 1
178.08472 18.422543 1768.0 1
198.508 18.610102 1786.0 1
239.36476 20.51696 1969.0 1
256.978 20.28772 1947.0 1
-48.699593 0.0 2003.0 1
-27.20312 0.0 1958.0 1
-6.8008127 0.0 1958.0 1
13.601625 0.0 1958.0 1
34.003933 0.0 1958.0 1
53.48928 0.0 1925.0 1
73.54786 0.0 1925.0 1
93.12004 0.0 1915.0 1
110.59445 0.0 1873.0 1
125.31786 0.0 1804.0 1
142.67754 0.0 1786.0 1
160.47496 0.0 1777.0 1
178.99126 0.0 1777.0 1
199.50832 0.0 1795.0 1
236.69029 0.0 1947.0 1
258.42984 0.0 1958.0 1
278.83228 0.0 1958.0 1
300.91568 0.0 1969.0 1
323.22845 0.0 1980.0 1
345.944 0.0 1992.0 1
-90.44214 -20.87124 2003.0 1
-68.007866 -20.40234 1958.0 1
-47.338047 -20.28772 1947.0 1
-27.050293 -20.28772 1947.0 1
-6.7626057 -20.28772 1947.0 1
13.448798 -20.1731 1936.0 1
33.430832 -20.058481 1925.0 1
53.48928 -20.058481 1925.0 1
73.54786 -20.058481 1925.0 1
93.12004 -19.95428 1915.0 1
111.18492 -19.62084 1883.0 1
130.11107 -19.516642 1873.0 1
144.91437 -18.901861 1814.0 1
162.1005 -18.703882 1795.0 1
191.78354 -19.83966 1904.0 1
212.84592 -19.95428 1915.0 1
234.01582 -20.058481 1925.0 1
255.52612 -20.1731 1936.0 1
277.2658 -20.28772 1947.0 1
299.2346 -20.40234 1958.0 1
321.43274 -20.51696 1969.0 1
341.94965 -20.51696 1969.0 1
-67.6258 -40.57544 1947.0 1
-47.0706 -40.3462 1936.0 1
-26.74464 -40.116962 1925.0 1
-6.686192 -40.116962 1925.0 1
13.372384 -40.116962 1925.0 1
33.430832 -40.116962 1925.0 1
53.211414 -39.90856 1915.0 1
73.165794 -39.90856 1915.0 1
92.585144 -39.67932 1904.0 1
111.834435 -39.47092 1894.0 1
130.80573 -39.24168 1883.0 1
150.42654 -39.24168 1883.0 1
171.04085 -39.47092 1894.0 1
191.78354 -39.67932 1904.0 1
212.84592 -39.90856 1915.0 1
232.80016 -39.90856 1915.0 1
252.75441 -39.90856 1915.0 1
275.69934 -40.3462 1936.0 1
297.5535 -40.57544 1947.0 1
319.63702 -40.80468 1958.0 1
338.129 -40.57544 1947.0 1
360.44162 -40.80468 1958.0 1
-88.90692 -61.55098 1969.0 1
-67.24373 -60.519398 1936.0 1
-46.56002 -59.862938 1915.0 1
-26.605707 -59.862938 1915.0 1
-6.6514587 -59.862938 1915.0 1
13.3029175 -59.862938 1915.0 1
33.257168 -59.862938 1915.0 1
53.211414 -59.862938 1915.0 1
72.745514 -59.519077 1904.0 1
92.09888 -59.20648 1894.0 1
111.834435 -59.20648 1894.0 1
130.80573 -58.862617 1883.0 1
150.42654 -58.862617 1883.0 1
171.04085 -59.20648 1894.0 1
190.77628 -59.20648 1894.0 1
211.6233 -59.519077 1904.0 1
231.46294 -59.519077 1904.0 1
252.75441 -59.862938 1915.0 1
274.13284 -60.175537 1925.0 1
294.1913 -60.175537 1925.0 1
316.0456 -60.519398 1936.0 1
336.21866 -60.519398 1936.0 1
360.44162 -61.20712 1958.0 1
380.8441 -61.20712 1958.0 1
-88.90692 -82.06794 1969.0 1
-67.24373 -80.6925 1936.0 1
-46.803154 -80.23402 1925.0 1
-26.74464 -80.23402 1925.0 1
-6.6132517 -79.358734 1904.0 1
13.226503 -79.358734 1904.0 1
33.257168 -79.817215 1915.0 1
53.211414 -79.817215 1915.0 1
72.36345 -78.94194 1894.0 1
91.56399 -78.48346 1883.0 1
111.18492 -78.48346 1883.0 1
130.80573 -78.48346 1883.0 1
150.42654 -78.48346 1883.0 1
170.04747 -78.48346 1883.0 1
190.77628 -78.94194 1894.0 1
209.28922 -78.48346 1883.0 1
231.46294 -79.358734 1904.0 1
252.75441 -79.817215 1915.0 1
272.7088 -79.817215 1915.0 1
294.1913 -80.23402 1925.0 1
316.0456 -80.6925 1936.0 1
336.21866 -80.6925 1936.0 1
362.46658 -82.06794 1969.0 1
382.98364 -82.06794 1969.0 1
-89.40361 -103.158 1980.0 1
-67.6258 -101.4387 1947.0 1
-46.803154 -100.292496 1925.0 1
-26.605707 -99.7715 1915.0 1
-6.6132517 -99.198395 1904.0 1
13.3029175 -99.7715 1915.0 1
33.257168 -99.7715 1915.0 1
52.627895 -98.6774 1894.0 1
71.94318 -98.1043 1883.0 1
91.56399 -98.1043 1883.0 1
110.59445 -97.5833 1873.0 1
130.11107 -97.5833 1873.0 1
149.62767 -97.5833 1873.0 1
169.14441 -97.5833 1873.0 1
189.66829 -98.1043 1883.0 1
209.28922 -98.1043 1883.0 1
230.24727 -98.6774 1894.0 1
251.30255 -99.198395 1904.0 1
272.7088 -99.7715 1915.0 1
292.66302 -99.7715 1915.0 1
314.24988 -100.292496 1925.0 1
336.21866 -100.8656 1936.0 1
358.4167 -101.4387 1947.0 1
382.98364 -102.5849 1969.0 1
-88.90692 -123.10186 1969.0 1
-68.007866 -122.41414 1958.0 1
-47.338047 -121.72642 1947.0 1
-26.605707 -119.72578 1915.0 1
-6.6132517 -119.038055 1904.0 1
13.226503 -119.038055 1904.0 1
32.892467 -118.41286 1894.0 1
52.322243 -117.725136 1883.0 1
71.94318 -117.725136 1883.0 1
91.56399 -117.725136 1883.0 1
110.59445 -117.09994 1873.0 1
130.11107 -117.09994 1873.0 1
149.62767 -117.09994 1873.0 1
169.14441 -117.09994 1873.0 1
189.66829 -117.725136 1883.0 1
209.28922 -117.725136 1883.0 1
230.24727 -118.41286 1894.0 1
251.30255 -119.038055 1904.0 1
272.7088 -119.72578 1915.0 1
292.66302 -119.72578 1915.0 1
314.24988 -120.350975 1925.0 1
338.129 -121.72642 1947.0 1
360.44162 -122.41414 1958.0 1
385.12323 -123.78958 1980.0 1
-111.31341 -146.09877 2003.0 1
-89.40361 -144.42116 1980.0 1
-68.007866 -142.81648 1958.0 1
-47.338047 -142.01414 1947.0 1
-26.605707 -139.68005 1915.0 1
-6.6132517 -138.87772 1904.0 1
13.226503 -138.87772 1904.0 1
32.892467 -138.14832 1894.0 1
52.322243 -137.34598 1883.0 1
71.94318 -137.34598 1883.0 1
91.56399 -137.34598 1883.0 1
110.59445 -136.61658 1873.0 1
130.11107 -136.61658 1873.0 1
149.62767 -136.61658 1873.0 1
169.14441 -136.61658 1873.0 1
188.66103 -136.61658 1873.0 1
209.28922 -137.34598 1883.0 1
228.91003 -137.34598 1883.0 1
249.9827 -138.14832 1894.0 1
272.7088 -139.68005 1915.0 1
292.66302 -139.68005 1915.0 1
314.24988 -140.40945 1925.0 1
336.21866 -141.21179 1936.0 1
360.44162 -142.81648 1958.0 1
385.12323 -144.42116 1980.0 1
410.46808 -146.09877 2003.0 1
-111.31341 -166.97012 2003.0 1
-89.40361 -165.05284 1980.0 1
-68.38993 -164.13588 1969.0 1
-47.338047 -162.30196 1947.0 1
-26.605707 -159.63443 1915.0 1
-6.6132517 -158.71747 1904.0 1
13.3029175 -159.63443 1915.0 1
32.892467 -157.88388 1894.0 1
52.322243 -156.96692 1883.0 1
71.94318 -156.96692 1883.0 1
91.07772 -156.13332 1873.0 1
110.59445 -156.13332 1873.0 1
130.80573 -156.96692 1883.0 1
149.62767 -156.13332 1873.0 1
169.14441 -156.13332 1873.0 1
188.66103 -156.13332 1873.0 1
208.17775 -156.13332 1873.0 1
228.91003 -156.96692 1883.0 1
249.9827 -157.88388 1894.0 1
271.1423 -158.71747 1904.0 1
292.66302 -159.63443 1915.0 1
314.24988 -160.46803 1925.0 1
340.03934 -163.21892 1958.0 1
362.46658 -164.13588 1969.0 1
389.59686 -166.97012 2003.0 1
410.46808 -166.97012 2003.0 1
-111.31341 -187.84135 2003.0 1
-89.94545 -186.80978 1992.0 1
-68.771996 -185.68442 1980.0 1
-48.140385 -185.68442 1980.0 1
-26.74464 -180.52652 1925.0 1
-6.6132517 -178.55713 1904.0 1
13.226503 -178.55713 1904.0 1
32.892467 -177.61934 1894.0 1
52.322243 -176.58775 1883.0 1
71.56111 -175.64995 1873.0 1
91.07772 -175.64995 1873.0 1
110.59445 -175.64995 1873.0 1
130.11107 -175.64995 1873.0 1
149.62767 -175.64995 1873.0 1
169.14441 -175.64995 1873.0 1
188.66103 -175.64995 1873.0 1
209.28922 -176.58775 1883.0 1
228.91003 -176.58775 1883.0 1
251.30255 -178.55713 1904.0 1
271.1423 -178.55713 1904.0 1
292.66302 -179.58871 1915.0 1
314.24988 -180.52652 1925.0 1
340.03934 -183.62126 1958.0 1
362.46658 -184.65283 1969.0 1
389.59686 -187.84135 2003.0 1
410.46808 -187.84135 2003.0 1
-111.31341 -208.7126 2003.0 1
-90.44214 -208.7126 2003.0 1
-69.1888 -207.56639 1992.0 1
-48.699593 -208.7126 2003.0 1
-27.20312 -204.02359 1958.0 1
-6.6514587 -199.543 1915.0 1
13.157037 -197.3548 1894.0 1
32.70143 -196.2086 1883.0 1
52.322243 -196.2086 1883.0 1
71.56111 -195.1666 1873.0 1
91.56399 -196.2086 1883.0 1
111.18492 -196.2086 1883.0 1
130.11107 -195.1666 1873.0 1
149.62767 -195.1666 1873.0 1
170.04747 -196.2086 1883.0 1
189.66829 -196.2086 1883.0 1
209.28922 -196.2086 1883.0 1
228.91003 -196.2086 1883.0 1
249.9827 -197.3548 1894.0 1
271.1423 -198.39679 1904.0 1
294.1913 -200.58499 1925.0 1
319.63702 -204.02359 1958.0 1
341.94965 -205.1698 1969.0 1
364.49155 -206.316 1980.0 1
387.4573 -207.56639 1992.0 1
408.2139 -207.56639 1992.0 1
-113.31405 -233.71016 2039.0 1
-90.44214 -229.58383 2003.0 1
-69.57086 -229.58383 2003.0 1
-48.991352 -230.95927 2015.0 1
-27.508774 -226.94757 1980.0 1
-6.6514587 -219.49728 1915.0 1
13.226503 -218.23645 1904.0 1
32.70143 -215.82944 1883.0 1
52.322243 -215.82944 1883.0 1
71.56111 -214.68324 1873.0 1
91.56399 -215.82944 1883.0 1
111.18492 -215.82944 1883.0 1
130.80573 -215.82944 1883.0 1
150.42654 -215.82944 1883.0 1
170.04747 -215.82944 1883.0 1
189.66829 -215.82944 1883.0 1
209.28922 -215.82944 1883.0 1
230.24727 -217.09026 1894.0 1
248.53084 -215.82944 1883.0 1
271.1423 -218.23645 1904.0 1
295.8724 -221.9043 1936.0 1
323.22845 -226.94757 1980.0 1
343.86 -226.94757 1980.0 1
364.49155 -226.94757 1980.0 1
387.4573 -228.32301 1992.0 1
-135.3523 -256.457 2051.0 1
-113.31405 -254.95651 2039.0 1
-91.52582 -253.45604 2027.0 1
-70.404465 -253.45604 2027.0 1
-49.57487 -254.95651 2039.0 1
-27.675493 -249.07964 1992.0 1
-6.724399 -242.0774 1936.0 1
13.3029175 -239.45155 1915.0 1
32.892467 -236.82571 1894.0 1
52.322243 -235.45027 1883.0 1
71.94318 -235.45027 1883.0 1
91.56399 -235.45027 1883.0 1
111.18492 -235.45027 1883.0 1
130.80573 -235.45027 1883.0 1
150.42654 -235.45027 1883.0 1
170.04747 -235.45027 1883.0 1
189.66829 -235.45027 1883.0 1
209.28922 -235.45027 1883.0 1
228.91003 -235.45027 1883.0 1
249.9827 -236.82571 1894.0 1
272.7088 -239.45155 1915.0 1
297.5535 -243.45284 1947.0 1
326.98312 -250.45508 2003.0 1
343.86 -247.57916 1980.0 1
364.49155 -247.57916 1980.0 1
389.59686 -250.45508 2003.0 1
425.42773 -259.583 2076.0 1
-137.00214 -281.215 2076.0 1
-113.980934 -277.8285 2051.0 1
-92.06766 -276.20297 2039.0 1
-70.821266 -276.20297 2039.0 1
-49.86663 -277.8285 2051.0 1
-28.161758 -274.57745 2027.0 1
-6.8008127 -265.2307 1958.0 1
13.372384 -260.76053 1925.0 1
33.257168 -259.40594 1915.0 1
52.90576 -257.91586 1904.0 1
72.36345 -256.56128 1894.0 1
91.56399 -255.07121 1883.0 1
111.18492 -255.07121 1883.0 1
130.80573 -255.07121 1883.0 1
150.42654 -255.07121 1883.0 1
171.04085 -256.56128 1894.0 1
190.77628 -256.56128 1894.0 1
210.51183 -256.56128 1894.0 1
230.24727 -256.56128 1894.0 1
252.75441 -259.40594 1915.0 1
274.13284 -260.76053 1925.0 1
302.59677 -268.21085 1980.0 1
328.94208 -272.95193 2015.0 1
345.944 -269.83636 1992.0 1
366.7006 -269.83636 1992.0 1
389.59686 -271.32642 2003.0 1
410.46808 -271.32642 2003.0 1
-137.00214 -302.8469 2076.0 1
-113.980934 -299.1999 2051.0 1
-92.6095 -299.1999 2051.0 1
-71.65487 -300.95047 2063.0 1
-49.57487 -297.44934 2039.0 1
-27.995039 -293.9482 2015.0 1
-6.877226 -288.8424 1980.0 1
13.601625 -285.63306 1958.0 1
33.430832 -280.819 1925.0 1
53.211414 -279.3602 1915.0 1
72.745514 -277.75552 1904.0 1
92.09888 -276.29672 1894.0 1
111.834435 -276.29672 1894.0 1
130.80573 -274.69205 1883.0 1
150.42654 -274.69205 1883.0 1
172.93729 -279.3602 1915.0 1
192.89154 -279.3602 1915.0 1
211.6233 -277.75552 1904.0 1
232.80016 -279.3602 1915.0 1
254.07428 -280.819 1925.0 1
275.69934 -282.4237 1936.0 1
330.90103 -295.69876 2027.0 1
349.93832 -293.9482 2015.0 1
366.7006 -290.593 1992.0 1
387.4573 -290.593 1992.0 1
410.46808 -292.19766 2003.0 1
-160.5444 -328.3863 2101.0 1
-137.00214 -324.4788 2076.0 1
-115.37026 -324.4788 2076.0 1
-94.280174 -326.3544 2088.0 1
-72.1064 -324.4788 2076.0 1
-49.86663 -320.5713 2051.0 1
-28.161758 -316.8201 2027.0 1
-6.877226 -309.474 1980.0 1
13.601625 -306.0354 1958.0 1
33.621864 -302.5968 1936.0 1
53.48928 -300.8775 1925.0 1
73.165794 -299.31448 1915.0 1
92.585144 -297.59518 1904.0 1
111.834435 -296.0322 1894.0 1
131.56987 -296.0322 1894.0 1
150.42654 -294.3129 1883.0 1
171.94391 -297.59518 1904.0 1
192.89154 -299.31448 1915.0 1
212.84592 -299.31448 1915.0 1
235.35306 -302.5968 1936.0 1
258.42984 -306.0354 1958.0 1
278.83228 -306.0354 1958.0 1
330.90103 -316.8201 2027.0 1
347.85434 -313.0689 2003.0 1
366.7006 -311.3496 1992.0 1
389.59686 -313.0689 2003.0 1
412.9272 -314.9445 2015.0 1
-158.63406 -346.1107 2076.0 1
-137.00214 -346.1107 2076.0 1
-115.37026 -346.1107 2076.0 1
-94.280174 -348.11133 2088.0 1
-49.86663 -341.9427 2051.0 1
-28.161758 -337.9414 2027.0 1
-6.877226 -330.10556 1980.0 1
13.678039 -328.27167 1969.0 1
34.003933 -326.43774 1958.0 1
53.48928 -320.93597 1925.0 1
73.165794 -319.26877 1915.0 1
92.585144 -317.43484 1904.0 1
112.424904 -317.43484 1904.0 1
132.26453 -317.43484 1904.0 1
151.3053 -315.76767 1894.0 1
171.94391 -317.43484 1904.0 1
192.89154 -319.26877 1915.0 1
213.95738 -320.93597 1925.0 1
235.35306 -322.7699 1936.0 1
259.88168 -328.27167 1969.0 1
283.6741 -332.1062 1992.0 1
349.93832 -335.94077 2015.0 1
368.72552 -333.94012 2003.0 1
391.93094 -335.94077 2015.0 1
412.9272 -335.94077 2015.0 1
-182.43683 -372.17108 2101.0 1
-158.63406 -367.74258 2076.0 1
-136.14421 -365.43976 2063.0 1
-115.37026 -367.74258 2076.0 1
-94.280174 -369.8683 2088.0 1
-49.86663 -363.3141 2051.0 1
-27.995039 -356.93704 2015.0 1
-6.877226 -350.73715 1980.0 1
13.678039 -348.7886 1969.0 1
34.003933 -346.8401 1958.0 1
53.794933 -342.943 1936.0 1
73.54786 -340.99445 1925.0 1
93.12004 -339.22305 1915.0 1
113.07442 -339.22305 1915.0 1
132.26453 -337.2745 1904.0 1
152.98291 -339.22305 1915.0 1
172.93729 -339.22305 1915.0 1
193.8988 -340.99445 1925.0 1
213.95738 -340.99445 1925.0 1
238.02753 -346.8401 1958.0 1
261.33356 -350.73715 1980.0 1
286.94946 -356.93704 2015.0 1
352.02234 -359.06274 2027.0 1
370.93457 -356.93704 2015.0 1
391.93094 -356.93704 2015.0 1
412.9272 -356.93704 2015.0 1
-181.308 -391.6253 2088.0 1
-158.63406 -389.3746 2076.0 1
-136.14421 -386.9363 2063.0 1
-115.37026 -389.3746 2076.0 1
-94.280174 -391.6253 2088.0 1
-50.158394 -386.9363 2063.0 1
-27.995039 -377.93344 2015.0 1
-6.918906 -373.61957 1992.0 1
13.678039 -369.30566 1969.0 1
34.003933 -367.24252 1958.0 1
53.794933 -363.11618 1936.0 1
73.54786 -361.05304 1925.0 1
93.12004 -359.17743 1915.0 1
113.07442 -359.17743 1915.0 1
133.02867 -359.17743 1915.0 1
152.98291 -359.17743 1915.0 1
172.93729 -359.17743 1915.0 1
193.8988 -361.05304 1925.0 1
216.4026 -365.17935 1947.0 1
239.36476 -369.30566 1969.0 1
264.36923 -375.6827 2003.0 1
290.36722 -382.43488 2039.0 1
352.02234 -380.18414 2027.0 1
368.72552 -375.6827 2003.0 1
389.59686 -375.6827 2003.0 1
408.2139 -373.61957 1992.0 1
-180.26599 -411.0065 2076.0 1
-157.64069 -408.43274 2063.0 1
-136.14421 -408.43274 2063.0 1
-115.37026 -411.0065 2076.0 1
-94.280174 -413.38226 2088.0 1
-72.97473 -415.956 2101.0 1
-49.86663 -406.057 2051.0 1
-28.161758 -401.30548 2027.0 1
-6.918906 -394.37616 1992.0 1
13.754452 -392.00043 1980.0 1
34.003933 -387.64487 1958.0 1
54.100586 -385.46707 1947.0 1
73.54786 -381.1115 1925.0 1
93.12004 -379.1317 1915.0 1
113.07442 -379.1317 1915.0 1
133.02867 -379.1317 1915.0 1
152.98291 -379.1317 1915.0 1
172.93729 -379.1317 1915.0 1
193.8988 -381.1115 1925.0 1
217.62521 -387.64487 1958.0 1
240.702 -392.00043 1980.0 1
264.36923 -396.55396 2003.0 1
288.65833 -401.30548 2027.0 1
352.02234 -401.30548 2027.0 1
368.72552 -396.55396 2003.0 1
387.4573 -394.37616 1992.0 1
408.2139 -394.37616 1992.0 1
-180.26599 -432.6384 2076.0 1
-157.64069 -429.9292 2063.0 1
-136.14421 -429.9292 2063.0 1
-116.03715 -435.1392 2088.0 1
-72.97473 -437.8484 2101.0 1
-50.158394 -429.9292 2063.0 1
-28.161758 -422.4268 2027.0 1
-6.918906 -415.13278 1992.0 1
13.837812 -415.13278 1992.0 1
34.194965 -410.3396 1969.0 1
54.40624 -408.04718 1958.0 1
73.54786 -401.16998 1925.0 1
93.60631 -401.16998 1925.0 1
113.66488 -401.16998 1925.0 1
133.02867 -399.086 1915.0 1
153.78178 -401.16998 1925.0 1
173.84036 -401.16998 1925.0 1
196.11479 -405.7548 1947.0 1
217.62521 -408.04718 1958.0 1
242.1608 -415.13278 1992.0 1
265.95306 -419.926 2015.0 1
293.78497 -429.9292 2063.0 1
352.02234 -422.4268 2027.0 1
368.72552 -417.4252 2003.0 1
385.12323 -412.632 1980.0 1
408.2139 -415.13278 1992.0 1
424.01764 -410.3396 1969.0 1
-180.26599 -454.2703 2076.0 1
-157.64069 -451.42563 2063.0 1
-136.14421 -451.42563 2063.0 1
-115.37026 -454.2703 2076.0 1
-72.5232 -456.89612 2088.0 1
-50.158394 -451.42563 2063.0 1
-28.32848 -446.17395 2039.0 1
-6.9571133 -438.29642 2003.0 1
13.837812 -435.8894 1992.0 1
34.194965 -430.85657 1969.0 1
54.40624 -428.44952 1958.0 1
73.96813 -423.6355 1936.0 1
94.1412 -423.6355 1936.0 1
113.66488 -421.2285 1925.0 1
133.72333 -421.2285 1925.0 1
153.78178 -421.2285 1925.0 1
174.83372 -423.6355 1936.0 1
195.00679 -423.6355 1936.0 1
217.62521 -428.44952 1958.0 1
242.1608 -435.8894 1992.0 1
270.7046 -448.7998 2051.0 1
297.34515 -456.89612 2088.0 1
347.85434 -438.29642 2003.0 1
364.49155 -433.26358 1980.0 1
382.98364 -430.85657 1969.0 1
403.50058 -430.85657 1969.0 1
419.28 -426.0425 1947.0 1
-179.13716 -472.92206 2063.0 1
-157.64069 -472.92206 2063.0 1
-137.00214 -475.9022 2076.0 1
-72.1064 -475.9022 2076.0 1
-50.158394 -472.92206 2063.0 1
-28.32848 -467.42032 2039.0 1
-7.0404735 -464.66943 2027.0 1
13.914227 -459.16766 2003.0 1
34.194965 -451.3735 1969.0 1
54.40624 -448.85187 1958.0 1
74.388405 -446.33023 1947.0 1
94.1412 -443.8086 1936.0 1
113.66488 -441.28696 1925.0 1
134.48746 -443.8086 1936.0 1
155.53929 -446.33023 1947.0 1
175.8271 -446.33023 1947.0 1
197.22278 -448.85187 1958.0 1
218.84784 -451.3735 1969.0 1
243.49803 -459.16766 2003.0 1
269.12076 -467.42032 2039.0 1
293.78497 -472.92206 2063.0 1
343.86 -453.89514 1980.0 1
364.49155 -453.89514 1980.0 1
382.98364 -451.3735 1969.0 1
405.75476 -453.89514 1980.0 1
-201.89793 -497.53418 2076.0 1
-178.09517 -491.5427 2051.0 1
-157.64069 -494.4186 2063.0 1
-136.14421 -494.4186 2063.0 1
-72.5232 -500.41013 2088.0 1
-49.86663 -491.5427 2051.0 1
-28.32848 -488.66678 2039.0 1
-6.998793 -482.91492 2015.0 1
13.997586 -482.91492 2015.0 1
34.5944 -477.40274 1992.0 1
54.711895 -471.89056 1969.0 1
74.80868 -469.2543 1958.0 1
95.21098 -469.2543 1958.0 1
115.61343 -469.2543 1958.0 1
136.01573 -469.2543 1958.0 1
156.41805 -469.2543 1958.0 1
176.82048 -469.2543 1958.0 1
198.33078 -471.89056 1969.0 1
220.07045 -474.52682 1980.0 1
244.95683 -482.91492 2015.0 1
269.12076 -488.66678 2039.0 1
297.34515 -500.41013 2088.0 1
347.85434 -480.039 2003.0 1
364.49155 -474.52682 1980.0 1
380.8441 -469.2543 1958.0 1
403.50058 -471.89056 1969.0 1
-200.63364 -515.91504 2063.0 1
-178.09517 -512.91406 2051.0 1
-156.72372 -512.91406 2051.0 1
-72.5232 -522.16705 2088.0 1
-49.86663 -512.91406 2051.0 1
-28.32848 -509.91312 2039.0 1
-6.998793 -503.91122 2015.0 1
13.997586 -503.91122 2015.0 1
34.78543 -500.91025 2003.0 1
55.017548 -495.15842 1980.0 1
75.22895 -492.40753 1969.0 1
95.21098 -489.65665 1958.0 1
115.61343 -489.65665 1958.0 1
136.77986 -492.40753 1969.0 1
157.2968 -492.40753 1969.0 1
177.81384 -492.40753 1969.0 1
199.43877 -495.15842 1980.0 1
223.96059 -503.91122 2015.0 1
246.41563 -506.91217 2027.0 1
272.28842 -515.91504 2063.0 1
341.94965 -492.40753 1969.0 1
362.46658 -492.40753 1969.0 1
380.8441 -489.65665 1958.0 1
403.50058 -492.40753 1969.0 1
421.6488 -489.65665 1958.0 1
-199.4666 -534.28546 2051.0 1
-178.09517 -534.28546 2051.0 1
-157.64069 -537.4115 2063.0 1
-72.5232 -543.924 2088.0 1
-49.86663 -534.28546 2051.0 1
-28.32848 -531.1595 2039.0 1
-7.0821533 -531.1595 2039.0 1
14.080947 -528.0335 2027.0 1
34.99383 -524.9075 2015.0 1
55.65664 -521.7815 2003.0 1
75.64922 -515.79 1980.0 1
95.74588 -512.9245 1969.0 1
116.91245 -515.79 1980.0 1
137.54399 -515.79 1980.0 1
159.13419 -518.916 1992.0 1
179.8909 -518.916 1992.0 1
201.75548 -521.7815 2003.0 1
225.29434 -528.0335 2027.0 1
247.87444 -531.1595 2039.0 1
272.28842 -537.4115 2063.0 1
297.34515 -543.924 2088.0 1
349.93832 -524.9075 2015.0 1
362.46658 -512.9245 1969.0 1
380.8441 -510.059 1958.0 1
401.24637 -510.059 1958.0 1
-199.4666 -555.65686 2051.0 1
-178.09517 -555.65686 2051.0 1
-156.72372 -555.65686 2051.0 1
-94.867165 -569.2029 2101.0 1
-72.1064 -562.4299 2076.0 1
-49.57487 -552.4058 2039.0 1
-28.161758 -549.1548 2027.0 1
-7.0404735 -549.1548 2027.0 1
14.164307 -552.4058 2039.0 1
34.99383 -545.90375 2015.0 1
55.65664 -542.6527 2003.0 1
76.52798 -542.6527 2003.0 1
96.86429 -539.6726 1992.0 1
118.27052 -542.6527 2003.0 1
139.14172 -542.6527 2003.0 1
160.01294 -542.6527 2003.0 1
180.88428 -542.6527 2003.0 1
202.9642 -545.90375 2015.0 1
225.29434 -549.1548 2027.0 1
249.33322 -555.65686 2051.0 1
274.00427 -562.4299 2076.0 1
362.46658 -533.44147 1969.0 1
376.5649 -524.5011 1936.0 1
396.738 -524.5011 1936.0 1
-219.54594 -573.6522 2039.0 1
-199.4666 -577.02826 2051.0 1
-178.09517 -577.02826 2051.0 1
-94.867165 -591.0953 2101.0 1
-71.65487 -580.40436 2063.0 1
-49.57487 -573.6522 2039.0 1
-27.995039 -566.9 2015.0 1
-6.998793 -566.9 2015.0 1
13.997586 -566.9 2015.0 1
34.99383 -566.9 2015.0 1
55.990078 -566.9 2015.0 1
76.98646 -566.9 2015.0 1
97.982704 -566.9 2015.0 1
118.97909 -566.9 2015.0 1
139.97533 -566.9 2015.0 1
160.97157 -566.9 2015.0 1
181.96796 -566.9 2015.0 1
204.17293 -570.2761 2027.0 1
227.96187 -577.02826 2051.0 1
249.33322 -577.02826 2051.0 1
275.5881 -587.43787 2088.0 1
360.44162 -550.86365 1958.0 1
374.42535 -541.57947 1925.0 1
394.4838 -541.57947 1925.0 1
412.38892 -538.76605 1915.0 1
-223.52986 -605.6938 2076.0 1
-198.29956 -594.8987 2039.0 1
-177.05316 -594.8987 2039.0 1
-155.80676 -594.8987 2039.0 1
-94.280174 -609.1949 2088.0 1
-71.23807 -598.3998 2051.0 1
-49.57487 -594.8987 2039.0 1
-27.995039 -587.8964 2015.0 1
-6.9571133 -584.3953 2003.0 1
13.997586 -587.8964 2015.0 1
35.202232 -591.3975 2027.0 1
55.990078 -587.8964 2015.0 1
76.98646 -587.8964 2015.0 1
97.982704 -587.8964 2015.0 1
118.27052 -584.3953 2003.0 1
139.97533 -587.8964 2015.0 1
160.97157 -587.8964 2015.0 1
183.05164 -591.3975 2027.0 1
205.38164 -594.8987 2039.0 1
227.96187 -598.3998 2051.0 1
249.33322 -598.3998 2051.0 1
275.5881 -609.1949 2088.0 1
356.39172 -564.8474 1936.0 1
374.42535 -561.638 1925.0 1
394.4838 -561.638 1925.0 1
412.38892 -558.7204 1915.0 1
-222.13011 -623.39734 2063.0 1
-198.29956 -616.145 2039.0 1
-177.05316 -616.145 2039.0 1
-154.88982 -612.51886 2027.0 1
-93.738335 -627.3257 2076.0 1
-71.23807 -619.7712 2051.0 1
-49.28311 -612.51886 2027.0 1
-27.995039 -608.8927 2015.0 1
-6.998793 -608.8927 2015.0 1
13.997586 -608.8927 2015.0 1
34.99383 -608.8927 2015.0 1
55.990078 -608.8927 2015.0 1
76.98646 -608.8927 2015.0 1
97.399185 -605.26654 2003.0 1
118.27052 -605.26654 2003.0 1
139.97533 -608.8927 2015.0 1
161.93022 -612.51886 2027.0 1
183.05164 -612.51886 2027.0 1
205.38164 -616.145 2039.0 1
227.96187 -619.7712 2051.0 1
252.37239 -627.3257 2076.0 1
274.00427 -627.3257 2076.0 1
356.39172 -585.0205 1936.0 1
374.42535 -581.69653 1925.0 1
394.4838 -581.69653 1925.0 1
-219.54594 -637.3914 2039.0 1
-198.29956 -637.3914 2039.0 1
-177.05316 -637.3914 2039.0 1
-155.80676 -637.3914 2039.0 1
-93.738335 -648.9576 2076.0 1
-70.821266 -637.3914 2039.0 1
-49.28311 -633.6402 2027.0 1
-27.82832 -626.1378 2003.0 1
-6.9571133 -626.1378 2003.0 1
13.997586 -629.889 2015.0 1
34.99383 -629.889 2015.0 1
55.990078 -629.889 2015.0 1
76.98646 -629.889 2015.0 1
97.982704 -629.889 2015.0 1
118.97909 -629.889 2015.0 1
139.97533 -629.889 2015.0 1
160.97157 -629.889 2015.0 1
183.05164 -633.6402 2027.0 1
206.59036 -641.1426 2051.0 1
227.96187 -641.1426 2051.0 1
250.79202 -644.8938 2063.0 1
275.5881 -652.7088 2088.0 1
332.57166 -598.62897 1915.0 1
354.3668 -601.755 1925.0 1
372.4803 -598.62897 1915.0 1
394.4838 -601.755 1925.0 1
412.38892 -598.62897 1915.0 1
-220.83803 -662.514 2051.0 1
-198.29956 -658.63776 2039.0 1
-174.96916 -650.88525 2015.0 1
-155.80676 -658.63776 2039.0 1
-134.56038 -658.63776 2039.0 1
-93.15134 -666.3902 2063.0 1
-70.821266 -658.63776 2039.0 1
-48.991352 -650.88525 2015.0 1
-27.82832 -647.00903 2003.0 1
-6.9571133 -647.00903 2003.0 1
13.997586 -650.88525 2015.0 1
34.99383 -650.88525 2015.0 1
55.990078 -650.88525 2015.0 1
77.44494 -654.76154 2027.0 1
97.982704 -650.88525 2015.0 1
119.687645 -654.76154 2027.0 1
141.64253 -658.63776 2039.0 1
162.88885 -658.63776 2039.0 1
184.13531 -658.63776 2039.0 1
206.59036 -662.514 2051.0 1
229.29562 -666.3902 2063.0 1
252.37239 -670.5895 2076.0 1
279.01974 -682.86426 2114.0 1
334.30832 -621.8135 1925.0 1
352.5259 -618.58325 1915.0 1
372.4803 -618.58325 1915.0 1
392.43454 -618.58325 1915.0 1
-218.25388 -675.8828 2027.0 1
-195.96547 -671.88153 2015.0 1
-178.09517 -683.8854 2051.0 1
-156.72372 -683.8854 2051.0 1
-134.56038 -679.8841 2039.0 1
-92.6095 -683.8854 2051.0 1
-70.821266 -679.8841 2039.0 1
-48.991352 -671.88153 2015.0 1
-27.995039 -671.88153 2015.0 1
-6.9571133 -667.88025 2003.0 1
14.080947 -675.8828 2027.0 1
35.410633 -679.8841 2039.0 1
56.65696 -679.8841 2039.0 1
78.3619 -683.8854 2051.0 1
99.73326 -683.8854 2051.0 1
121.10477 -683.8854 2051.0 1
143.30974 -687.88666 2063.0 1
163.84749 -683.8854 2051.0 1
185.219 -683.8854 2051.0 1
207.79909 -687.88666 2063.0 1
229.29562 -687.88666 2063.0 1
253.83119 -696.22266 2088.0 1
314.24988 -641.87195 1925.0 1
332.57166 -638.53754 1915.0 1
350.50095 -634.8697 1904.0 1
370.3407 -634.8697 1904.0 1
388.13107 -631.53534 1894.0 1
-198.29956 -701.13055 2039.0 1
-178.09517 -705.2569 2051.0 1
-157.64069 -709.3832 2063.0 1
-134.56038 -701.13055 2039.0 1
-92.6095 -705.2569 2051.0 1
-70.821266 -701.13055 2039.0 1
-48.991352 -692.8779 2015.0 1
-27.995039 -692.8779 2015.0 1
-6.9571133 -688.7516 2003.0 1
14.080947 -697.0043 2027.0 1
35.619034 -705.2569 2051.0 1
57.685062 -713.8534 2076.0 1
80.27223 -722.4499 2101.0 1
102.1646 -722.4499 2101.0 1
124.0571 -722.4499 2101.0 1
144.2128 -713.8534 2076.0 1
164.80614 -709.3832 2063.0 1
186.30267 -709.3832 2063.0 1
207.79909 -709.3832 2063.0 1
232.0743 -717.97974 2088.0 1
253.83119 -717.97974 2088.0 1
314.24988 -661.93054 1925.0 1
332.57166 -658.49194 1915.0 1
348.6601 -651.2709 1894.0 1
366.25607 -647.4884 1883.0 1
388.13107 -651.2709 1894.0 1
407.86664 -651.2709 1894.0 1
-177.05316 -722.37695 2039.0 1
-157.64069 -730.87964 2063.0 1
-114.64781 -730.87964 2063.0 1
-92.6095 -726.6283 2051.0 1
-70.821266 -722.37695 2039.0 1
-49.28311 -718.12555 2027.0 1
-27.82832 -709.62286 2003.0 1
-6.9571133 -709.62286 2003.0 1
14.080947 -718.12555 2027.0 1
35.619034 -726.6283 2051.0 1
58.018505 -739.73663 2088.0 1
82.25898 -762.76483 2153.0 1
104.693184 -762.76483 2153.0 1
124.82471 -748.94794 2114.0 1
145.0464 -739.73663 2088.0 1
165.84467 -735.4853 2076.0 1
186.30267 -730.87964 2063.0 1
207.79909 -730.87964 2063.0 1
232.0743 -739.73663 2088.0 1
255.41156 -744.3423 2101.0 1
312.6174 -678.4462 1915.0 1
330.66132 -674.54913 1904.0 1
346.63513 -667.10925 1883.0 1
364.311 -663.56647 1873.0 1
388.13107 -671.00635 1894.0 1
407.86664 -671.00635 1894.0 1
-116.7596 -766.2347 2101.0 1
-93.15134 -752.3761 2063.0 1
-70.821266 -743.6233 2039.0 1
-49.57487 -743.6233 2039.0 1
-27.995039 -734.8705 2015.0 1
-6.998793 -734.8705 2015.0 1
14.164307 -743.6233 2039.0 1
35.619034 -747.9997 2051.0 1
58.37973 -766.2347 2101.0 1
83.328766 -795.4107 2181.0 1
105.373955 -790.3049 2167.0 1
124.82471 -770.97577 2114.0 1
145.94946 -766.2347 2101.0 1
166.8033 -761.4936 2088.0 1
187.47667 -757.1172 2076.0 1
210.31725 -761.4936 2088.0 1
234.96411 -770.97577 2114.0 1
256.99194 -770.97577 2114.0 1
312.6174 -698.4005 1915.0 1
328.92465 -690.74176 1894.0 1
346.63513 -686.7301 1883.0 1
364.311 -683.08307 1873.0 1
385.8769 -686.7301 1883.0 1
403.34436 -683.08307 1873.0 1
-118.204506 -797.8802 2127.0 1
-93.15134 -773.8725 2063.0 1
-70.821266 -764.8696 2039.0 1
-49.28311 -760.3682 2027.0 1
-28.161758 -760.3682 2027.0 1
-6.998793 -755.86676 2015.0 1
14.247667 -769.3711 2051.0 1
35.827435 -773.8725 2063.0 1
58.740955 -793.00366 2114.0 1
82.79388 -812.885 2167.0 1
105.373955 -812.885 2167.0 1
126.359924 -802.7568 2140.0 1
146.85252 -793.00366 2114.0 1
167.84183 -788.1271 2101.0 1
189.73433 -788.1271 2101.0 1
212.93614 -793.00366 2114.0 1
237.85391 -802.7568 2140.0 1
268.4192 -828.2649 2208.0 1
310.8217 -714.22845 1904.0 1
328.92465 -710.47723 1894.0 1
346.63513 -706.35095 1883.0 1
364.311 -702.59973 1873.0 1
383.8276 -702.59973 1873.0 1
-116.7596 -810.0195 2101.0 1
-93.15134 -795.36896 2063.0 1
-70.821266 -786.116 2039.0 1
-48.991352 -776.86304 2015.0 1
-27.995039 -776.86304 2015.0 1
-7.0404735 -781.4895 2027.0 1
14.247667 -790.7425 2051.0 1
36.0532 -800.381 2076.0 1
59.46341 -825.05554 2140.0 1
84.93345 -857.05536 2223.0 1
106.054726 -840.8627 2181.0 1
126.359924 -825.05554 2140.0 1
147.7556 -820.0435 2127.0 1
169.91888 -820.0435 2127.0 1
190.90833 -815.0315 2114.0 1
214.24559 -820.0435 2127.0 1
239.29883 -830.06757 2153.0 1
328.92465 -730.2127 1894.0 1
344.79428 -722.1164 1873.0 1
364.311 -722.1164 1873.0 1
383.8276 -722.1164 1873.0 1
-116.7596 -831.912 2101.0 1
-93.15134 -816.8655 2063.0 1
-70.821266 -807.3625 2039.0 1
-49.28311 -802.61096 2027.0 1
-28.161758 -802.61096 2027.0 1
-7.0821533 -807.3625 2039.0 1
14.331028 -816.8655 2063.0 1
36.487366 -831.912 2101.0 1
58.740955 -837.05945 2114.0 1
85.46834 -885.7626 2237.0 1
107.367645 -874.2797 2208.0 1
127.954185 -858.04535 2167.0 1
149.56174 -852.5019 2153.0 1
170.95741 -847.35443 2140.0 1
192.0823 -842.207 2127.0 1
216.86449 -852.5019 2153.0 1
327.0143 -745.5927 1883.0 1
344.79428 -741.6331 1873.0 1
-116.03715 -848.5214 2088.0 1
-93.15134 -838.36194 2063.0 1
-70.821266 -828.6088 2039.0 1
-49.57487 -828.6088 2039.0 1
-28.32848 -828.6088 2039.0 1
-7.0821533 -828.6088 2039.0 1
14.331028 -838.36194 2063.0 1
36.2616 -848.5214 2088.0 1
84.93345 -903.38275 2223.0 1
107.367645 -897.28705 2208.0 1
128.78084 -886.31476 2181.0 1
150.53427 -880.6255 2167.0 1
171.99593 -874.93616 2153.0 1
193.25629 -869.6532 2140.0 1
216.86449 -874.93616 2153.0 1
