ply
format ascii 1.0
comment : created from Kinect user tracker
element vertex 275
property float x
property float y
property float z
property int userId
end_header
1482.6617 114.78674 2754.0 1
1453.9652 86.09003 2754.0 1
1471.3561 85.43356 2733.0 1
1448.5571 58.331173 2799.0 1
1453.9652 57.39337 2754.0 1
1459.512 56.497253 2711.0 1
1442.7185 29.64487 2845.0 1
1460.4602 29.40521 2822.0 1
1466.1079 28.936312 2777.0 1
1459.512 28.248592 2711.0 1
1461.2521 0.0 2942.0 1
1442.7185 0.0 2845.0 1
1460.4602 0.0 2822.0 1
1466.1079 0.0 2777.0 1
1426.1333 0.0 2649.0 1
1448.835 -30.395111 2917.0 1
1454.889 -29.89495 2869.0 1
1472.3633 -29.64487 2845.0 1
1477.7228 -29.165552 2799.0 1
1415.366 -27.394154 2629.0 1
1461.2521 -61.311222 2942.0 1
1467.0596 -60.290062 2893.0 1
1472.3633 -59.28974 2845.0 1
1409.0897 -55.621906 2669.0 1
1404.5986 -54.371506 2609.0 1
1499.497 -94.374 3019.0 1
1479.2301 -91.18548 2917.0 1
1460.4602 -88.215775 2822.0 1
1398.5308 -82.80779 2649.0 1
1393.8313 -80.93219 2589.0 1
1467.0596 -120.58027 2893.0 1
1403.0148 -112.99451 2711.0 1
1398.5308 -110.41035 2649.0 1
1404.5986 -108.74314 2609.0 1
1408.2352 -144.6817 2777.0 1
1381.2786 -139.0549 2669.0 1
1398.5308 -138.0129 2649.0 1
1383.6023 -133.897 2570.0 1
1385.9225 -170.86713 2733.0 1
1381.2786 -166.86584 2669.0 1
1387.9718 -164.36505 2629.0 1
1383.6023 -160.67638 2570.0 1
1367.875 -200.87671 2754.0 1
1374.7662 -197.74028 2711.0 1
1370.9281 -193.218 2649.0 1
1377.4128 -190.3004 2609.0 1
1363.1444 -184.68402 2532.0 1
1357.4446 -227.82294 2733.0 1
1385.9225 -227.82294 2733.0 1
1360.5775 -219.15349 2629.0 1
1366.854 -215.81909 2589.0 1
1363.1444 -211.06757 2532.0 1
1328.9668 -256.30075 2733.0 1
1357.4446 -256.30075 2733.0 1
1353.4677 -250.29884 2669.0 1
1350.227 -244.67204 2609.0 1
1356.823 -241.01462 2570.0 1
1363.1444 -237.45097 2532.0 1
1339.1783 -286.9668 2754.0 1
1325.6566 -278.1098 2669.0 1
1343.3256 -276.0258 2649.0 1
1339.8765 -269.7738 2589.0 1
1356.823 -267.794 2570.0 1
1363.1444 -263.83438 2532.0 1
1339.1783 -315.66345 2754.0 1
1325.6566 -305.92075 2669.0 1
1333.1835 -301.33594 2629.0 1
1339.8765 -296.75116 2589.0 1
1346.792 -292.3956 2551.0 1
1353.4537 -288.15466 2514.0 1
1310.4818 -344.3601 2754.0 1
1328.9668 -341.73425 2733.0 1
1325.6566 -333.7317 2669.0 1
1323.0413 -326.2293 2609.0 1
1330.0435 -321.35275 2570.0 1
1336.761 -316.60123 2532.0 1
1353.4537 -314.3505 2514.0 1
1310.4818 -373.0569 2754.0 1
1328.9668 -370.21222 2733.0 1
1315.7229 -358.8336 2649.0 1
1323.0413 -353.4152 2609.0 1
1330.0435 -348.13223 2570.0 1
1336.761 -342.98477 2532.0 1
1353.4537 -340.54648 2514.0 1
1310.4818 -401.75354 2754.0 1
1328.9668 -398.69006 2733.0 1
1325.6566 -389.35373 2669.0 1
1323.0413 -380.60095 2609.0 1
1339.8765 -377.68335 2589.0 1
1346.792 -372.1399 2551.0 1
1363.1444 -369.36816 2532.0 1
1339.1783 -430.4502 2754.0 1
1325.6566 -417.1647 2669.0 1
1323.0413 -407.78668 2609.0 1
1339.8765 -404.6607 2589.0 1
1346.792 -398.72128 2551.0 1
1363.1444 -395.7516 2532.0 1
1342.8394 -470.4838 2822.0 1
1361.0604 -466.64923 2799.0 1
1325.6566 -444.97565 2669.0 1
1333.1835 -438.30685 2629.0 1
1339.8765 -431.63806 2589.0 1
1356.823 -428.47037 2570.0 1
1353.4537 -419.13403 2514.0 1
1353.7838 -503.96323 2845.0 1
1372.2445 -499.889 2822.0 1
1346.5175 -480.22647 2711.0 1
1353.4677 -472.7866 2669.0 1
1360.5775 -465.701 2629.0 1
1356.823 -455.24973 2570.0 1
1353.4537 -445.3299 2514.0 1
1376.6245 -542.61115 2893.0 1
1372.2445 -529.2944 2822.0 1
1367.875 -516.5403 2754.0 1
1353.4677 -500.5977 2669.0 1
1360.5775 -493.09528 2629.0 1
1366.854 -485.5929 2589.0 1
1373.3733 -478.4656 2551.0 1
1353.7838 -563.2531 2845.0 1
1383.4286 -563.2531 2845.0 1
1379.2988 -549.79047 2777.0 1
1385.9225 -541.07935 2733.0 1
1370.9281 -524.44904 2649.0 1
1366.854 -512.57025 2589.0 1
1383.6023 -508.80862 2570.0 1
1376.6245 -602.9012 2893.0 1
1383.4286 -592.898 2845.0 1
1379.2988 -578.7268 2777.0 1
1408.2352 -578.7268 2777.0 1
1381.2786 -556.2196 2669.0 1
1366.854 -539.5476 2589.0 1
1393.8313 -539.5476 2589.0 1
1393.022 -654.9282 2993.0 1
1388.0448 -638.2979 2917.0 1
1383.4286 -622.54285 2845.0 1
1413.0735 -622.54285 2845.0 1
1431.055 -617.51 2822.0 1
1414.4003 -598.03503 2733.0 1
1398.5308 -579.6541 2649.0 1
1393.8313 -566.52496 2589.0 1
1357.6495 -668.693 2917.0 1
1376.6245 -663.1912 2893.0 1
1383.4286 -652.18774 2845.0 1
1401.6497 -646.9152 2822.0 1
1419.3916 -641.6427 2799.0 1
1448.5571 -641.6427 2799.0 1
1420.1766 -616.6555 2690.0 1
1404.5986 -598.0871 2609.0 1
1369.2852 -705.0798 2942.0 1
1376.6245 -693.3364 2893.0 1
1395.099 -687.5846 2869.0 1
1401.6497 -676.32056 2822.0 1
1431.055 -676.32056 2822.0 1
1460.4602 -676.32056 2822.0 1
1442.8783 -654.99084 2733.0 1
1426.1333 -634.8594 2649.0 1
1361.835 -748.48944 2993.0 1
1369.2852 -735.73535 2942.0 1
1388.0448 -729.4834 2917.0 1
1383.4286 -711.4776 2845.0 1
1401.6497 -705.72577 2822.0 1
1431.055 -705.72577 2822.0 1
1472.3633 -711.4776 2845.0 1
1453.9652 -688.72034 2754.0 1
1448.2063 -672.7152 2690.0 1
1350.0048 -772.9035 2967.0 1
1357.6495 -759.8785 2917.0 1
1376.6245 -753.62646 2893.0 1
1395.099 -747.3745 2869.0 1
1413.0735 -741.1225 2845.0 1
1442.7185 -741.1225 2845.0 1
1436.9006 -695.2745 2669.0 1
1338.6296 -797.0466 2942.0 1
1357.6495 -790.2736 2917.0 1
1376.6245 -783.77155 2893.0 1
1383.4286 -770.76733 2845.0 1
1413.0735 -770.76733 2845.0 1
1471.3561 -740.4243 2733.0 1
1330.6478 -842.05054 2993.0 1
1338.6296 -827.7022 2942.0 1
1357.6495 -820.6687 2917.0 1
1376.6245 -813.91656 2893.0 1
1406.7694 -813.91656 2893.0 1
1436.9144 -813.91656 2893.0 1
1299.4608 -873.23773 2993.0 1
1319.0885 -865.652 2967.0 1
1338.6296 -858.358 2942.0 1
1346.4792 -844.0617 2893.0 1
1376.6245 -844.0617 2893.0 1
1406.7694 -844.0617 2893.0 1
1299.4608 -904.42474 2993.0 1
1307.9739 -889.01355 2942.0 1
1327.2545 -881.45905 2917.0 1
1357.6495 -881.45905 2917.0 1
1376.6245 -874.2067 2893.0 1
1448.2063 -812.8642 2690.0 1
1288.1725 -927.4842 2967.0 1
1307.9739 -919.6692 2942.0 1
1327.2545 -911.8542 2917.0 1
1357.6495 -911.8542 2917.0 1
1388.0448 -911.8542 2917.0 1
1482.6617 -860.9004 2754.0 1
1268.2738 -966.7988 2993.0 1
1277.3184 -950.32477 2942.0 1
1307.9739 -950.32477 2942.0 1
1338.6296 -950.32477 2942.0 1
1357.6495 -942.24927 2917.0 1
1471.3561 -882.8136 2733.0 1
1257.2565 -989.3164 2967.0 1
1277.3184 -980.9804 2942.0 1
1307.9739 -980.9804 2942.0 1
1327.2545 -972.6444 2917.0 1
1335.3091 -956.6393 2869.0 1
1477.7228 -933.29846 2799.0 1
1482.6617 -918.2937 2754.0 1
1247.8331 -1038.1134 3019.0 1
1257.2565 -1020.23267 2967.0 1
1288.1725 -1020.23267 2967.0 1
1307.9739 -1011.63617 2942.0 1
1327.2545 -1003.0397 2917.0 1
1453.9652 -946.9905 2754.0 1
1471.3561 -939.7694 2733.0 1
1227.2538 -1079.1368 3046.0 1
1226.3402 -1051.1488 2967.0 1
1246.6627 -1042.2917 2942.0 1
1277.3184 -1042.2917 2942.0 1
1307.9739 -1042.2917 2942.0 1
1350.0048 -1051.1488 2967.0 1
1425.2684 -975.68713 2754.0 1
1477.7228 -991.6297 2799.0 1
1495.0442 -983.8356 2777.0 1
1227.2538 -1110.8762 3046.0 1
1237.0867 -1091.5471 2993.0 1
1246.6627 -1072.9474 2942.0 1
1299.4608 -1091.5471 2993.0 1
1319.0885 -1082.0648 2967.0 1
1361.835 -1091.5471 2993.0 1
1430.2561 -1120.723 3073.0 1
1489.8656 -1029.1833 2822.0 1
1506.8883 -1020.7953 2799.0 1
1227.2538 -1142.6155 3046.0 1
1226.3402 -1112.981 2967.0 1
1246.6627 -1103.603 2942.0 1
1288.1725 -1112.981 2967.0 1
1342.207 -1132.4872 3019.0 1
1385.9503 -1142.6155 3046.0 1
1417.6896 -1142.6155 3046.0 1
1462.2769 -1152.7437 3073.0 1
1489.8656 -1058.5886 2822.0 1
1519.2708 -1058.5886 2822.0 1
1216.3752 -1163.9452 3019.0 1
1237.0867 -1153.9211 2993.0 1
1246.6627 -1134.2585 2942.0 1
1310.7491 -1163.9452 3019.0 1
1342.207 -1163.9452 3019.0 1
1373.6652 -1163.9452 3019.0 1
1417.6896 -1174.3547 3046.0 1
1449.429 -1174.3547 3046.0 1
1468.0391 -1163.9452 3019.0 1
1502.0083 -1096.8612 2845.0 1
1531.6532 -1096.8612 2845.0 1
1237.0867 -1185.1083 2993.0 1
1268.2738 -1185.1083 2993.0 1
1277.3184 -1164.9143 2942.0 1
1342.207 -1195.4033 3019.0 1
1373.6652 -1195.4033 3019.0 1
1424.2091 -1185.1083 2993.0 1
1548.9573 -1185.1083 2993.0 1
1514.6791 -1136.0093 2869.0 1
1531.6532 -1126.5062 2845.0 1
1216.007 -1195.57 2942.0 1
1236.0691 -1185.4105 2917.0 1
1522.5634 -1195.57 2942.0 1
1540.0205 -1185.4105 2917.0 1
1557.4948 -1175.6573 2893.0 1
