ply
format ascii 1.0
comment : created from Kinect user tracker
element vertex 750
property float x
property float y
property float z
property int userId
end_header
1128.7256 318.1643 2181.0 1
1158.3151 320.06073 2194.0 1
1159.1034 314.07965 2153.0 1
1089.7305 297.19922 2194.0 1
1112.592 297.19922 2194.0 1
1128.7256 295.43823 2181.0 1
1151.4517 295.43823 2181.0 1
1166.6405 293.5418 2167.0 1
1071.6067 281.5901 2252.0 1
1080.9708 277.96393 2223.0 1
1083.2736 272.71225 2181.0 1
1105.9996 272.71225 2181.0 1
1114.2349 269.21112 2153.0 1
1136.6692 269.21112 2153.0 1
1152.1046 267.5856 2140.0 1
1048.1407 258.1242 2252.0 1
1064.469 256.4049 2237.0 1
1080.9708 254.80023 2223.0 1
1089.7305 251.47626 2194.0 1
1098.9001 248.38152 2167.0 1
1107.507 245.28677 2140.0 1
1129.8059 245.28677 2140.0 1
1145.1058 243.7967 2127.0 1
1048.1407 234.6584 2252.0 1
1044.0076 228.61479 2194.0 1
1073.6768 230.0736 2208.0 1
1089.7305 228.61479 2194.0 1
1105.9996 227.2602 2181.0 1
1107.507 222.98799 2140.0 1
1138.107 220.2788 2114.0 1
1041.1594 209.78587 2237.0 1
1064.469 209.78587 2237.0 1
1066.869 205.75334 2194.0 1
1089.7305 205.75334 2194.0 1
1098.9001 203.22128 2167.0 1
1138.107 198.25093 2114.0 1
1034.6434 185.30927 2223.0 1
1057.8071 185.30927 2223.0 1
1066.869 182.89183 2194.0 1
1096.6841 184.05887 2208.0 1
1091.8007 179.47406 2153.0 1
1114.2349 179.47406 2153.0 1
1116.0793 176.22302 2114.0 1
1152.1046 178.39038 2140.0 1
1031.0452 165.28204 2266.0 1
1054.6567 165.28204 2266.0 1
1071.6067 164.2609 2252.0 1
1066.869 160.03036 2194.0 1
1089.7305 160.03036 2194.0 1
1105.9996 159.08215 2181.0 1
1121.4802 158.06099 2167.0 1
1129.8059 156.09161 2140.0 1
1152.1046 156.09161 2140.0 1
1031.0452 141.67029 2266.0 1
1054.6567 141.67029 2266.0 1
1064.469 139.85721 2237.0 1
1073.6768 138.04413 2208.0 1
1083.2736 136.3561 2181.0 1
1098.9001 135.48082 2167.0 1
1128.7256 136.3561 2181.0 1
1144.0604 135.48082 2167.0 1
1174.1777 136.3561 2181.0 1
926.89374 126.3946 2426.0 1
952.17255 126.3946 2426.0 1
963.75275 124.6232 2392.0 1
975.03754 122.9039 2359.0 1
992.8385 122.0703 2343.0 1
1003.79333 120.4552 2312.0 1
1027.8843 120.4552 2312.0 1
1045.1503 119.6737 2297.0 1
1054.6567 118.0586 2266.0 1
1071.6067 117.3292 2252.0 1
1080.9708 115.8183 2223.0 1
1083.2736 113.6301 2181.0 1
1127.2981 115.8183 2223.0 1
1142.6989 115.0368 2208.0 1
1165.7063 115.0368 2208.0 1
1181.1764 114.307396 2194.0 1
901.61487 101.1157 2426.0 1
920.39856 100.40714 2409.0 1
938.828 99.698586 2392.0 1
950.45685 98.32314 2359.0 1
968.4243 97.656265 2343.0 1
986.05853 96.98938 2327.0 1
997.2808 95.73898 2297.0 1
1014.1021 95.0721 2281.0 1
1045.1503 95.73898 2297.0 1
1054.6567 94.4469 2266.0 1
1071.6067 93.86338 2252.0 1
1087.7786 93.23818 2237.0 1
1104.1344 92.65466 2223.0 1
1142.0043 93.86338 2252.0 1
1165.47 93.86338 2252.0 1
1181.0167 93.23818 2237.0 1
1196.7891 92.65466 2223.0 1
895.2969 75.30533 2409.0 1
913.90344 74.77391 2392.0 1
932.5482 74.27375 2376.0 1
944.0103 73.242165 2343.0 1
955.6112 72.27311 2312.0 1
973.3461 71.80421 2297.0 1
997.2808 71.80421 2297.0 1
1001.2091 70.39751 2252.0 1
1024.675 70.39751 2252.0 1
1048.1407 70.39751 2252.0 1
1057.8071 69.49097 2223.0 1
1073.6768 69.022064 2208.0 1
1096.6841 69.022064 2208.0 1
1119.6915 69.022064 2208.0 1
1172.7153 70.835144 2266.0 1
1181.0167 69.928604 2237.0 1
888.61755 51.26641 2460.0 1
901.61487 50.55785 2426.0 1
920.39856 50.20357 2409.0 1
925.876 49.16157 2359.0 1
944.0103 48.828133 2343.0 1
949.4113 47.86949 2297.0 1
973.3461 47.86949 2297.0 1
997.2808 47.86949 2297.0 1
1007.4333 47.22345 2266.0 1
1017.8499 46.61909 2237.0 1
1041.1594 46.61909 2237.0 1
1044.0076 45.72297 2194.0 1
1066.869 45.72297 2194.0 1
1089.7305 45.72297 2194.0 1
1105.9996 45.45205 2181.0 1
862.98444 25.633175 2460.0 1
882.4767 25.456036 2443.0 1
901.61487 25.278896 2426.0 1
907.7904 24.757896 2376.0 1
919.5962 24.414036 2343.0 1
937.56384 24.247316 2327.0 1
949.4113 23.934717 2297.0 1
973.3461 23.934717 2297.0 1
997.2808 23.934717 2297.0 1
1007.4333 23.611696 2266.0 1
1011.47986 23.163637 2223.0 1
1034.6434 23.163637 2223.0 1
1044.0076 22.861458 2194.0 1
1060.5476 22.725998 2181.0 1
1083.2736 22.725998 2181.0 1
1098.9001 22.580118 2167.0 1
1107.507 22.298779 2140.0 1
1129.8059 22.298779 2140.0 1
875.61346 0.0 2496.0 1
882.4767 0.0 2443.0 1
895.2969 0.0 2409.0 1
907.7904 0.0 2376.0 1
919.5962 0.0 2343.0 1
937.56384 0.0 2327.0 1
949.4113 0.0 2297.0 1
966.56616 0.0 2281.0 1
990.33417 0.0 2281.0 1
1001.2091 0.0 2252.0 1
1011.47986 0.0 2223.0 1
1034.6434 0.0 2223.0 1
1044.0076 0.0 2194.0 1
1060.5476 0.0 2181.0 1
1069.3663 0.0 2153.0 1
1091.8007 0.0 2153.0 1
1107.507 0.0 2140.0 1
1122.9426 0.0 2127.0 1
1145.1058 0.0 2127.0 1
869.29895 -25.820734 2478.0 1
882.4767 -25.456036 2443.0 1
895.2969 -25.101755 2409.0 1
907.7904 -24.757896 2376.0 1
919.5962 -24.414036 2343.0 1
944.0103 -24.414036 2343.0 1
949.4113 -23.934717 2297.0 1
973.3461 -23.934717 2297.0 1
990.33417 -23.767998 2281.0 1
1001.2091 -23.465816 2252.0 1
1017.8499 -23.309517 2237.0 1
1027.662 -23.007338 2208.0 1
1044.0076 -22.861458 2194.0 1
1060.5476 -22.725998 2181.0 1
1076.32 -22.580118 2167.0 1
1078.6158 -22.163319 2127.0 1
1107.507 -22.298779 2140.0 1
1122.9426 -22.163319 2127.0 1
1138.107 -22.027859 2114.0 1
849.60504 -52.01659 2496.0 1
869.29895 -51.641468 2478.0 1
895.1196 -51.641468 2478.0 1
907.93286 -50.91207 2443.0 1
907.7904 -49.515793 2376.0 1
919.5962 -48.82807 2343.0 1
944.0103 -48.82807 2343.0 1
949.4113 -47.869434 2297.0 1
966.56616 -47.535995 2281.0 1
990.33417 -47.535995 2281.0 1
994.5403 -46.619034 2237.0 1
1011.47986 -46.327274 2223.0 1
1021.14606 -45.722916 2194.0 1
1037.8217 -45.451996 2181.0 1
1053.7399 -45.160236 2167.0 1
1062.9094 -44.597557 2140.0 1
1085.2083 -44.597557 2140.0 1
1100.7792 -44.326637 2127.0 1
1116.0793 -44.055717 2114.0 1
1138.107 -44.055717 2114.0 1
849.60504 -78.02501 2496.0 1
875.61346 -78.02501 2496.0 1
895.1196 -77.462326 2478.0 1
914.25085 -76.89965 2460.0 1
907.7904 -74.2738 2376.0 1
919.5962 -73.242226 2343.0 1
944.0103 -73.242226 2343.0 1
955.6112 -72.27316 2312.0 1
966.56616 -71.30411 2281.0 1
983.82166 -70.835205 2266.0 1
994.5403 -69.928665 2237.0 1
1004.6547 -69.022125 2208.0 1
1021.14606 -68.58448 2194.0 1
1037.8217 -68.1781 2181.0 1
1053.7399 -67.74046 2167.0 1
1062.9094 -66.89644 2140.0 1
1078.6158 -66.49006 2127.0 1
1100.7792 -66.49006 2127.0 1
1116.0793 -66.08368 2114.0 1
1131.1084 -65.6773 2101.0 1
867.48236 -109.576744 2629.0 1
849.60504 -104.0333 2496.0 1
875.61346 -104.0333 2496.0 1
895.1196 -103.283066 2478.0 1
914.25085 -102.53282 2460.0 1
913.90344 -99.698586 2392.0 1
925.876 -98.32314 2359.0 1
937.56384 -96.98938 2327.0 1
949.4113 -95.73898 2297.0 1
966.56616 -95.0721 2281.0 1
983.82166 -94.4469 2266.0 1
994.5403 -93.23818 2237.0 1
998.2846 -91.44594 2194.0 1
1021.14606 -91.44594 2194.0 1
1037.8217 -90.9041 2181.0 1
1053.7399 -90.32058 2167.0 1
1062.9094 -89.19522 2140.0 1
1078.6158 -88.65338 2127.0 1
1094.0513 -88.11154 2114.0 1
1109.216 -87.5697 2101.0 1
1124.1096 -87.02786 2088.0 1
841.74493 -132.9071 2551.0 1
855.732 -130.9794 2514.0 1
875.61346 -130.0416 2496.0 1
901.6217 -130.0416 2496.0 1
914.25085 -128.166 2460.0 1
913.90344 -124.6232 2392.0 1
925.876 -122.9039 2359.0 1
944.0103 -122.0703 2343.0 1
955.6112 -120.4552 2312.0 1
966.56616 -118.840096 2281.0 1
977.7433 -117.3292 2252.0 1
994.5403 -116.5477 2237.0 1
1004.6547 -115.0368 2208.0 1
1015.0955 -113.6301 2181.0 1
1031.1598 -112.900696 2167.0 1
1053.7399 -112.900696 2167.0 1
1062.9094 -111.493996 2140.0 1
1078.6158 -110.816696 2127.0 1
1094.0513 -110.1394 2114.0 1
1116.0793 -110.1394 2114.0 1
1131.1084 -109.4621 2101.0 1
841.74493 -159.4885 2551.0 1
861.85895 -158.30061 2532.0 1
881.928 -157.17525 2514.0 1
908.1238 -157.17525 2514.0 1
907.93286 -152.73633 2443.0 1
913.90344 -149.54782 2392.0 1
932.5482 -148.5475 2376.0 1
950.45685 -147.48465 2359.0 1
949.4113 -143.60841 2297.0 1
966.56616 -142.6081 2281.0 1
977.7433 -140.79501 2252.0 1
1001.2091 -140.79501 2252.0 1
1011.47986 -138.98193 2223.0 1
1021.14606 -137.16885 2194.0 1
1037.8217 -136.3561 2181.0 1
1053.7399 -135.48082 2167.0 1
1069.3663 -134.60553 2153.0 1
1078.6158 -132.98001 2127.0 1
1100.7792 -132.98001 2127.0 1
1109.216 -131.35449 2101.0 1
1124.1096 -130.54173 2088.0 1
848.01434 -187.45575 2570.0 1
861.85895 -184.68402 2532.0 1
888.2425 -184.68402 2532.0 1
908.1238 -183.37111 2514.0 1
901.61487 -176.9524 2426.0 1
920.39856 -175.7124 2409.0 1
932.5482 -173.30539 2376.0 1
950.45685 -172.06541 2359.0 1
949.4113 -167.54314 2297.0 1
973.3461 -167.54314 2297.0 1
990.33417 -166.3761 2281.0 1
1001.2091 -164.26083 2252.0 1
1011.47986 -162.14557 2223.0 1
1021.14606 -160.03032 2194.0 1
1037.8217 -159.08209 2181.0 1
1060.5476 -159.08209 2181.0 1
1069.3663 -157.03978 2153.0 1
1078.6158 -155.14334 2127.0 1
1087.3235 -153.2469 2101.0 1
1109.216 -153.2469 2101.0 1
1131.1084 -153.2469 2101.0 1
833.6973 -217.48628 2609.0 1
848.01434 -214.23524 2570.0 1
868.3263 -212.65141 2551.0 1
888.2425 -211.06757 2532.0 1
895.1196 -206.56613 2478.0 1
914.25085 -205.06564 2460.0 1
926.89374 -202.2314 2426.0 1
938.828 -199.39717 2392.0 1
950.45685 -196.64629 2359.0 1
949.4113 -191.47797 2297.0 1
973.3461 -191.47797 2297.0 1
990.33417 -190.1442 2281.0 1
1001.2091 -187.72676 2252.0 1
1017.8499 -186.47636 2237.0 1
1041.1594 -186.47636 2237.0 1
1057.8071 -185.30933 2223.0 1
1073.6768 -184.05891 2208.0 1
1069.3663 -179.47412 2153.0 1
1078.6158 -177.30676 2127.0 1
1100.7792 -177.30676 2127.0 1
1109.216 -175.1394 2101.0 1
1131.1084 -175.1394 2101.0 1
833.6973 -244.67204 2609.0 1
848.01434 -241.01462 2570.0 1
868.3263 -239.2328 2551.0 1
894.90784 -239.2328 2551.0 1
914.25085 -230.69882 2460.0 1
926.89374 -227.5103 2426.0 1
945.5003 -225.91605 2409.0 1
950.45685 -221.22704 2359.0 1
949.4113 -215.41267 2297.0 1
966.56616 -213.9122 2281.0 1
997.2808 -215.41267 2297.0 1
1007.4333 -212.5055 2266.0 1
1024.675 -211.19258 2252.0 1
1041.1594 -209.78587 2237.0 1
1064.469 -209.78587 2237.0 1
1080.9708 -208.47296 2223.0 1
1069.3663 -201.90836 2153.0 1
1078.6158 -199.47008 2127.0 1
1094.0513 -198.25093 2114.0 1
1109.216 -197.0318 2101.0 1
1131.1084 -197.0318 2101.0 1
840.08826 -273.9418 2629.0 1
848.01434 -267.794 2570.0 1
874.79364 -267.794 2570.0 1
894.90784 -265.8142 2551.0 1
920.9405 -258.20758 2478.0 1
926.89374 -252.7892 2426.0 1
938.828 -249.2464 2392.0 1
950.45685 -245.8078 2359.0 1
949.4113 -239.3474 2297.0 1
973.3461 -239.3474 2297.0 1
997.2808 -239.3474 2297.0 1
1007.4333 -236.1172 2266.0 1
1024.675 -234.6584 2252.0 1
1041.1594 -233.0954 2237.0 1
1057.8071 -231.6366 2223.0 1
1087.7786 -233.0954 2237.0 1
1076.32 -225.80139 2167.0 1
1078.6158 -221.63339 2127.0 1
1094.0513 -220.2788 2114.0 1
1102.3527 -217.5696 2088.0 1
1145.1058 -221.63339 2127.0 1
840.08826 -301.33594 2629.0 1
854.2837 -296.75116 2589.0 1
881.261 -296.75116 2589.0 1
901.6217 -286.0915 2496.0 1
920.9405 -284.02832 2478.0 1
926.89374 -278.06808 2426.0 1
938.828 -274.17102 2392.0 1
950.45685 -270.38855 2359.0 1
955.6112 -265.0014 2312.0 1
966.56616 -261.44818 2281.0 1
997.2808 -263.2821 2297.0 1
1021.2155 -263.2821 2297.0 1
1024.675 -258.1242 2252.0 1
1048.1407 -258.1242 2252.0 1
1071.6067 -258.1242 2252.0 1
1087.7786 -256.4049 2237.0 1
1083.2736 -249.98619 2181.0 1
1078.6158 -243.7967 2127.0 1
1094.0513 -242.30666 2114.0 1
1109.216 -240.81659 2101.0 1
1138.107 -242.30666 2114.0 1
840.08826 -328.7301 2629.0 1
860.883 -326.2293 2609.0 1
888.0687 -326.2293 2609.0 1
901.6217 -312.0998 2496.0 1
914.25085 -307.59836 2460.0 1
926.89374 -303.347 2426.0 1
938.828 -299.09564 2392.0 1
950.45685 -294.9693 2359.0 1
955.6112 -289.09244 2312.0 1
973.3461 -287.21683 2297.0 1
1003.79333 -289.09244 2312.0 1
1021.2155 -287.21683 2297.0 1
1037.8702 -285.2162 2281.0 1
1054.6567 -283.34058 2266.0 1
1071.6067 -281.59003 2252.0 1
1095.0725 -281.59003 2252.0 1
1104.1344 -277.96387 2223.0 1
1078.6158 -265.96002 2127.0 1
1087.3235 -262.70898 2101.0 1
1109.216 -262.70898 2101.0 1
1138.107 -264.3345 2114.0 1
846.4792 -358.8336 2649.0 1
867.48236 -356.1244 2629.0 1
894.87646 -356.1244 2629.0 1
908.1238 -340.54648 2514.0 1
920.9405 -335.66992 2478.0 1
926.89374 -328.626 2426.0 1
945.5003 -326.32318 2409.0 1
950.45685 -319.55017 2359.0 1
961.8111 -315.21545 2327.0 1
966.56616 -308.9843 2281.0 1
997.2808 -311.15167 2297.0 1
1021.2155 -311.15167 2297.0 1
1037.8702 -308.9843 2281.0 1
1061.6382 -308.9843 2281.0 1
1078.2686 -306.9524 2266.0 1
1095.0725 -305.05597 2252.0 1
1104.1344 -301.12762 2223.0 1
1078.6158 -288.12344 2127.0 1
1087.3235 -284.6015 2101.0 1
1109.216 -284.6015 2101.0 1
1131.1084 -284.6015 2101.0 1
852.8701 -389.35373 2669.0 1
880.681 -389.35373 2669.0 1
901.6217 -364.1165 2496.0 1
914.25085 -358.8648 2460.0 1
926.89374 -353.9049 2426.0 1
945.5003 -351.42493 2409.0 1
957.3063 -346.6109 2376.0 1
975.03754 -344.13095 2359.0 1
986.05853 -339.46277 2327.0 1
1003.79333 -337.27457 2312.0 1
1021.2155 -335.08636 2297.0 1
1037.8702 -332.7523 2281.0 1
1061.6382 -332.7523 2281.0 1
1078.2686 -330.5641 2266.0 1
1095.0725 -328.5218 2252.0 1
1111.088 -326.3336 2237.0 1
1085.2083 -312.18323 2140.0 1
1100.7792 -310.28677 2127.0 1
1102.3527 -304.59744 2088.0 1
1131.1084 -306.4939 2101.0 1
831.55066 -420.447 2690.0 1
866.2911 -423.72928 2711.0 1
887.6103 -420.447 2690.0 1
895.1196 -387.3114 2478.0 1
907.93286 -381.84088 2443.0 1
926.89374 -379.1838 2426.0 1
945.5003 -376.5267 2409.0 1
950.45685 -368.7117 2359.0 1
968.4243 -366.2109 2343.0 1
986.05853 -363.71008 2327.0 1
1003.79333 -361.3656 2312.0 1
1021.2155 -359.0211 2297.0 1
1045.1503 -359.0211 2297.0 1
1069.085 -359.0211 2297.0 1
1078.2686 -354.17578 2266.0 1
1101.8802 -354.17578 2266.0 1
1111.088 -349.6431 2237.0 1
1078.6158 -332.4501 2127.0 1
1094.0513 -330.41818 2114.0 1
1116.0793 -330.41818 2114.0 1
1138.107 -330.41818 2114.0 1
838.04236 -451.97787 2711.0 1
866.2911 -451.97787 2711.0 1
887.6103 -448.47678 2690.0 1
908.1238 -419.13403 2514.0 1
914.25085 -410.13116 2460.0 1
920.39856 -401.62845 2409.0 1
932.5482 -396.12668 2376.0 1
950.45685 -393.29245 2359.0 1
968.4243 -390.62494 2343.0 1
979.70233 -385.4566 2312.0 1
1003.79333 -385.4566 2312.0 1
1014.1021 -380.2883 2281.0 1
1037.8702 -380.2883 2281.0 1
1054.6567 -377.78748 2266.0 1
1078.2686 -377.78748 2266.0 1
1101.8802 -377.78748 2266.0 1
1072.0236 -352.44604 2114.0 1
1100.7792 -354.6134 2127.0 1
1109.216 -350.2787 2101.0 1
1124.1096 -348.11133 2088.0 1
844.84314 -484.12357 2733.0 1
866.2911 -480.22647 2711.0 1
887.6103 -476.50653 2690.0 1
901.6842 -469.2438 2649.0 1
908.1238 -445.3299 2514.0 1
914.25085 -435.76434 2460.0 1
926.89374 -429.74158 2426.0 1
938.828 -423.7188 2392.0 1
950.45685 -417.8732 2359.0 1
968.4243 -415.03897 2343.0 1
973.3461 -406.89053 2297.0 1
1003.79333 -409.54764 2312.0 1
1021.2155 -406.89053 2297.0 1
1037.8702 -404.05627 2281.0 1
1054.6567 -401.3992 2266.0 1
1078.2686 -401.3992 2266.0 1
1109.1742 -404.05627 2281.0 1
1140.8892 -406.89053 2297.0 1
1107.507 -379.07956 2140.0 1
1122.9426 -376.77673 2127.0 1
1124.1096 -369.8683 2088.0 1
822.6382 -516.5403 2754.0 1
844.84314 -512.6015 2733.0 1
866.2911 -508.47522 2711.0 1
887.6103 -504.53644 2690.0 1
908.1238 -471.52588 2514.0 1
907.93286 -458.2091 2443.0 1
926.89374 -455.0206 2426.0 1
945.5003 -451.8321 2409.0 1
950.45685 -442.45407 2359.0 1
961.8111 -436.45215 2327.0 1
979.70233 -433.63876 2312.0 1
1003.79333 -433.63876 2312.0 1
1021.2155 -430.82535 2297.0 1
1045.1503 -430.82535 2297.0 1
1054.6567 -425.011 2266.0 1
1078.2686 -425.011 2266.0 1
1116.9545 -430.82535 2297.0 1
1148.3395 -433.63876 2312.0 1
1156.7103 -427.8244 2281.0 1
1121.4802 -406.44257 2167.0 1
1122.9426 -398.94016 2127.0 1
1131.1084 -394.0636 2101.0 1
844.84314 -541.07935 2733.0 1
866.2911 -536.7238 2711.0 1
894.5396 -536.7238 2711.0 1
920.9405 -490.59445 2478.0 1
926.89374 -480.2995 2426.0 1
932.5482 -470.40048 2376.0 1
950.45685 -467.03482 2359.0 1
968.4243 -463.86716 2343.0 1
986.05853 -460.69946 2327.0 1
1003.79333 -457.72977 2312.0 1
1021.2155 -454.76007 2297.0 1
1045.1503 -454.76007 2297.0 1
1069.085 -454.76007 2297.0 1
1085.4062 -451.5924 2281.0 1
1116.9545 -454.76007 2297.0 1
1140.8892 -454.76007 2297.0 1
1129.8059 -423.67722 2140.0 1
1145.1058 -421.1035 2127.0 1
873.3211 -569.5572 2733.0 1
894.5396 -564.9724 2711.0 1
927.6301 -520.1664 2496.0 1
926.89374 -505.5784 2426.0 1
938.828 -498.4928 2392.0 1
950.45685 -491.6156 2359.0 1
968.4243 -488.2812 2343.0 1
986.05853 -484.94678 2327.0 1
1010.3058 -484.94678 2327.0 1
1027.8843 -481.8208 2312.0 1
1051.9755 -481.8208 2312.0 1
1069.085 -478.6948 2297.0 1
1093.0198 -478.6948 2297.0 1
1116.9545 -478.6948 2297.0 1
1155.7898 -484.94678 2327.0 1
1152.1046 -445.97598 2140.0 1
946.76117 -542.2359 2478.0 1
945.5003 -527.1373 2409.0 1
950.45685 -516.19635 2359.0 1
968.4243 -512.69525 2343.0 1
986.05853 -509.19412 2327.0 1
1010.3058 -509.19412 2327.0 1
1027.8843 -505.9118 2312.0 1
1051.9755 -505.9118 2312.0 1
1069.085 -502.62952 2297.0 1
1093.0198 -502.62952 2297.0 1
1116.9545 -502.62952 2297.0 1
1148.3395 -505.9118 2312.0 1
960.51556 -576.3093 2514.0 1
958.84485 -560.03326 2443.0 1
957.3063 -544.6742 2376.0 1
968.4243 -537.10925 2343.0 1
986.05853 -533.4414 2327.0 1
1010.3058 -533.4414 2327.0 1
1027.8843 -530.0028 2312.0 1
1051.9755 -530.0028 2312.0 1
1069.085 -526.5642 2297.0 1
1093.0198 -526.5642 2297.0 1
1116.9545 -526.5642 2297.0 1
1140.8892 -526.5642 2297.0 1
981.9113 -615.9263 2570.0 1
979.6466 -598.1914 2496.0 1
957.3063 -569.4322 2376.0 1
975.03754 -565.358 2359.0 1
992.8385 -561.52344 2343.0 1
1017.2525 -561.52344 2343.0 1
1034.5531 -557.68884 2327.0 1
1051.9755 -554.09393 2312.0 1
1076.0664 -554.09393 2312.0 1
1100.1576 -554.09393 2312.0 1
1124.2485 -554.09393 2312.0 1
1163.7368 -561.52344 2343.0 1
1004.45325 -657.4603 2629.0 1
1016.1479 -647.45715 2589.0 1
977.4516 -606.6941 2426.0 1
988.6773 -598.19135 2392.0 1
999.6184 -589.9387 2359.0 1
1017.2525 -585.93744 2343.0 1
1034.5531 -581.93616 2327.0 1
1051.9755 -578.185 2312.0 1
1076.0664 -578.185 2312.0 1
1107.2953 -581.93616 2327.0 1
1131.5425 -581.93616 2327.0 1
1163.7368 -585.93744 2343.0 1
1060.9991 -723.4085 2777.0 1
1064.0312 -706.2155 2711.0 1
977.4516 -631.97296 2426.0 1
988.6773 -623.11597 2392.0 1
1006.82214 -618.948 2376.0 1
1024.1991 -614.5195 2359.0 1
1041.6665 -610.3515 2343.0 1
1066.0807 -610.3515 2343.0 1
1083.0479 -606.1835 2327.0 1
1114.9088 -610.3515 2343.0 1
1139.3228 -610.3515 2343.0 1
1069.4045 -758.30505 2799.0 1
1080.9082 -746.11365 2754.0 1
984.301 -661.85754 2443.0 1
995.7039 -652.64624 2409.0 1
1006.82214 -643.7059 2376.0 1
1031.58 -643.7059 2376.0 1
1048.7799 -639.1002 2359.0 1
1073.3607 -639.1002 2359.0 1
1097.9414 -639.1002 2359.0 1
1122.5223 -639.1002 2359.0 1
1147.103 -639.1002 2359.0 1
1069.4045 -787.4706 2799.0 1
972.58185 -697.16046 2478.0 1
991.1504 -692.0963 2460.0 1
995.7039 -677.748 2409.0 1
1013.60205 -672.9652 2392.0 1
1031.58 -668.4638 2376.0 1
1056.3379 -668.4638 2376.0 1
1073.3607 -663.681 2359.0 1
1097.9414 -663.681 2359.0 1
1130.6117 -668.4638 2376.0 1
1048.787 -823.34674 2822.0 1
1069.4045 -816.6363 2799.0 1
979.6466 -728.233 2496.0 1
998.4027 -722.9813 2478.0 1
1002.73047 -707.8098 2426.0 1
1013.60205 -697.88995 2392.0 1
1031.58 -693.2218 2376.0 1
1056.3379 -693.2218 2376.0 1
1081.0958 -693.2218 2376.0 1
1105.8538 -693.2218 2376.0 1
1138.2252 -697.88995 2392.0 1
1048.787 -852.75195 2822.0 1
1060.9991 -839.1539 2777.0 1
986.71136 -759.68054 2514.0 1
998.4027 -748.80206 2478.0 1
1002.73047 -733.0887 2426.0 1
1020.8058 -727.95166 2409.0 1
1038.5266 -722.8146 2392.0 1
1063.4512 -722.8146 2392.0 1
1088.376 -722.8146 2392.0 1
1121.2128 -727.95166 2409.0 1
1040.2391 -874.9674 2799.0 1
1069.4045 -874.9674 2799.0 1
986.71136 -785.8764 2514.0 1
998.4027 -774.6228 2478.0 1
1009.757 -763.68176 2443.0 1
1020.8058 -753.0534 2409.0 1
1053.2883 -758.3676 2426.0 1
1071.0092 -753.0534 2409.0 1
1096.1111 -753.0534 2409.0 1
1113.3005 -747.7392 2392.0 1
1057.3348 -918.9919 2845.0 1
1069.4045 -904.13293 2799.0 1
986.71136 -812.07227 2514.0 1
998.4027 -800.44354 2478.0 1
1009.757 -789.1378 2443.0 1
1028.0094 -783.6465 2426.0 1
1053.2883 -783.6465 2426.0 1
1078.5671 -783.6465 2426.0 1
1103.8462 -783.6465 2426.0 1
1066.2544 -956.6393 2869.0 1
1069.4045 -933.29846 2799.0 1
979.6466 -832.2662 2496.0 1
998.4027 -826.2643 2478.0 1
1009.757 -814.5939 2443.0 1
1028.0094 -808.92535 2426.0 1
1060.6692 -814.5939 2443.0 1
1086.1251 -814.5939 2443.0 1
1036.3593 -986.53436 2869.0 1
1057.3348 -978.28174 2845.0 1
967.39276 -870.65356 2532.0 1
979.6466 -858.2746 2496.0 1
991.1504 -845.8956 2460.0 1
1016.78357 -845.8956 2460.0 1
1028.0094 -834.2044 2426.0 1
1068.0499 -845.8956 2460.0 1
1093.6831 -845.8956 2460.0 1
1036.3593 -1016.4293 2869.0 1
1048.787 -999.7782 2822.0 1
960.51556 -890.6599 2514.0 1
979.6466 -884.2829 2496.0 1
991.1504 -871.5288 2460.0 1
1009.757 -865.50604 2443.0 1
1035.2131 -865.50604 2443.0 1
1075.865 -877.9058 2478.0 1
1109.6882 -884.2829 2496.0 1
1045.0287 -1055.077 2893.0 1
955.13196 -937.279 2570.0 1
953.63837 -910.2912 2496.0 1
972.58185 -903.72656 2478.0 1
998.4027 -903.72656 2478.0 1
1009.757 -890.9621 2443.0 1
1042.4169 -897.162 2460.0 1
1075.865 -903.72656 2478.0 1
941.0094 -949.8038 2532.0 1
953.63837 -936.2995 2496.0 1
972.58185 -929.5473 2478.0 1
991.1504 -922.79517 2460.0 1
1016.78357 -922.79517 2460.0 1
1042.4169 -922.79517 2460.0 1
934.31976 -969.2475 2514.0 1
946.76117 -955.36804 2478.0 1
972.58185 -955.36804 2478.0 1
991.1504 -948.42834 2460.0 1
1024.2234 -955.36804 2478.0 1
1042.4169 -948.42834 2460.0 1
928.3525 -1017.61725 2570.0 1
927.6301 -988.31616 2496.0 1
946.76117 -981.1889 2478.0 1
965.5171 -974.06165 2460.0 1
998.4027 -981.1889 2478.0 1
1024.2234 -981.1889 2478.0 1
881.928 -1021.63934 2514.0 1
908.1238 -1021.63934 2514.0 1
934.31976 -1021.63934 2514.0 1
953.63837 -1014.32446 2496.0 1
972.58185 -1007.00964 2478.0 1
991.1504 -999.6948 2460.0 1
1024.2234 -1007.00964 2478.0 1
