ply
format ascii 1.0
comment : created from Kinect user tracker
element vertex 858
property float x
property float y
property float z
property int userId
end_header
177.588 393.78223 2223.0 1
154.4244 370.61853 2223.0 1
176.3897 368.11774 2208.0 1
198.13286 365.78366 2194.0 1
245.4119 368.11774 2208.0 1
108.097046 347.4549 2223.0 1
129.54845 342.92218 2194.0 1
150.53427 338.7021 2167.0 1
171.99593 336.5139 2153.0 1
194.43028 336.5139 2153.0 1
218.27466 338.7021 2167.0 1
243.85583 342.92218 2194.0 1
265.1369 340.8903 2181.0 1
87.14944 332.7523 2281.0 1
106.686874 320.06073 2194.0 1
127.127525 314.07965 2153.0 1
151.50679 318.1643 2181.0 1
173.11435 316.12198 2167.0 1
194.43028 314.07965 2153.0 1
216.86449 314.07965 2153.0 1
239.29883 314.07965 2153.0 1
265.1369 318.1643 2181.0 1
289.57867 320.06073 2194.0 1
84.93345 301.12756 2223.0 1
107.367645 299.09567 2208.0 1
127.954185 293.5418 2167.0 1
151.50679 295.43823 2181.0 1
173.11435 293.5418 2167.0 1
194.43028 291.64536 2153.0 1
216.86449 291.64536 2153.0 1
239.29883 291.64536 2153.0 1
263.43497 293.5418 2167.0 1
291.42648 299.09567 2208.0 1
84.93345 277.96393 2223.0 1
107.367645 276.08832 2208.0 1
130.37509 276.08832 2208.0 1
151.50679 272.71225 2181.0 1
171.99593 269.21112 2153.0 1
194.43028 269.21112 2153.0 1
218.27466 270.9617 2167.0 1
240.85487 270.9617 2167.0 1
266.71725 274.33777 2194.0 1
295.25412 279.71448 2237.0 1
62.964527 259.72888 2266.0 1
85.46834 256.4049 2237.0 1
108.097046 254.80023 2223.0 1
130.37509 253.08093 2208.0 1
151.50679 249.98619 2181.0 1
173.11435 248.38152 2167.0 1
195.69456 248.38152 2167.0 1
218.27466 248.38152 2167.0 1
240.85487 248.38152 2167.0 1
271.94464 256.4049 2237.0 1
297.23392 258.1242 2252.0 1
324.82962 261.44818 2281.0 1
86.57633 236.1172 2266.0 1
109.507225 234.6584 2252.0 1
130.37509 230.0736 2208.0 1
152.40987 228.61479 2194.0 1
174.23276 227.2602 2181.0 1
195.69456 225.80139 2167.0 1
219.68483 227.2602 2181.0 1
245.4119 230.0736 2208.0 1
270.2427 231.6366 2223.0 1
299.08173 236.1172 2266.0 1
324.82962 237.68019 2281.0 1
87.76074 215.41267 2297.0 1
110.9174 213.9122 2281.0 1
131.2608 208.47296 2223.0 1
153.3824 207.06625 2208.0 1
174.23276 204.5342 2181.0 1
195.69456 203.22128 2167.0 1
219.68483 204.5342 2181.0 1
245.4119 207.06625 2208.0 1
271.94464 209.78587 2237.0 1
305.1531 216.81938 2312.0 1
93.988434 205.06558 2460.0 1
112.42482 192.7283 2312.0 1
132.08745 186.4763 2237.0 1
153.3824 184.05887 2208.0 1
175.27129 182.89183 2194.0 1
196.95886 181.80815 2181.0 1
222.40445 184.05887 2208.0 1
245.4119 184.05887 2208.0 1
281.06213 192.7283 2312.0 1
43.659798 183.37117 2514.0 1
68.35513 179.4324 2460.0 1
93.33892 178.19243 2443.0 1
117.14161 175.71246 2409.0 1
139.29115 172.06548 2359.0 1
154.4244 162.14563 2223.0 1
176.3897 161.05153 2208.0 1
199.39714 161.05153 2208.0 1
223.91534 162.14563 2223.0 1
253.5256 166.37614 2281.0 1
284.8307 170.89842 2343.0 1
17.088865 153.79918 2460.0 1
42.722 153.79918 2460.0 1
67.88276 152.73633 2443.0 1
92.68941 151.6735 2426.0 1
117.14161 150.61066 2409.0 1
139.29115 147.48465 2359.0 1
158.45346 142.6081 2281.0 1
177.588 138.98193 2223.0 1
199.39714 138.04413 2208.0 1
226.83643 140.79501 2252.0 1
260.4167 146.48433 2343.0 1
284.8307 146.48433 2343.0 1
309.2447 146.48433 2343.0 1
333.65884 146.48433 2343.0 1
-36.247673 135.9289 2609.0 1
-8.544433 128.166 2460.0 1
17.213905 129.10379 2478.0 1
42.722 128.166 2460.0 1
67.410385 126.3946 2426.0 1
92.03989 125.508896 2409.0 1
115.53693 123.7896 2376.0 1
139.29115 122.9039 2359.0 1
161.64893 121.236694 2327.0 1
183.4996 119.6737 2297.0 1
210.14365 121.236694 2327.0 1
234.39091 121.236694 2327.0 1
260.4167 122.0703 2343.0 1
284.8307 122.0703 2343.0 1
307.1329 121.236694 2327.0 1
333.65884 122.0703 2343.0 1
355.62762 121.236694 2327.0 1
-8.606953 103.283066 2478.0 1
17.213905 103.283066 2478.0 1
42.426765 101.824265 2443.0 1
66.93801 100.40714 2409.0 1
91.39037 99.698586 2392.0 1
114.71027 98.32314 2359.0 1
138.3464 97.656265 2343.0 1
162.76039 97.656265 2343.0 1
185.89621 96.98938 2327.0 1
210.14365 96.98938 2327.0 1
234.39091 96.98938 2327.0 1
256.97116 96.36418 2312.0 1
282.88562 96.98938 2327.0 1
307.1329 96.98938 2327.0 1
329.24423 96.36418 2312.0 1
355.62762 96.98938 2327.0 1
377.42636 96.36418 2312.0 1
401.51733 96.36418 2312.0 1
-8.731993 78.58762 2514.0 1
17.088865 76.89959 2460.0 1
42.13153 75.83675 2426.0 1
66.465645 74.77391 2392.0 1
90.77907 74.27375 2376.0 1
114.71027 73.742325 2359.0 1
137.40166 72.742004 2327.0 1
161.64893 72.742004 2327.0 1
185.89621 72.742004 2327.0 1
208.78905 72.27311 2312.0 1
232.88002 72.27311 2312.0 1
256.97116 72.27311 2312.0 1
281.06213 72.27311 2312.0 1
303.1733 71.80421 2297.0 1
327.10812 71.80421 2297.0 1
353.3352 72.27311 2312.0 1
374.97766 71.80421 2297.0 1
401.51733 72.27311 2312.0 1
428.3696 72.742004 2327.0 1
-34.927807 52.391773 2514.0 1
-8.731993 52.391773 2514.0 1
17.213905 51.641533 2478.0 1
42.13153 50.55785 2426.0 1
66.465645 49.849293 2392.0 1
90.77907 49.51585 2376.0 1
113.93224 48.828133 2343.0 1
137.40166 48.49469 2327.0 1
161.64893 48.49469 2327.0 1
184.6979 48.18209 2312.0 1
208.78905 48.18209 2312.0 1
231.36913 47.86949 2297.0 1
255.30396 47.86949 2297.0 1
279.23862 47.86949 2297.0 1
303.1733 47.86949 2297.0 1
327.10812 47.86949 2297.0 1
348.5976 47.53605 2281.0 1
374.97766 47.86949 2297.0 1
398.91232 47.86949 2297.0 1
425.6083 48.18209 2312.0 1
-34.677727 26.008295 2496.0 1
-8.731993 26.195854 2514.0 1
17.213905 25.820734 2478.0 1
41.8363 25.101755 2409.0 1
66.02106 24.757896 2376.0 1
90.129555 24.580755 2359.0 1
113.93224 24.414036 2343.0 1
137.40166 24.247316 2327.0 1
160.60693 24.091017 2312.0 1
183.4996 23.934717 2297.0 1
208.78905 24.091017 2312.0 1
231.36913 23.934717 2297.0 1
255.30396 23.934717 2297.0 1
279.23862 23.934717 2297.0 1
303.1733 23.934717 2297.0 1
324.82962 23.767998 2281.0 1
351.04282 23.934717 2297.0 1
372.3657 23.767998 2281.0 1
398.91232 23.934717 2297.0 1
425.6083 24.091017 2312.0 1
-35.177887 0.0 2532.0 1
-8.794514 0.0 2532.0 1
17.213905 0.0 2478.0 1
41.8363 0.0 2409.0 1
66.02106 0.0 2376.0 1
90.129555 0.0 2359.0 1
113.93224 0.0 2343.0 1
137.40166 0.0 2327.0 1
161.64893 0.0 2327.0 1
184.6979 0.0 2312.0 1
207.43443 0.0 2297.0 1
231.36913 0.0 2297.0 1
255.30396 0.0 2297.0 1
277.29355 0.0 2281.0 1
301.06152 0.0 2281.0 1
324.82962 0.0 2281.0 1
348.5976 0.0 2281.0 1
377.42636 0.0 2312.0 1
401.51733 0.0 2312.0 1
428.3696 0.0 2327.0 1
-35.705833 -26.779373 2570.0 1
-8.860507 -26.581394 2551.0 1
17.463985 -26.195854 2514.0 1
41.8363 -25.101755 2409.0 1
66.465645 -24.924616 2392.0 1
89.51825 -24.414036 2343.0 1
113.15422 -24.247316 2327.0 1
137.40166 -24.247316 2327.0 1
161.64893 -24.247316 2327.0 1
184.6979 -24.091017 2312.0 1
207.43443 -23.934717 2297.0 1
229.75749 -23.767998 2281.0 1
253.5256 -23.767998 2281.0 1
277.29355 -23.767998 2281.0 1
301.06152 -23.767998 2281.0 1
327.10812 -23.934717 2297.0 1
351.04282 -23.934717 2297.0 1
379.87506 -24.247316 2327.0 1
401.51733 -24.091017 2312.0 1
431.315 -24.414036 2343.0 1
449.69943 -24.091017 2312.0 1
-36.52554 -54.788307 2629.0 1
-9.061961 -54.371506 2609.0 1
17.98499 -53.95471 2589.0 1
41.8363 -50.20351 2409.0 1
66.465645 -49.84923 2392.0 1
89.51825 -48.82807 2343.0 1
113.93224 -48.82807 2343.0 1
137.40166 -48.494633 2327.0 1
161.64893 -48.494633 2327.0 1
185.89621 -48.494633 2327.0 1
207.43443 -47.869434 2297.0 1
231.36913 -47.869434 2297.0 1
253.5256 -47.535995 2281.0 1
277.29355 -47.535995 2281.0 1
303.1733 -47.869434 2297.0 1
327.10812 -47.869434 2297.0 1
355.62762 -48.494633 2327.0 1
379.87506 -48.494633 2327.0 1
404.1223 -48.494633 2327.0 1
428.3696 -48.494633 2327.0 1
-36.803406 -82.80779 2649.0 1
-9.061961 -81.55739 2609.0 1
18.262856 -82.182594 2629.0 1
42.722 -76.89965 2460.0 1
66.465645 -74.773964 2392.0 1
90.77907 -74.2738 2376.0 1
113.93224 -73.242226 2343.0 1
138.3464 -73.242226 2343.0 1
161.64893 -72.742065 2327.0 1
184.6979 -72.27316 2312.0 1
205.98953 -71.30411 2281.0 1
231.36913 -71.80427 2297.0 1
255.30396 -71.80427 2297.0 1
277.29355 -71.30411 2281.0 1
303.1733 -71.80427 2297.0 1
331.38034 -72.742065 2327.0 1
358.07285 -73.242226 2343.0 1
379.87506 -72.742065 2327.0 1
404.1223 -72.742065 2327.0 1
431.315 -73.242226 2343.0 1
455.72916 -73.242226 2343.0 1
-64.892265 -111.24394 2669.0 1
-37.081272 -111.24394 2669.0 1
-9.131428 -109.576744 2629.0 1
18.40179 -110.41035 2649.0 1
44.302364 -106.32571 2551.0 1
66.93801 -100.40714 2409.0 1
90.77907 -99.0317 2376.0 1
114.71027 -98.32314 2359.0 1
138.3464 -97.656265 2343.0 1
161.64893 -96.98938 2327.0 1
184.6979 -96.36418 2312.0 1
208.78905 -96.36418 2312.0 1
231.36913 -95.73898 2297.0 1
255.30396 -95.73898 2297.0 1
279.23862 -95.73898 2297.0 1
305.1531 -96.36418 2312.0 1
333.65884 -97.656265 2343.0 1
363.11612 -99.0317 2376.0 1
382.487 -97.656265 2343.0 1
406.901 -97.656265 2343.0 1
431.315 -97.656265 2343.0 1
458.84125 -98.32314 2359.0 1
-65.40285 -140.149 2690.0 1
-37.081272 -139.0549 2669.0 1
-9.270362 -139.0549 2669.0 1
18.686604 -140.149 2690.0 1
43.0346 -129.10379 2478.0 1
67.410385 -126.3946 2426.0 1
91.39037 -124.6232 2392.0 1
114.71027 -122.9039 2359.0 1
138.3464 -122.0703 2343.0 1
162.76039 -122.0703 2343.0 1
185.89621 -121.236694 2327.0 1
210.14365 -121.236694 2327.0 1
232.88002 -120.4552 2312.0 1
256.97116 -120.4552 2312.0 1
282.88562 -121.236694 2327.0 1
309.2447 -122.0703 2343.0 1
335.93735 -122.9039 2359.0 1
363.11612 -123.7896 2376.0 1
385.09894 -122.9039 2359.0 1
409.67966 -122.9039 2359.0 1
437.38986 -123.7896 2376.0 1
465.25998 -124.6232 2392.0 1
-65.91343 -169.49168 2711.0 1
-37.37303 -168.17877 2690.0 1
-9.270362 -166.86584 2669.0 1
18.686604 -168.17877 2690.0 1
43.3472 -156.0499 2496.0 1
67.88276 -152.73633 2443.0 1
91.39037 -149.54782 2392.0 1
114.71027 -147.48465 2359.0 1
138.3464 -146.48433 2343.0 1
162.76039 -146.48433 2343.0 1
185.89621 -145.48401 2327.0 1
210.14365 -145.48401 2327.0 1
234.39091 -145.48401 2327.0 1
258.63834 -145.48401 2327.0 1
286.77576 -147.48465 2359.0 1
311.35648 -147.48465 2359.0 1
340.63678 -149.54782 2392.0 1
368.1594 -150.61066 2409.0 1
390.48608 -149.54782 2392.0 1
409.67966 -147.48465 2359.0 1
440.33524 -149.54782 2392.0 1
-65.40285 -196.20854 2690.0 1
-37.37303 -196.20854 2690.0 1
-9.343302 -196.20854 2690.0 1
18.832485 -197.74028 2711.0 1
43.3472 -182.05818 2496.0 1
68.35513 -179.43234 2460.0 1
91.39037 -174.47243 2392.0 1
115.53693 -173.30539 2376.0 1
138.3464 -170.89838 2343.0 1
162.76039 -170.89838 2343.0 1
185.89621 -169.73132 2327.0 1
211.58855 -170.89838 2343.0 1
236.00255 -170.89838 2343.0 1
260.4167 -170.89838 2343.0 1
288.8424 -173.30539 2376.0 1
315.71204 -174.47243 2392.0 1
345.4786 -176.9524 2426.0 1
370.75745 -176.9524 2426.0 1
390.48608 -174.47243 2392.0 1
415.41064 -174.47243 2392.0 1
440.33524 -174.47243 2392.0 1
-94.9262 -227.82294 2733.0 1
-65.91343 -225.98901 2711.0 1
-37.37303 -224.23845 2690.0 1
-9.416243 -225.98901 2711.0 1
43.0346 -206.56613 2478.0 1
67.88276 -203.64853 2443.0 1
92.03989 -200.81429 2409.0 1
115.53693 -198.0634 2376.0 1
139.29115 -196.64629 2359.0 1
163.87186 -196.64629 2359.0 1
187.1744 -195.31253 2343.0 1
213.03345 -196.64629 2359.0 1
237.61417 -196.64629 2359.0 1
262.19504 -196.64629 2359.0 1
290.78748 -199.39717 2392.0 1
315.71204 -199.39717 2392.0 1
347.8995 -203.64853 2443.0 1
373.3555 -203.64853 2443.0 1
390.48608 -199.39717 2392.0 1
415.41064 -199.39717 2392.0 1
443.46472 -200.81429 2409.0 1
-94.9262 -256.30075 2733.0 1
-65.40285 -252.26822 2690.0 1
-37.66479 -254.23761 2711.0 1
-9.492656 -256.30075 2733.0 1
43.659798 -235.76294 2514.0 1
67.88276 -229.10455 2443.0 1
92.03989 -225.91605 2409.0 1
115.53693 -222.8213 2376.0 1
140.29494 -222.8213 2376.0 1
163.87186 -221.22704 2359.0 1
188.45258 -221.22704 2359.0 1
213.03345 -221.22704 2359.0 1
239.32652 -222.8213 2376.0 1
265.86288 -224.32178 2392.0 1
292.8541 -225.91605 2409.0 1
317.9558 -225.91605 2409.0 1
352.88376 -232.38686 2478.0 1
375.95355 -230.69882 2460.0 1
398.81168 -229.10455 2443.0 1
418.363 -225.91605 2409.0 1
443.46472 -225.91605 2409.0 1
462.14786 -222.8213 2376.0 1
-95.6556 -286.9668 2754.0 1
-65.91343 -282.4862 2711.0 1
-37.66479 -282.4862 2711.0 1
44.302364 -265.8142 2551.0 1
68.35513 -256.332 2460.0 1
92.68941 -252.7892 2426.0 1
117.14161 -251.01779 2409.0 1
141.23969 -249.2464 2392.0 1
163.87186 -245.8078 2359.0 1
189.81065 -247.5792 2376.0 1
214.56866 -247.5792 2376.0 1
240.93816 -249.2464 2392.0 1
265.86288 -249.2464 2392.0 1
292.8541 -251.01779 2409.0 1
320.1996 -252.7892 2426.0 1
350.32043 -256.332 2460.0 1
384.2062 -261.9588 2514.0 1
401.58685 -256.332 2460.0 1
418.363 -251.01779 2409.0 1
443.46472 -251.01779 2409.0 1
462.14786 -247.5792 2376.0 1
-124.352295 -315.66345 2754.0 1
-95.6556 -315.66345 2754.0 1
-66.44832 -313.25644 2733.0 1
18.123922 -299.04355 2609.0 1
44.302364 -292.3956 2551.0 1
68.35513 -281.96518 2460.0 1
92.68941 -278.06808 2426.0 1
117.14161 -276.11954 2409.0 1
141.23969 -274.17102 2392.0 1
166.16426 -274.17102 2392.0 1
189.81065 -272.3371 2376.0 1
214.56866 -272.3371 2376.0 1
242.6505 -276.11954 2409.0 1
267.75238 -276.11954 2409.0 1
292.8541 -276.11954 2409.0 1
322.44336 -280.01663 2443.0 1
350.32043 -281.96518 2460.0 1
401.58685 -281.96518 2460.0 1
418.363 -276.11954 2409.0 1
443.46472 -276.11954 2409.0 1
-125.39082 -347.23602 2777.0 1
-95.6556 -344.3601 2754.0 1
-66.44832 -341.73425 2733.0 1
18.262856 -328.7301 2629.0 1
44.302364 -318.977 2551.0 1
68.85529 -309.84906 2478.0 1
93.33892 -305.47266 2443.0 1
117.96826 -303.347 2426.0 1
142.24348 -301.2213 2409.0 1
166.16426 -299.09564 2392.0 1
191.08884 -299.09564 2392.0 1
216.01358 -299.09564 2392.0 1
242.6505 -301.2213 2409.0 1
267.75238 -301.2213 2409.0 1
294.92072 -303.347 2426.0 1
324.68713 -307.59836 2460.0 1
350.32043 -307.59836 2460.0 1
398.81168 -305.47266 2443.0 1
418.363 -301.2213 2409.0 1
443.46472 -301.2213 2409.0 1
-125.39082 -376.17245 2777.0 1
-95.6556 -373.0569 2754.0 1
-66.44832 -370.21222 2733.0 1
18.262856 -356.1244 2629.0 1
44.9623 -350.706 2589.0 1
69.85561 -340.54648 2514.0 1
94.67615 -335.66992 2478.0 1
119.62157 -333.23163 2460.0 1
142.24348 -326.32318 2409.0 1
167.3452 -326.32318 2409.0 1
192.44691 -326.32318 2409.0 1
217.54878 -326.32318 2409.0 1
242.6505 -326.32318 2409.0 1
269.64188 -328.626 2426.0 1
296.98737 -330.92883 2443.0 1
324.68713 -333.23163 2460.0 1
350.32043 -333.23163 2460.0 1
396.03647 -328.626 2426.0 1
418.363 -326.32318 2409.0 1
443.46472 -326.32318 2409.0 1
-125.39082 -405.1088 2777.0 1
-95.6556 -401.75354 2754.0 1
-66.44832 -398.69006 2733.0 1
18.262856 -383.51852 2629.0 1
45.30963 -380.60095 2609.0 1
70.355774 -369.36816 2532.0 1
95.36387 -364.1165 2496.0 1
120.49684 -361.49066 2478.0 1
143.24727 -353.9049 2426.0 1
168.52612 -353.9049 2426.0 1
193.805 -353.9049 2426.0 1
220.61922 -356.38486 2443.0 1
246.07521 -356.38486 2443.0 1
271.53137 -356.38486 2443.0 1
296.98737 -356.38486 2443.0 1
324.68713 -358.8648 2460.0 1
350.32043 -358.8648 2460.0 1
401.58685 -358.8648 2460.0 1
421.31534 -353.9049 2426.0 1
446.59418 -353.9049 2426.0 1
458.84125 -344.13095 2359.0 1
-155.54979 -437.4837 2799.0 1
-124.352295 -430.4502 2754.0 1
-95.6556 -430.4502 2754.0 1
-66.9589 -430.4502 2754.0 1
18.262856 -410.9127 2629.0 1
44.63233 -401.69098 2570.0 1
70.88372 -398.72128 2551.0 1
96.05159 -392.9382 2514.0 1
120.49684 -387.3114 2478.0 1
146.3177 -387.3114 2478.0 1
169.70706 -381.84088 2443.0 1
196.52113 -384.498 2460.0 1
222.15443 -384.498 2460.0 1
247.78757 -384.498 2460.0 1
273.42087 -384.498 2460.0 1
299.054 -384.498 2460.0 1
324.68713 -384.498 2460.0 1
350.32043 -384.498 2460.0 1
398.81168 -381.84088 2443.0 1
421.31534 -379.1838 2426.0 1
449.72366 -381.84088 2443.0 1
478.48642 -384.498 2460.0 1
-124.352295 -459.14685 2754.0 1
-96.45447 -462.9814 2777.0 1
-67.518105 -462.9814 2777.0 1
-9.270362 -444.97565 2669.0 1
18.262856 -438.30685 2629.0 1
44.9623 -431.63806 2589.0 1
70.88372 -425.30267 2551.0 1
96.73931 -422.135 2532.0 1
122.247406 -419.13403 2514.0 1
146.3177 -413.13214 2478.0 1
170.888 -410.13116 2460.0 1
196.52113 -410.13116 2460.0 1
222.15443 -410.13116 2460.0 1
247.78757 -410.13116 2460.0 1
271.53137 -407.29694 2443.0 1
299.054 -410.13116 2460.0 1
327.0629 -413.13214 2478.0 1
352.88376 -413.13214 2478.0 1
398.81168 -407.29694 2443.0 1
424.26767 -407.29694 2443.0 1
449.72366 -407.29694 2443.0 1
-124.352295 -487.8435 2754.0 1
-96.45447 -491.91772 2777.0 1
-67.518105 -491.91772 2777.0 1
18.262856 -465.701 2629.0 1
44.9623 -458.6154 2589.0 1
70.88372 -451.8841 2551.0 1
96.73931 -448.51843 2532.0 1
121.37212 -442.1414 2496.0 1
146.3177 -438.95285 2478.0 1
172.1384 -438.95285 2478.0 1
196.52113 -435.76434 2460.0 1
222.15443 -435.76434 2460.0 1
247.78757 -435.76434 2460.0 1
273.42087 -435.76434 2460.0 1
299.054 -435.76434 2460.0 1
327.0629 -438.95285 2478.0 1
358.01038 -445.3299 2514.0 1
398.81168 -432.75296 2443.0 1
421.31534 -429.74158 2426.0 1
443.46472 -426.7302 2409.0 1
18.262856 -493.09528 2629.0 1
44.9623 -485.5929 2589.0 1
71.41167 -482.02924 2570.0 1
96.73931 -474.90195 2532.0 1
121.37212 -468.1498 2496.0 1
146.3177 -464.7737 2478.0 1
170.888 -461.39764 2460.0 1
196.52113 -461.39764 2460.0 1
222.15443 -461.39764 2460.0 1
247.78757 -461.39764 2460.0 1
273.42087 -461.39764 2460.0 1
299.054 -461.39764 2460.0 1
327.0629 -464.7737 2478.0 1
360.5737 -474.90195 2532.0 1
398.81168 -458.2091 2443.0 1
421.31534 -455.0206 2426.0 1
-9.343302 -532.5662 2690.0 1
18.40179 -524.44904 2649.0 1
45.30963 -516.52985 2609.0 1
71.93961 -512.57025 2589.0 1
97.46524 -505.047 2551.0 1
122.247406 -497.72174 2514.0 1
147.38054 -494.15808 2496.0 1
172.1384 -490.59445 2478.0 1
196.52113 -487.03082 2460.0 1
220.61922 -483.66516 2443.0 1
246.07521 -483.66516 2443.0 1
271.53137 -483.66516 2443.0 1
299.054 -487.03082 2460.0 1
327.0629 -490.59445 2478.0 1
401.58685 -487.03082 2460.0 1
421.31534 -480.2995 2426.0 1
-9.343302 -560.596 2690.0 1
18.540724 -556.2196 2669.0 1
45.656967 -547.8836 2629.0 1
72.495346 -543.7156 2609.0 1
98.91709 -539.5476 2589.0 1
123.12268 -527.66876 2532.0 1
146.3177 -516.41516 2478.0 1
172.1384 -516.41516 2478.0 1
196.52113 -512.664 2460.0 1
222.15443 -512.664 2460.0 1
246.07521 -509.1212 2443.0 1
273.42087 -512.664 2460.0 1
299.054 -512.664 2460.0 1
327.0629 -516.41516 2478.0 1
378.70444 -516.41516 2478.0 1
401.58685 -512.664 2460.0 1
424.26767 -509.1212 2443.0 1
-9.343302 -588.62573 2690.0 1
18.686604 -588.62573 2690.0 1
46.0043 -579.6541 2649.0 1
73.05108 -575.2778 2629.0 1
100.44536 -575.2778 2629.0 1
124.9705 -562.3674 2570.0 1
147.38054 -546.1747 2496.0 1
172.1384 -542.2359 2478.0 1
196.52113 -538.2972 2460.0 1
220.61922 -534.5772 2443.0 1
246.07521 -534.5772 2443.0 1
273.42087 -538.2972 2460.0 1
301.2422 -542.2359 2478.0 1
329.43866 -546.1747 2496.0 1
375.95355 -538.2972 2460.0 1
401.58685 -538.2972 2460.0 1
427.22 -538.2972 2460.0 1
449.72366 -534.5772 2443.0 1
18.686604 -616.6555 2690.0 1
46.35163 -611.8415 2669.0 1
73.60681 -607.2567 2649.0 1
101.209496 -607.2567 2649.0 1
128.812 -607.2567 2649.0 1
149.50623 -580.4356 2532.0 1
172.1384 -568.05664 2478.0 1
196.52113 -563.93036 2460.0 1
219.084 -556.13617 2426.0 1
246.07521 -560.03326 2443.0 1
271.53137 -560.03326 2443.0 1
301.2422 -568.05664 2478.0 1
334.19016 -580.4356 2532.0 1
378.70444 -568.05664 2478.0 1
401.58685 -563.93036 2460.0 1
427.22 -563.93036 2460.0 1
452.85312 -563.93036 2460.0 1
18.832485 -649.7183 2711.0 1
46.71633 -644.6854 2690.0 1
74.74606 -644.6854 2690.0 1
102.77597 -644.6854 2690.0 1
130.8057 -644.6854 2690.0 1
150.62811 -611.3727 2551.0 1
172.1384 -593.8775 2478.0 1
196.52113 -589.56366 2460.0 1
220.61922 -585.48944 2443.0 1
246.07521 -585.48944 2443.0 1
273.42087 -589.56366 2460.0 1
301.2422 -593.8775 2478.0 1
381.45532 -598.1914 2496.0 1
401.58685 -589.56366 2460.0 1
430.34598 -593.8775 2478.0 1
18.985312 -683.4686 2733.0 1
46.71633 -672.7152 2690.0 1
74.74606 -672.7152 2690.0 1
102.77597 -672.7152 2690.0 1
130.8057 -672.7152 2690.0 1
149.50623 -633.2026 2532.0 1
172.1384 -619.69824 2478.0 1
196.52113 -615.19684 2460.0 1
220.61922 -610.94543 2443.0 1
246.07521 -610.94543 2443.0 1
273.42087 -615.19684 2460.0 1
305.6186 -628.7011 2514.0 1
381.45532 -624.1997 2496.0 1
404.5253 -619.69824 2478.0 1
430.34598 -619.69824 2478.0 1
-9.492656 -711.9465 2733.0 1
19.131193 -717.417 2754.0 1
47.08103 -706.2155 2711.0 1
75.32958 -706.2155 2711.0 1
103.57831 -706.2155 2711.0 1
131.82686 -706.2155 2711.0 1
150.62811 -664.53546 2551.0 1
172.1384 -645.519 2478.0 1
196.52113 -640.83 2460.0 1
220.61922 -636.4015 2443.0 1
247.78757 -640.83 2460.0 1
273.42087 -640.83 2460.0 1
303.4304 -650.208 2496.0 1
19.131193 -746.11365 2754.0 1
47.4631 -740.4243 2733.0 1
75.94089 -740.4243 2733.0 1
104.41885 -740.4243 2733.0 1
132.89664 -740.4243 2733.0 1
150.62811 -691.1169 2551.0 1
173.3888 -676.2163 2496.0 1
196.52113 -666.46313 2460.0 1
222.15443 -666.46313 2460.0 1
247.78757 -666.46313 2460.0 1
275.4215 -671.3397 2478.0 1
19.290966 -781.2811 2777.0 1
48.227234 -781.2811 2777.0 1
77.1635 -781.2811 2777.0 1
106.099945 -781.2811 2777.0 1
132.89664 -768.90216 2733.0 1
149.50623 -712.35284 2532.0 1
172.1384 -697.16046 2478.0 1
197.95909 -697.16046 2478.0 1
222.15443 -692.0963 2460.0 1
249.60065 -697.16046 2478.0 1
275.4215 -697.16046 2478.0 1
19.443794 -816.6363 2799.0 1
48.6093 -816.6363 2799.0 1
77.1635 -810.2176 2777.0 1
106.099945 -810.2176 2777.0 1
136.106 -816.6363 2799.0 1
149.50623 -738.7363 2532.0 1
173.3888 -728.233 2496.0 1
197.95909 -722.9813 2478.0 1
223.77995 -722.9813 2478.0 1
249.60065 -722.9813 2478.0 1
275.4215 -722.9813 2478.0 1
49.00873 -852.75195 2822.0 1
78.413895 -852.75195 2822.0 1
107.81925 -852.75195 2822.0 1
136.106 -845.8018 2799.0 1
149.50623 -765.11975 2532.0 1
173.3888 -754.2413 2496.0 1
197.95909 -748.80206 2478.0 1
223.77995 -748.80206 2478.0 1
247.78757 -743.3628 2460.0 1
275.4215 -748.80206 2478.0 1
49.824966 -896.84937 2869.0 1
79.052986 -889.347 2845.0 1
108.698006 -889.347 2845.0 1
136.106 -874.9674 2799.0 1
150.62811 -797.44257 2551.0 1
173.3888 -780.2496 2496.0 1
197.95909 -774.6228 2478.0 1
223.77995 -774.6228 2478.0 1
249.60065 -774.6228 2478.0 1
281.42343 -791.5032 2532.0 1
310.11655 -797.44257 2551.0 1
50.241764 -934.4968 2893.0 1
79.71987 -926.7443 2869.0 1
109.61496 -926.7443 2869.0 1
140.67691 -934.4968 2893.0 1
148.44339 -812.07227 2514.0 1
173.3888 -806.2579 2496.0 1
197.95909 -800.44354 2478.0 1
223.77995 -800.44354 2478.0 1
253.2268 -812.07227 2514.0 1
283.53522 -824.024 2551.0 1
319.59875 -849.21954 2629.0 1
50.658566 -972.6444 2917.0 1
80.38675 -964.64185 2893.0 1
109.61496 -956.6393 2869.0 1
139.50987 -956.6393 2869.0 1
172.2392 -972.6444 2917.0 1
175.8896 -844.27 2532.0 1
197.95909 -826.2643 2478.0 1
225.40547 -832.2662 2496.0 1
256.95367 -850.60535 2551.0 1
285.647 -856.94073 2570.0 1
322.0301 -883.2825 2649.0 1
360.71948 -911.29144 2733.0 1
51.526897 -1020.23267 2967.0 1
80.38675 -994.78705 2893.0 1
110.53192 -994.78705 2893.0 1
140.67691 -994.78705 2893.0 1
170.82208 -994.78705 2893.0 1
177.20946 -877.1869 2551.0 1
202.27296 -870.65356 2532.0 1
228.65651 -870.65356 2532.0 1
258.8675 -883.7202 2570.0 1
287.7588 -890.2536 2589.0 1
324.46143 -917.7624 2669.0 1
369.4306 -962.4642 2799.0 1
51.526897 -1051.1488 2967.0 1
81.74829 -1042.2917 2942.0 1
111.44888 -1033.4348 2917.0 1
141.84395 -1033.4348 2917.0 1
170.82208 -1024.932 2893.0 1
230.37233 -903.7683 2551.0 1
264.81036 -931.4021 2629.0 1
294.42758 -938.48773 2649.0 1
334.7946 -975.68713 2754.0 1
375.50198 -1007.92664 2845.0 1
50.658566 -1063.8298 2917.0 1
81.05363 -1063.8298 2917.0 1
111.44888 -1063.8298 2917.0 1
141.84395 -1063.8298 2917.0 1
281.9339 -1020.7953 2799.0 1
308.65436 -1012.7719 2777.0 1
337.59064 -1012.7719 2777.0 1
378.66968 -1046.3243 2869.0 1
-10.579814 -1142.6155 3046.0 1
20.972067 -1132.4872 3019.0 1
51.09273 -1103.603 2942.0 1
81.05363 -1094.225 2917.0 1
111.44888 -1094.225 2917.0 1
143.05962 -1103.603 2942.0 1
176.72675 -1122.7341 2993.0 1
263.4246 -1094.225 2917.0 1
286.56732 -1067.2163 2845.0 1
316.21234 -1067.2163 2845.0 1
345.85715 -1067.2163 2845.0 1
381.83734 -1085.2222 2893.0 1
21.159628 -1174.3547 3046.0 1
51.526897 -1143.8971 2967.0 1
81.74829 -1134.2585 2942.0 1
112.40405 -1134.2585 2942.0 1
144.27528 -1143.8971 2967.0 1
176.72675 -1153.9211 2993.0 1
288.98477 -1106.1141 2869.0 1
318.87985 -1106.1141 2869.0 1
348.77475 -1106.1141 2869.0 1
388.3047 -1134.2585 2942.0 1
-10.218585 -1164.9143 2942.0 1
20.610838 -1174.8134 2967.0 1
51.09273 -1164.9143 2942.0 1
81.74829 -1164.9143 2942.0 1
113.359215 -1174.8134 2967.0 1
145.53957 -1185.1083 2993.0 1
267.9399 -1174.8134 2967.0 1
291.4022 -1145.5123 2893.0 1
318.87985 -1136.0093 2869.0 1
348.77475 -1136.0093 2869.0 1
381.83734 -1145.5123 2893.0 1
-41.22148 -1205.7295 2967.0 1
-10.048391 -1175.6573 2893.0 1
20.43717 -1195.57 2942.0 1
51.526897 -1205.7295 2967.0 1
82.44296 -1205.7295 2967.0 1
112.40405 -1195.57 2942.0 1
263.4246 -1185.4105 2917.0 1
291.4022 -1175.6573 2893.0 1
318.87985 -1165.9042 2869.0 1
348.77475 -1165.9042 2869.0 1
385.00504 -1185.4105 2917.0 1
