ply
format ascii 1.0
comment : created from Kinect user tracker
element vertex 549
property float x
property float y
property float z
property int userId
end_header
1296.9253 276.11954 2409.0 1
1296.9253 251.01779 2409.0 1
1287.7731 224.32178 2392.0 1
1280.7987 202.23134 2426.0 1
1306.0775 202.23134 2426.0 1
1232.9152 193.21806 2649.0 1
1231.967 188.84167 2589.0 1
1258.9443 188.84167 2589.0 1
1267.0476 186.06995 2551.0 1
1283.9941 184.68408 2532.0 1
1291.7465 182.05824 2496.0 1
1289.7738 178.19243 2443.0 1
1287.7731 174.47249 2392.0 1
1214.4128 166.86584 2669.0 1
1223.6067 164.36505 2629.0 1
1231.967 161.86426 2589.0 1
1249.7053 160.67638 2570.0 1
1239.7299 156.0499 2496.0 1
1256.6104 154.92453 2478.0 1
1273.1156 153.79918 2460.0 1
1289.7738 152.73633 2443.0 1
1296.9253 150.61066 2409.0 1
1177.71 138.0129 2649.0 1
1205.3126 138.0129 2649.0 1
1204.9896 134.8869 2589.0 1
1222.926 133.897 2570.0 1
1222.4744 130.9794 2514.0 1
1239.7299 130.0416 2496.0 1
1256.6104 129.10379 2478.0 1
1255.5197 126.3946 2426.0 1
1280.7987 126.3946 2426.0 1
1279.1592 123.7896 2376.0 1
1186.6017 111.24394 2669.0 1
1205.3126 110.41035 2649.0 1
1204.9896 107.909546 2589.0 1
1213.8849 106.32571 2551.0 1
1222.4744 104.78355 2514.0 1
1239.7299 104.0333 2496.0 1
1238.8616 101.824265 2443.0 1
1255.5197 101.1157 2426.0 1
1254.4014 99.0317 2376.0 1
1270.007 98.32314 2359.0 1
1186.6017 83.43292 2669.0 1
1187.1124 81.55733 2609.0 1
1196.1465 80.33819 2570.0 1
1204.8438 79.15031 2532.0 1
1222.4744 78.58762 2514.0 1
1230.7894 77.462265 2478.0 1
1238.8616 76.368164 2443.0 1
1255.5197 75.83675 2426.0 1
1254.4014 74.27375 2376.0 1
1270.007 73.742325 2359.0 1
1177.0258 56.497253 2711.0 1
1186.6017 55.62197 2669.0 1
1187.1124 54.37157 2609.0 1
1196.1465 53.55881 2570.0 1
1204.8438 52.76689 2532.0 1
1213.7216 52.01665 2496.0 1
1221.8491 51.26641 2460.0 1
1230.2407 50.55785 2426.0 1
1237.9237 49.849293 2392.0 1
1254.4014 49.51585 2376.0 1
1261.3931 48.828133 2343.0 1
1148.7772 28.248592 2711.0 1
1186.5775 28.477833 2733.0 1
1186.6017 27.810953 2669.0 1
1169.3672 26.779373 2570.0 1
1196.1465 26.779373 2570.0 1
1196.2786 26.195854 2514.0 1
1213.7216 26.008295 2496.0 1
1213.4054 25.456036 2443.0 1
1230.2407 25.278896 2426.0 1
1229.6433 24.757896 2376.0 1
1245.4263 24.580755 2359.0 1
1252.7792 24.247316 2327.0 1
1158.0997 0.0 2733.0 1
1186.5775 0.0 2733.0 1
1186.6017 0.0 2669.0 1
1178.0123 0.0 2589.0 1
1187.3033 0.0 2551.0 1
1204.8438 0.0 2532.0 1
1213.7216 0.0 2496.0 1
1204.9618 0.0 2426.0 1
1212.9991 0.0 2392.0 1
1229.6433 0.0 2376.0 1
1236.9791 0.0 2343.0 1
1244.7037 0.0 2312.0 1
1166.9984 -28.696651 2754.0 1
1186.5775 -28.477833 2733.0 1
1186.6017 -27.810953 2669.0 1
1187.1124 -27.185753 2609.0 1
1187.3033 -26.581394 2551.0 1
1196.2786 -26.195854 2514.0 1
1213.7216 -26.008295 2496.0 1
1213.4054 -25.456036 2443.0 1
1212.9991 -24.924616 2392.0 1
1229.6433 -24.757896 2376.0 1
1236.9791 -24.414036 2343.0 1
1244.7037 -24.091017 2312.0 1
1156.9012 -58.331104 2799.0 1
1166.9984 -57.393303 2754.0 1
1195.695 -57.393303 2754.0 1
1186.6017 -55.621906 2669.0 1
1178.0123 -53.95471 2589.0 1
1187.3033 -53.16279 2551.0 1
1196.2786 -52.39171 2514.0 1
1196.216 -51.26635 2460.0 1
1204.9618 -50.557793 2426.0 1
1212.9991 -49.84923 2392.0 1
1220.8453 -49.16151 2359.0 1
1236.9791 -48.82807 2343.0 1
1244.7037 -48.182034 2312.0 1
1138.3016 -86.090096 2754.0 1
1158.0997 -85.43363 2733.0 1
1195.695 -86.090096 2754.0 1
1168.8182 -82.182594 2629.0 1
1178.0123 -80.93219 2589.0 1
1196.1465 -80.33825 2570.0 1
1196.2786 -78.58769 2514.0 1
1196.216 -76.89965 2460.0 1
1213.4054 -76.368225 2443.0 1
1212.9991 -74.773964 2392.0 1
1220.8453 -73.742386 2359.0 1
1236.9791 -73.242226 2343.0 1
1244.7037 -72.27316 2312.0 1
1137.0027 -117.62099 2822.0 1
1147.8081 -115.745384 2777.0 1
1166.9984 -114.78674 2754.0 1
1186.5775 -113.91147 2733.0 1
1168.8182 -109.576744 2629.0 1
1169.3672 -107.11762 2570.0 1
1178.4602 -105.53378 2532.0 1
1196.2786 -104.78355 2514.0 1
1204.9688 -103.283066 2478.0 1
1204.9618 -101.1157 2426.0 1
1221.62 -100.40714 2409.0 1
1229.6433 -99.0317 2376.0 1
1236.9791 -97.656265 2343.0 1
1244.7037 -96.36418 2312.0 1
1137.0027 -147.0262 2822.0 1
1156.9012 -145.8279 2799.0 1
1186.067 -145.8279 2799.0 1
1195.695 -143.4834 2754.0 1
1168.8182 -136.9709 2629.0 1
1178.0123 -134.8869 2589.0 1
1178.4602 -131.91719 2532.0 1
1196.2786 -130.9794 2514.0 1
1204.9688 -129.10379 2478.0 1
1204.9618 -126.3946 2426.0 1
1221.62 -125.508896 2409.0 1
1237.9237 -124.6232 2392.0 1
1254.4014 -123.7896 2376.0 1
1244.7037 -120.4552 2312.0 1
1146.2695 -177.86937 2845.0 1
1166.4078 -176.43141 2822.0 1
1186.067 -174.99345 2799.0 1
1205.6808 -173.61801 2777.0 1
1168.8182 -164.36505 2629.0 1
1178.0123 -161.86426 2589.0 1
1196.1465 -160.67638 2570.0 1
1196.2786 -157.17525 2514.0 1
1213.7216 -156.0499 2496.0 1
1213.4054 -152.73633 2443.0 1
1230.2407 -151.6735 2426.0 1
1246.7217 -150.61066 2409.0 1
1262.8485 -149.54782 2392.0 1
1244.7037 -144.54622 2312.0 1
1146.2695 -207.51424 2845.0 1
1175.9143 -207.51424 2845.0 1
1195.8131 -205.83662 2822.0 1
1177.0258 -197.74028 2711.0 1
1168.8182 -191.7592 2629.0 1
1178.0123 -188.8416 2589.0 1
1187.3033 -186.06989 2551.0 1
1187.7134 -182.05818 2496.0 1
1213.7216 -182.05818 2496.0 1
1221.8491 -179.43234 2460.0 1
1238.8616 -178.19237 2443.0 1
1246.7217 -175.7124 2409.0 1
1262.8485 -174.47243 2392.0 1
1244.7037 -168.63724 2312.0 1
1185.8341 -239.1599 2869.0 1
1205.5593 -237.15926 2845.0 1
1167.9083 -224.23845 2690.0 1
1168.8182 -219.15349 2629.0 1
1178.0123 -215.81909 2589.0 1
1187.3033 -212.65141 2551.0 1
1187.7134 -208.0666 2496.0 1
1213.7216 -208.0666 2496.0 1
1213.4054 -203.64853 2443.0 1
1238.8616 -203.64853 2443.0 1
1255.5197 -202.2314 2426.0 1
1271.8236 -200.81429 2409.0 1
1252.7792 -193.97876 2327.0 1
1195.754 -271.30557 2893.0 1
1195.8131 -264.6472 2822.0 1
1158.7908 -250.29884 2669.0 1
1168.8182 -246.54764 2629.0 1
1178.0123 -242.79645 2589.0 1
1187.3033 -239.2328 2551.0 1
1187.7134 -234.0749 2496.0 1
1204.9688 -232.38686 2478.0 1
1221.8491 -230.69882 2460.0 1
1238.8616 -229.10455 2443.0 1
1255.5197 -227.5103 2426.0 1
1262.8485 -224.32178 2392.0 1
1252.7792 -218.22607 2327.0 1
1205.6738 -303.9514 2917.0 1
1158.0997 -284.7786 2733.0 1
1158.7908 -278.1098 2669.0 1
1159.9265 -271.8578 2609.0 1
1178.0123 -269.7738 2589.0 1
1187.3033 -265.8142 2551.0 1
1187.7134 -260.0832 2496.0 1
1204.9688 -258.20758 2478.0 1
1221.8491 -256.332 2460.0 1
1238.8616 -254.5606 2443.0 1
1255.5197 -252.7892 2426.0 1
1254.4014 -247.5792 2376.0 1
1252.7792 -242.47339 2327.0 1
1195.754 -331.5956 2893.0 1
1130.9799 -305.92075 2669.0 1
1158.7908 -305.92075 2669.0 1
1159.9265 -299.04355 2609.0 1
1169.3672 -294.57336 2570.0 1
1187.3033 -292.3956 2551.0 1
1196.2786 -288.15466 2514.0 1
1204.9688 -284.02832 2478.0 1
1213.4054 -280.01663 2443.0 1
1238.8616 -280.01663 2443.0 1
1255.5197 -278.06808 2426.0 1
1254.4014 -272.3371 2376.0 1
1252.7792 -266.7207 2327.0 1
1205.6738 -364.7416 2917.0 1
1139.8785 -336.35754 2690.0 1
1150.1074 -331.2309 2649.0 1
1168.8182 -328.7301 2629.0 1
1169.3672 -321.35275 2570.0 1
1178.4602 -316.60123 2532.0 1
1187.7134 -312.0998 2496.0 1
1204.9688 -309.84906 2478.0 1
1213.4054 -305.47266 2443.0 1
1230.2407 -303.347 2426.0 1
1255.5197 -303.347 2426.0 1
1262.8485 -299.09564 2392.0 1
1252.7792 -290.96802 2327.0 1
1138.3016 -373.0569 2754.0 1
1139.8785 -364.38745 2690.0 1
1141.4242 -356.1244 2629.0 1
1151.0348 -350.706 2589.0 1
1169.3672 -348.13223 2570.0 1
1170.0826 -340.54648 2514.0 1
1196.2786 -340.54648 2514.0 1
1204.9688 -335.66992 2478.0 1
1213.4054 -330.92883 2443.0 1
1230.2407 -328.626 2426.0 1
1255.5197 -328.626 2426.0 1
1280.7987 -328.626 2426.0 1
1270.007 -319.55017 2359.0 1
1205.6738 -425.53198 2917.0 1
1139.8785 -392.4172 2690.0 1
1141.4242 -383.51852 2629.0 1
1151.0348 -377.68335 2589.0 1
1160.722 -372.1399 2551.0 1
1170.0826 -366.74234 2514.0 1
1187.7134 -364.1165 2496.0 1
1204.9688 -361.49066 2478.0 1
1221.8491 -358.8648 2460.0 1
1238.8616 -356.38486 2443.0 1
1255.5197 -353.9049 2426.0 1
1271.8236 -351.42493 2409.0 1
1306.0775 -353.9049 2426.0 1
1148.7772 -423.72928 2711.0 1
1150.1074 -414.0387 2649.0 1
1151.0348 -404.6607 2589.0 1
1169.3672 -401.69098 2570.0 1
1178.4602 -395.7516 2532.0 1
1187.7134 -390.1248 2496.0 1
1204.9688 -387.3114 2478.0 1
1221.8491 -384.498 2460.0 1
1238.8616 -381.84088 2443.0 1
1264.3176 -381.84088 2443.0 1
1280.7987 -379.1838 2426.0 1
1306.0775 -379.1838 2426.0 1
1148.7772 -451.97787 2711.0 1
1158.7908 -444.97565 2669.0 1
1159.9265 -434.97244 2609.0 1
1178.0123 -431.63806 2589.0 1
1178.4602 -422.135 2532.0 1
1196.2786 -419.13403 2514.0 1
1213.7216 -416.1331 2496.0 1
1230.7894 -413.13214 2478.0 1
1247.4824 -410.13116 2460.0 1
1264.3176 -407.29694 2443.0 1
1289.7738 -407.29694 2443.0 1
1315.2297 -407.29694 2443.0 1
1148.7772 -480.22647 2711.0 1
1177.0258 -480.22647 2711.0 1
1168.8182 -465.701 2629.0 1
1178.0123 -458.6154 2589.0 1
1187.3033 -451.8841 2551.0 1
1196.2786 -445.3299 2514.0 1
1213.7216 -442.1414 2496.0 1
1239.7299 -442.1414 2496.0 1
1256.6104 -438.95285 2478.0 1
1273.1156 -435.76434 2460.0 1
1298.7489 -435.76434 2460.0 1
1315.2297 -432.75296 2443.0 1
1195.8131 -529.2944 2822.0 1
1205.6808 -520.8542 2777.0 1
1205.2744 -508.47522 2711.0 1
1187.1124 -489.3441 2609.0 1
1187.3033 -478.4656 2551.0 1
1204.8438 -474.90195 2532.0 1
1222.4744 -471.52588 2514.0 1
1239.7299 -468.1498 2496.0 1
1256.6104 -464.7737 2478.0 1
1282.431 -464.7737 2478.0 1
1289.7738 -458.2091 2443.0 1
1306.0775 -455.0206 2426.0 1
1195.8131 -558.6996 2822.0 1
1215.2324 -554.14606 2799.0 1
1224.3916 -545.23694 2754.0 1
1196.2125 -520.48944 2629.0 1
1204.9896 -512.57025 2589.0 1
1213.8849 -505.047 2551.0 1
1222.4744 -497.72174 2514.0 1
1239.7299 -494.15808 2496.0 1
1256.6104 -490.59445 2478.0 1
1291.7465 -494.15808 2496.0 1
1298.7489 -487.03082 2460.0 1
1315.2297 -483.66516 2443.0 1
1225.2183 -588.1048 2822.0 1
1244.398 -583.3116 2799.0 1
1214.4128 -556.2196 2669.0 1
1214.2981 -543.7156 2609.0 1
1222.926 -535.588 2570.0 1
1231.2272 -527.66876 2532.0 1
1239.7299 -520.1664 2496.0 1
1256.6104 -516.41516 2478.0 1
1273.1156 -512.664 2460.0 1
1298.7489 -512.664 2460.0 1
1334.0726 -516.41516 2478.0 1
1225.2183 -617.51 2822.0 1
1244.398 -612.4771 2799.0 1
1253.0884 -602.63025 2754.0 1
1232.9152 -579.6541 2649.0 1
1231.967 -566.52496 2589.0 1
1240.4662 -558.2098 2551.0 1
1257.6106 -554.0522 2532.0 1
1265.7383 -546.1747 2496.0 1
1282.431 -542.2359 2478.0 1
1308.2518 -542.2359 2478.0 1
1324.382 -538.2972 2460.0 1
1245.6241 -657.6895 2869.0 1
1254.6235 -646.9152 2822.0 1
1273.5637 -641.6427 2799.0 1
1272.011 -626.5129 2733.0 1
1251.001 -602.6719 2629.0 1
1249.7053 -589.1467 2570.0 1
1257.6106 -580.4356 2532.0 1
1274.8662 -576.3093 2514.0 1
1291.7465 -572.183 2496.0 1
1308.2518 -568.05664 2478.0 1
1334.0726 -568.05664 2478.0 1
1266.4641 -699.08826 2917.0 1
1264.849 -681.83276 2845.0 1
1284.0288 -676.32056 2822.0 1
1302.7291 -670.8084 2799.0 1
1280.0276 -644.6854 2690.0 1
1268.6697 -625.273 2609.0 1
1267.0476 -611.3727 2551.0 1
1274.8662 -602.50525 2514.0 1
1301.062 -602.50525 2514.0 1
1317.7549 -598.1914 2496.0 1
1334.0726 -593.8775 2478.0 1
1236.0691 -729.4834 2917.0 1
1266.4641 -729.4834 2917.0 1
1264.849 -711.4776 2845.0 1
1284.0288 -705.72577 2822.0 1
1313.434 -705.72577 2822.0 1
1331.8949 -699.97394 2799.0 1
1288.1204 -662.4619 2649.0 1
1276.4846 -642.7056 2570.0 1
1293.6292 -637.9541 2551.0 1
1310.3774 -633.2026 2532.0 1
1327.2579 -628.7011 2514.0 1
1343.7632 -624.1997 2496.0 1
1246.6627 -766.391 2942.0 1
1266.4641 -759.8785 2917.0 1
1264.849 -741.1225 2845.0 1
1284.0288 -735.131 2822.0 1
1324.1388 -741.1225 2845.0 1
1331.8949 -729.13947 2799.0 1
1278.395 -684.8545 2629.0 1
1285.9216 -674.4345 2589.0 1
1303.2642 -669.485 2570.0 1
1320.2104 -664.53546 2551.0 1
1327.2579 -654.897 2514.0 1
1353.4537 -654.897 2514.0 1
1236.0691 -790.2736 2917.0 1
1266.4641 -790.2736 2917.0 1
1296.8593 -790.2736 2917.0 1
1294.494 -770.76733 2845.0 1
1335.3091 -777.2694 2869.0 1
1353.7838 -770.76733 2845.0 1
1285.9216 -701.41187 2589.0 1
1303.2642 -696.26434 2570.0 1
1310.3774 -685.9694 2532.0 1
1327.2579 -681.09283 2514.0 1
1353.4537 -681.09283 2514.0 1
1246.6627 -827.7022 2942.0 1
1266.4641 -820.6687 2917.0 1
1286.1891 -813.91656 2893.0 1
1316.3344 -813.91656 2893.0 1
1335.3091 -807.16437 2869.0 1
1315.7229 -745.2696 2649.0 1
1312.8992 -728.3892 2589.0 1
1330.0435 -723.04376 2570.0 1
1346.792 -717.6983 2551.0 1
1363.1444 -712.35284 2532.0 1
1226.3402 -865.652 2967.0 1
1236.0691 -851.06396 2917.0 1
1266.4641 -851.06396 2917.0 1
1296.8593 -851.06396 2917.0 1
1316.3344 -844.0617 2893.0 1
1325.6566 -778.70746 2669.0 1
1333.1835 -767.03705 2629.0 1
1339.8765 -755.3667 2589.0 1
1356.823 -749.82324 2570.0 1
1363.1444 -738.7363 2532.0 1
1237.0867 -904.42474 2993.0 1
1236.0691 -881.45905 2917.0 1
1266.4641 -881.45905 2917.0 1
1296.8593 -881.45905 2917.0 1
1305.4142 -866.9544 2869.0 1
1315.7229 -800.47485 2649.0 1
1333.1835 -794.4312 2629.0 1
1339.8765 -782.34406 2589.0 1
1356.823 -776.6026 2570.0 1
1383.6023 -776.6026 2570.0 1
1237.0867 -935.61176 2993.0 1
1236.0691 -911.8542 2917.0 1
1266.4641 -911.8542 2917.0 1
1296.8593 -911.8542 2917.0 1
1327.2545 -911.8542 2917.0 1
1288.1204 -828.0774 2649.0 1
1305.7892 -821.8254 2629.0 1
1323.0413 -815.57336 2609.0 1
1339.8765 -809.3214 2589.0 1
1366.854 -809.3214 2589.0 1
1383.6023 -803.38196 2570.0 1
1216.007 -950.32477 2942.0 1
1236.0691 -942.24927 2917.0 1
1277.3184 -950.32477 2942.0 1
1296.8593 -942.24927 2917.0 1
1316.3344 -934.4968 2893.0 1
1270.0348 -862.1403 2669.0 1
1268.6697 -842.75916 2609.0 1
1285.9216 -836.29877 2589.0 1
1312.8992 -836.29877 2589.0 1
1339.8765 -836.29877 2589.0 1
1366.854 -836.29877 2589.0 1
1383.6023 -830.1614 2570.0 1
1295.7478 -1072.3429 3216.0 1
1226.3402 -989.3164 2967.0 1
1246.6627 -980.9804 2942.0 1
1266.4641 -972.6444 2917.0 1
1286.1891 -964.64185 2893.0 1
1243.5332 -911.29144 2733.0 1
1242.2238 -889.9513 2669.0 1
1241.484 -869.9449 2609.0 1
1258.9443 -863.2761 2589.0 1
1285.9216 -863.2761 2589.0 1
1303.2642 -856.94073 2570.0 1
1330.0435 -856.94073 2570.0 1
1356.823 -856.94073 2570.0 1
1393.8313 -863.2761 2589.0 1
1227.2538 -1047.3976 3046.0 1
1226.3402 -1020.23267 2967.0 1
1236.0691 -1003.0397 2917.0 1
1277.3184 -1011.63617 2942.0 1
1224.3916 -946.9905 2754.0 1
1214.4128 -917.7624 2669.0 1
1214.2981 -897.1308 2609.0 1
1231.967 -890.2536 2589.0 1
1258.9443 -890.2536 2589.0 1
1285.9216 -890.2536 2589.0 1
1303.2642 -883.7202 2570.0 1
1330.0435 -883.7202 2570.0 1
1356.823 -883.7202 2570.0 1
1383.6023 -883.7202 2570.0 1
1216.3752 -1069.5713 3019.0 1
1216.007 -1042.2917 2942.0 1
1215.7292 -1016.4293 2869.0 1
1186.5775 -968.24725 2733.0 1
1177.71 -938.48773 2649.0 1
1187.1124 -924.3165 2609.0 1
1214.2981 -924.3165 2609.0 1
1231.967 -917.23096 2589.0 1
1249.7053 -910.49963 2570.0 1
1276.4846 -910.49963 2570.0 1
1312.8992 -917.23096 2589.0 1
1339.8765 -917.23096 2589.0 1
1238.1322 -1120.723 3073.0 1
1156.9012 -1020.7953 2799.0 1
1130.9799 -973.3843 2669.0 1
1158.7908 -973.3843 2669.0 1
1177.71 -966.0903 2649.0 1
1196.2125 -958.79626 2629.0 1
1214.2981 -951.50226 2609.0 1
1231.967 -944.2083 2589.0 1
1258.9443 -944.2083 2589.0 1
1285.9216 -944.2083 2589.0 1
1283.9941 -923.4204 2532.0 1
1350.227 -951.50226 2609.0 1
1227.2538 -1142.6155 3046.0 1
1120.5286 -1016.95026 2711.0 1
1114.03 -986.1904 2629.0 1
1150.1074 -993.6928 2649.0 1
1177.71 -993.6928 2649.0 1
1205.3126 -993.6928 2649.0 1
1214.2981 -978.68805 2609.0 1
1251.001 -986.1904 2629.0 1
1278.395 -986.1904 2629.0 1
1055.7891 -1037.1025 2690.0 1
1075.3579 -1029.0062 2669.0 1
1094.9023 -1021.2954 2649.0 1
1114.03 -1013.5846 2629.0 1
1141.4242 -1013.5846 2629.0 1
1159.9265 -1005.8738 2609.0 1
1187.1124 -1005.8738 2609.0 1
1204.9896 -998.16296 2589.0 1
1027.7593 -1065.1324 2690.0 1
1047.5469 -1056.8173 2669.0 1
1075.3579 -1056.8173 2669.0 1
1094.9023 -1048.8981 2649.0 1
1114.03 -1040.9789 2629.0 1
1132.7408 -1033.0597 2609.0 1
1168.8182 -1040.9789 2629.0 1
1187.1124 -1033.0597 2609.0 1
999.7296 -1093.1622 2690.0 1
1027.7593 -1093.1622 2690.0 1
1039.6971 -1076.5006 2649.0 1
1067.2998 -1076.5006 2649.0 1
1086.6357 -1068.373 2629.0 1
1105.555 -1060.2455 2609.0 1
1132.7408 -1060.2455 2609.0 1
1168.8182 -1068.373 2629.0 1
