ply
format ascii 1.0
comment : created from Kinect user tracker
element vertex 748
property float x
property float y
property float z
property int userId
end_header
1204.8438 422.135 2532.0 1
1204.9688 413.13214 2478.0 1
1247.4824 410.13116 2460.0 1
1144.9496 384.498 2460.0 1
1162.4934 381.84088 2443.0 1
1196.216 384.498 2460.0 1
1213.4054 381.84088 2443.0 1
1230.2407 379.1838 2426.0 1
1246.7217 376.5267 2409.0 1
1271.8236 376.5267 2409.0 1
1154.404 353.9049 2426.0 1
1187.9495 356.38486 2443.0 1
1204.9618 353.9049 2426.0 1
1212.9991 348.94498 2392.0 1
1237.9237 348.94498 2392.0 1
1280.7987 353.9049 2426.0 1
1296.9253 351.42493 2409.0 1
1144.9496 333.23157 2460.0 1
1154.404 328.62595 2426.0 1
1187.9495 330.92877 2443.0 1
1204.9618 328.62595 2426.0 1
1212.9991 324.0203 2392.0 1
1280.7987 328.62595 2426.0 1
1287.7731 324.0203 2392.0 1
1153.3273 309.84912 2478.0 1
1179.1481 309.84912 2478.0 1
1187.9495 305.47272 2443.0 1
1213.4054 305.47272 2443.0 1
1221.62 301.22137 2409.0 1
1229.6433 297.09503 2376.0 1
1254.4014 297.09503 2376.0 1
1296.9253 301.22137 2409.0 1
1135.6967 286.0915 2496.0 1
1170.0826 288.15466 2514.0 1
1179.1481 284.02832 2478.0 1
1187.9495 280.01663 2443.0 1
1204.9618 278.06808 2426.0 1
1221.62 276.11954 2409.0 1
1255.5197 278.06808 2426.0 1
1271.8236 276.11954 2409.0 1
1324.382 281.96518 2460.0 1
1142.5876 267.794 2570.0 1
1135.6967 260.0832 2496.0 1
1170.0826 261.9588 2514.0 1
1179.1481 258.20758 2478.0 1
1196.216 256.332 2460.0 1
1213.4054 254.5606 2443.0 1
1230.2407 252.7892 2426.0 1
1246.7217 251.01779 2409.0 1
1280.7987 252.7892 2426.0 1
1315.2297 254.5606 2443.0 1
1187.3033 239.2328 2551.0 1
1179.1481 232.38686 2478.0 1
1204.9688 232.38686 2478.0 1
1230.7894 232.38686 2478.0 1
1230.2407 227.5103 2426.0 1
1255.5197 227.5103 2426.0 1
1298.7489 230.69882 2460.0 1
1306.0775 227.5103 2426.0 1
1101.1439 227.82286 2733.0 1
1129.6217 227.82286 2733.0 1
1148.7772 225.98894 2711.0 1
1167.9083 224.23839 2690.0 1
1195.938 224.23839 2690.0 1
1205.3126 220.82062 2649.0 1
1214.2981 217.48622 2609.0 1
1187.7134 208.06654 2496.0 1
1213.7216 208.06654 2496.0 1
1213.4054 203.64847 2443.0 1
1238.8616 203.64847 2443.0 1
1264.3176 203.64847 2443.0 1
1280.7987 202.23134 2426.0 1
1089.9354 202.5544 2777.0 1
1101.1439 199.34503 2733.0 1
1111.8486 196.2086 2690.0 1
1148.7772 197.74036 2711.0 1
1167.9083 196.2086 2690.0 1
1177.71 193.21806 2649.0 1
1205.3126 193.21806 2649.0 1
1223.6067 191.75926 2629.0 1
1213.8849 186.06995 2551.0 1
1222.4744 183.37117 2514.0 1
1230.7894 180.74533 2478.0 1
1256.6104 180.74533 2478.0 1
1320.2104 186.06995 2551.0 1
1080.9082 172.18005 2754.0 1
1092.28 169.49168 2711.0 1
1111.8486 168.17877 2690.0 1
1139.8785 168.17877 2690.0 1
1158.7908 166.86584 2669.0 1
1177.71 165.61545 2649.0 1
1205.3126 165.61545 2649.0 1
1223.6067 164.36505 2629.0 1
1231.967 161.86426 2589.0 1
1249.7053 160.67638 2570.0 1
1248.6702 157.17525 2514.0 1
1265.7383 156.0499 2496.0 1
1330.0435 160.67638 2570.0 1
1356.823 160.67638 2570.0 1
1363.1444 158.30061 2532.0 1
1069.4045 145.8279 2799.0 1
1072.666 142.3893 2733.0 1
1092.28 141.2431 2711.0 1
1111.8486 140.149 2690.0 1
1122.505 138.0129 2649.0 1
1150.1074 138.0129 2649.0 1
1177.71 138.0129 2649.0 1
1196.2125 136.9709 2629.0 1
1223.6067 136.9709 2629.0 1
1231.967 134.8869 2589.0 1
1258.9443 134.8869 2589.0 1
1285.9216 134.8869 2589.0 1
1312.8992 134.8869 2589.0 1
1330.0435 133.897 2570.0 1
1356.823 133.897 2570.0 1
1373.3733 132.9071 2551.0 1
1057.3348 118.57963 2845.0 1
1069.4045 116.662346 2799.0 1
1089.9354 115.745384 2777.0 1
1101.1439 113.91147 2733.0 1
1120.5286 112.99451 2711.0 1
1139.8785 112.119225 2690.0 1
1141.4242 109.576744 2629.0 1
1177.71 110.41035 2649.0 1
1187.1124 108.74314 2609.0 1
1214.2981 108.74314 2609.0 1
1241.484 108.74314 2609.0 1
1258.9443 107.909546 2589.0 1
1295.8555 108.74314 2609.0 1
1312.8992 107.909546 2589.0 1
1330.0435 107.11762 2570.0 1
1346.792 106.32571 2551.0 1
1393.8313 107.909546 2589.0 1
1048.787 88.215706 2822.0 1
1069.4045 87.49673 2799.0 1
1080.9082 86.09003 2754.0 1
1101.1439 85.43356 2733.0 1
1111.8486 84.089386 2690.0 1
1139.8785 84.089386 2690.0 1
1150.1074 82.807724 2649.0 1
1168.8182 82.182526 2629.0 1
1196.2125 82.182526 2629.0 1
1214.2981 81.55733 2609.0 1
1241.484 81.55733 2609.0 1
1268.6697 81.55733 2609.0 1
1285.9216 80.93213 2589.0 1
1312.8992 80.93213 2589.0 1
1330.0435 80.33819 2570.0 1
1346.792 79.74425 2551.0 1
1373.3733 79.74425 2551.0 1
1045.0287 60.290134 2893.0 1
1048.787 58.810493 2822.0 1
1078.1921 58.810493 2822.0 1
1098.5701 58.331173 2799.0 1
1101.1439 56.955734 2733.0 1
1111.8486 56.059612 2690.0 1
1122.505 55.205173 2649.0 1
1150.1074 55.205173 2649.0 1
1168.8182 54.788372 2629.0 1
1196.2125 54.788372 2629.0 1
1214.2981 54.37157 2609.0 1
1241.484 54.37157 2609.0 1
1268.6697 54.37157 2609.0 1
1285.9216 53.954773 2589.0 1
1312.8992 53.954773 2589.0 1
1339.8765 53.954773 2589.0 1
1356.823 53.55881 2570.0 1
1373.3733 53.162853 2551.0 1
1045.0287 30.145031 2893.0 1
1066.2544 29.89495 2869.0 1
1078.1921 29.40521 2822.0 1
1098.5701 29.165552 2799.0 1
1101.1439 28.477833 2733.0 1
1111.8486 28.029772 2690.0 1
1122.505 27.602552 2649.0 1
1150.1074 27.602552 2649.0 1
1168.8182 27.394154 2629.0 1
1187.1124 27.185753 2609.0 1
1214.2981 27.185753 2609.0 1
1241.484 27.185753 2609.0 1
1268.6697 27.185753 2609.0 1
1285.9216 26.977354 2589.0 1
1312.8992 26.977354 2589.0 1
1330.0435 26.779373 2570.0 1
1356.823 26.779373 2570.0 1
1383.6023 26.779373 2570.0 1
1053.6981 0.0 2917.0 1
1075.1738 0.0 2893.0 1
1096.1493 0.0 2869.0 1
1116.6245 0.0 2845.0 1
1109.605 0.0 2754.0 1
1111.8486 0.0 2690.0 1
1122.505 0.0 2649.0 1
1150.1074 0.0 2649.0 1
1168.8182 0.0 2629.0 1
1187.1124 0.0 2609.0 1
1223.6067 0.0 2629.0 1
1231.967 0.0 2589.0 1
1268.6697 0.0 2609.0 1
1285.9216 0.0 2589.0 1
1312.8992 0.0 2589.0 1
1330.0435 0.0 2570.0 1
1356.823 0.0 2570.0 1
1373.3733 0.0 2551.0 1
1032.0732 -30.655611 2942.0 1
1053.6981 -30.395111 2917.0 1
1075.1738 -30.145031 2893.0 1
1105.3188 -30.145031 2893.0 1
1116.6245 -29.64487 2845.0 1
1109.605 -28.696651 2754.0 1
1111.8486 -28.029772 2690.0 1
1130.9799 -27.810953 2669.0 1
1150.1074 -27.602552 2649.0 1
1177.71 -27.602552 2649.0 1
1196.2125 -27.394154 2629.0 1
1223.6067 -27.394154 2629.0 1
1231.967 -26.977354 2589.0 1
1268.6697 -27.185753 2609.0 1
1285.9216 -26.977354 2589.0 1
1312.8992 -26.977354 2589.0 1
1330.0435 -26.779373 2570.0 1
1356.823 -26.779373 2570.0 1
1383.6023 -26.779373 2570.0 1
1023.30304 -60.790222 2917.0 1
1062.7288 -61.311222 2942.0 1
1084.0934 -60.790222 2917.0 1
1096.1493 -59.7899 2869.0 1
1116.6245 -59.28974 2845.0 1
1118.8718 -57.872623 2777.0 1
1120.5286 -56.497185 2711.0 1
1139.8785 -56.059544 2690.0 1
1158.7908 -55.621906 2669.0 1
1177.71 -55.205105 2649.0 1
1196.2125 -54.788307 2629.0 1
1223.6067 -54.788307 2629.0 1
1251.001 -54.788307 2629.0 1
1268.6697 -54.371506 2609.0 1
1285.9216 -53.95471 2589.0 1
1312.8992 -53.95471 2589.0 1
1339.8765 -53.95471 2589.0 1
1366.854 -53.95471 2589.0 1
1404.5986 -54.371506 2609.0 1
1018.7772 -93.56124 2993.0 1
1023.30304 -91.18548 2917.0 1
1062.7288 -91.96698 2942.0 1
1084.0934 -91.18548 2917.0 1
1096.1493 -89.685 2869.0 1
1107.5973 -88.215775 2822.0 1
1109.605 -86.090096 2754.0 1
1120.5286 -84.74591 2711.0 1
1130.9799 -83.43299 2669.0 1
1158.7908 -83.43299 2669.0 1
1177.71 -82.80779 2649.0 1
1196.2125 -82.182594 2629.0 1
1223.6067 -82.182594 2629.0 1
1251.001 -82.182594 2629.0 1
1278.395 -82.182594 2629.0 1
1295.8555 -81.55739 2609.0 1
1312.8992 -80.93219 2589.0 1
1339.8765 -80.93219 2589.0 1
1387.9718 -82.182594 2629.0 1
1415.366 -82.182594 2629.0 1
1018.7772 -124.74827 2993.0 1
1032.0732 -122.62259 2942.0 1
1053.6981 -121.58059 2917.0 1
1084.0934 -121.58059 2917.0 1
1105.3188 -120.58027 2893.0 1
1098.5701 -116.662346 2799.0 1
1109.605 -114.78674 2754.0 1
1129.6217 -113.91147 2733.0 1
1139.8785 -112.119225 2690.0 1
1158.7908 -111.24394 2669.0 1
1177.71 -110.41035 2649.0 1
1196.2125 -109.576744 2629.0 1
1223.6067 -109.576744 2629.0 1
1251.001 -109.576744 2629.0 1
1288.1204 -110.41035 2649.0 1
1315.7229 -110.41035 2649.0 1
1333.1835 -109.576744 2629.0 1
1370.9281 -110.41035 2649.0 1
1398.5308 -110.41035 2649.0 1
1426.1333 -110.41035 2649.0 1
996.1694 -157.2899 3019.0 1
1009.9271 -154.5807 2967.0 1
1032.0732 -153.2782 2942.0 1
1053.6981 -151.9757 2917.0 1
1084.0934 -151.9757 2917.0 1
1105.3188 -150.7253 2893.0 1
1098.5701 -145.8279 2799.0 1
1118.8718 -144.6817 2777.0 1
1120.5286 -141.2431 2711.0 1
1148.7772 -141.2431 2711.0 1
1158.7908 -139.0549 2669.0 1
1177.71 -138.0129 2649.0 1
1205.3126 -138.0129 2649.0 1
1223.6067 -136.9709 2629.0 1
1260.5178 -138.0129 2649.0 1
1288.1204 -138.0129 2649.0 1
1315.7229 -138.0129 2649.0 1
1343.3256 -138.0129 2649.0 1
1392.1467 -140.149 2690.0 1
1431.2634 -141.2431 2711.0 1
1426.1333 -138.0129 2649.0 1
970.7619 -183.9338 2942.0 1
1001.4175 -183.9338 2942.0 1
1023.30304 -182.3708 2917.0 1
1053.6981 -182.3708 2917.0 1
1084.0934 -182.3708 2917.0 1
1096.1493 -179.36984 2869.0 1
1098.5701 -174.99345 2799.0 1
1118.8718 -173.61801 2777.0 1
1129.6217 -170.86713 2733.0 1
1148.7772 -169.49168 2711.0 1
1177.0258 -169.49168 2711.0 1
1186.6017 -166.86584 2669.0 1
1205.3126 -165.61545 2649.0 1
1232.9152 -165.61545 2649.0 1
1260.5178 -165.61545 2649.0 1
1297.8457 -166.86584 2669.0 1
1325.6566 -166.86584 2669.0 1
1353.4677 -166.86584 2669.0 1
1381.2786 -166.86584 2669.0 1
1398.5308 -165.61545 2649.0 1
1436.9006 -166.86584 2669.0 1
979.0111 -216.41292 2967.0 1
992.90784 -212.76591 2917.0 1
1023.30304 -212.76591 2917.0 1
1071.7595 -216.41292 2967.0 1
1084.0934 -212.76591 2917.0 1
1096.1493 -209.2648 2869.0 1
1098.5701 -204.159 2799.0 1
1118.8718 -202.55432 2777.0 1
1129.6217 -199.34496 2733.0 1
1158.0997 -199.34496 2733.0 1
1177.0258 -197.74028 2711.0 1
1186.6017 -194.6768 2669.0 1
1205.3126 -193.218 2649.0 1
1232.9152 -193.218 2649.0 1
1260.5178 -193.218 2649.0 1
1297.8457 -194.6768 2669.0 1
1346.5175 -197.74028 2711.0 1
1364.117 -196.20854 2690.0 1
1370.9281 -193.218 2649.0 1
1448.2063 -196.20854 2690.0 1
970.7619 -245.24518 2942.0 1
984.7385 -241.16054 2893.0 1
1006.46436 -239.1599 2869.0 1
1090.5432 -251.6639 3019.0 1
1084.0934 -243.16118 2917.0 1
1096.1493 -239.1599 2869.0 1
1107.5973 -235.24197 2822.0 1
1118.8718 -231.49077 2777.0 1
1138.3016 -229.57349 2754.0 1
1158.0997 -227.82294 2733.0 1
1177.0258 -225.98901 2711.0 1
1195.938 -224.23845 2690.0 1
1223.9679 -224.23845 2690.0 1
1261.7716 -225.98901 2711.0 1
1280.0276 -224.23845 2690.0 1
1308.0573 -224.23845 2690.0 1
1346.5175 -225.98901 2711.0 1
1385.9225 -227.82294 2733.0 1
1466.1079 -231.49077 2777.0 1
1448.2063 -224.23845 2690.0 1
964.7114 -283.12186 3019.0 1
979.0111 -278.24527 2967.0 1
984.7385 -271.30557 2893.0 1
1062.7288 -275.9008 2942.0 1
1075.1738 -271.30557 2893.0 1
1096.1493 -269.05484 2869.0 1
1107.5973 -264.6472 2822.0 1
1118.8718 -260.4271 2777.0 1
1147.8081 -260.4271 2777.0 1
1158.0997 -256.30075 2733.0 1
1177.0258 -254.23761 2711.0 1
1205.2744 -254.23761 2711.0 1
1233.5231 -254.23761 2711.0 1
1251.9977 -252.26822 2690.0 1
1280.0276 -252.26822 2690.0 1
1328.9668 -256.30075 2733.0 1
1357.4446 -256.30075 2733.0 1
1385.9225 -256.30075 2733.0 1
1431.2634 -254.23761 2711.0 1
1448.2063 -252.26822 2690.0 1
948.09503 -309.1614 2967.0 1
962.51276 -303.9514 2917.0 1
984.7385 -301.4506 2893.0 1
1049.9644 -311.8706 2993.0 1
1062.7288 -306.5564 2942.0 1
1075.1738 -301.4506 2893.0 1
1096.1493 -298.9498 2869.0 1
1107.5973 -294.0524 2822.0 1
1127.7357 -291.6558 2799.0 1
1147.8081 -289.3634 2777.0 1
1158.0997 -284.7786 2733.0 1
1195.695 -286.9668 2754.0 1
1215.0553 -284.7786 2733.0 1
1233.5231 -282.4862 2711.0 1
1261.7716 -282.4862 2711.0 1
1290.0204 -282.4862 2711.0 1
1339.1783 -286.9668 2754.0 1
1367.875 -286.9668 2754.0 1
1385.9225 -284.7786 2733.0 1
1420.1766 -280.298 2690.0 1
1436.9006 -278.1098 2669.0 1
948.09503 -340.0775 2967.0 1
962.51276 -334.3465 2917.0 1
992.90784 -334.3465 2917.0 1
1040.8434 -340.0775 2967.0 1
1053.6981 -334.3465 2917.0 1
1075.1738 -331.5956 2893.0 1
1096.1493 -328.84476 2869.0 1
1116.6245 -326.09387 2845.0 1
1137.0027 -323.4576 2822.0 1
1147.8081 -318.2997 2777.0 1
1186.067 -320.82135 2799.0 1
1205.6808 -318.2997 2777.0 1
1215.0553 -313.25644 2733.0 1
1243.5332 -313.25644 2733.0 1
1272.011 -313.25644 2733.0 1
1290.0204 -310.7348 2711.0 1
1328.9668 -313.25644 2733.0 1
1357.4446 -313.25644 2733.0 1
1385.9225 -313.25644 2733.0 1
1420.1766 -308.32776 2690.0 1
1448.2063 -308.32776 2690.0 1
932.1177 -364.7416 2917.0 1
954.59357 -361.74066 2893.0 1
992.90784 -364.7416 2917.0 1
1032.0732 -367.8676 2942.0 1
1053.6981 -364.7416 2917.0 1
1075.1738 -361.74066 2893.0 1
1086.9796 -355.73874 2845.0 1
1116.6245 -355.73874 2845.0 1
1137.0027 -352.86282 2822.0 1
1156.9012 -349.9869 2799.0 1
1186.067 -349.9869 2799.0 1
1215.2324 -349.9869 2799.0 1
1234.6171 -347.23602 2777.0 1
1243.5332 -341.73425 2733.0 1
1272.011 -341.73425 2733.0 1
1300.489 -341.73425 2733.0 1
1339.1783 -344.3601 2754.0 1
1379.2988 -347.23602 2777.0 1
1442.8783 -341.73425 2733.0 1
1459.512 -338.98337 2711.0 1
948.09503 -401.90988 2967.0 1
954.59357 -391.88583 2893.0 1
992.90784 -395.13687 2917.0 1
1040.8434 -401.90988 2967.0 1
1053.6981 -395.13687 2917.0 1
1075.1738 -391.88583 2893.0 1
1105.3188 -391.88583 2893.0 1
1126.0442 -388.6348 2869.0 1
1137.0027 -382.26816 2822.0 1
1166.4078 -382.26816 2822.0 1
1176.7445 -376.17245 2777.0 1
1195.695 -373.0569 2754.0 1
1224.3916 -373.0569 2754.0 1
1243.5332 -370.21222 2733.0 1
1281.785 -373.0569 2754.0 1
1300.489 -370.21222 2733.0 1
1350.3625 -376.17245 2777.0 1
1367.875 -373.0569 2754.0 1
1385.9225 -370.21222 2733.0 1
1442.8783 -370.21222 2733.0 1
1436.9006 -361.5428 2669.0 1
962.51276 -425.53198 2917.0 1
1001.4175 -429.179 2942.0 1
1040.8434 -432.826 2967.0 1
1053.6981 -425.53198 2917.0 1
1075.1738 -422.03085 2893.0 1
1114.4884 -425.53198 2917.0 1
1126.0442 -418.52975 2869.0 1
1146.2695 -415.02863 2845.0 1
1166.4078 -411.67337 2822.0 1
1186.067 -408.31815 2799.0 1
1205.6808 -405.1088 2777.0 1
1215.0553 -398.69006 2733.0 1
1253.0884 -401.75354 2754.0 1
1272.011 -398.69006 2733.0 1
1300.489 -398.69006 2733.0 1
1339.1783 -401.75354 2754.0 1
1357.4446 -398.69006 2733.0 1
1396.5718 -401.75354 2754.0 1
1431.2634 -395.4807 2711.0 1
1436.9006 -389.35373 2669.0 1
1009.9271 -463.7421 2967.0 1
1049.9644 -467.80588 2993.0 1
1053.6981 -455.9271 2917.0 1
1084.0934 -455.9271 2917.0 1
1114.4884 -455.9271 2917.0 1
1135.4639 -452.1759 2893.0 1
1155.9392 -448.42468 2869.0 1
1166.4078 -441.07858 2822.0 1
1186.067 -437.4837 2799.0 1
1215.2324 -437.4837 2799.0 1
1234.6171 -434.0451 2777.0 1
1253.0884 -430.4502 2754.0 1
1272.011 -427.16788 2733.0 1
1300.489 -427.16788 2733.0 1
1339.1783 -430.4502 2754.0 1
1367.875 -430.4502 2754.0 1
1385.9225 -427.16788 2733.0 1
1442.8783 -427.16788 2733.0 1
1448.2063 -420.447 2690.0 1
1049.9644 -498.99292 2993.0 1
1053.6981 -486.3222 2917.0 1
1084.0934 -486.3222 2917.0 1
1105.3188 -482.32092 2893.0 1
1126.0442 -478.31964 2869.0 1
1165.609 -482.32092 2893.0 1
1175.9143 -474.31836 2845.0 1
1195.8131 -470.4838 2822.0 1
1215.2324 -466.64923 2799.0 1
1244.398 -466.64923 2799.0 1
1253.0884 -459.14685 2754.0 1
1272.011 -455.64572 2733.0 1
1300.489 -455.64572 2733.0 1
1339.1783 -459.14685 2754.0 1
1367.875 -459.14685 2754.0 1
1396.5718 -459.14685 2754.0 1
1414.4003 -455.64572 2733.0 1
1442.8783 -455.64572 2733.0 1
1459.512 -451.97787 2711.0 1
1049.9644 -530.17993 2993.0 1
1062.7288 -521.1458 2942.0 1
1084.0934 -516.7173 2917.0 1
1114.4884 -516.7173 2917.0 1
1144.8835 -516.7173 2917.0 1
1175.2788 -516.7173 2917.0 1
1185.8341 -508.2146 2869.0 1
1205.5593 -503.96323 2845.0 1
1215.2324 -495.8148 2799.0 1
1234.6171 -491.91772 2777.0 1
1253.0884 -487.8435 2754.0 1
1272.011 -484.12357 2733.0 1
1300.489 -484.12357 2733.0 1
1339.1783 -487.8435 2754.0 1
1367.875 -487.8435 2754.0 1
1396.5718 -487.8435 2754.0 1
1425.2684 -487.8435 2754.0 1
1420.1766 -476.50653 2690.0 1
1436.9006 -472.7866 2669.0 1
1049.9644 -561.3671 2993.0 1
1071.7595 -556.49054 2967.0 1
1084.0934 -547.11255 2917.0 1
1114.4884 -547.11255 2917.0 1
1154.6957 -551.8016 2942.0 1
1185.3514 -551.8016 2942.0 1
1235.2041 -533.6083 2845.0 1
1254.6235 -529.2944 2822.0 1
1263.5535 -520.8542 2777.0 1
1272.011 -512.6015 2733.0 1
1300.489 -512.6015 2733.0 1
1328.9668 -512.6015 2733.0 1
1346.5175 -508.47522 2711.0 1
1385.9225 -512.6015 2733.0 1
1414.4003 -512.6015 2733.0 1
1431.2634 -508.47522 2711.0 1
1436.9006 -500.5977 2669.0 1
1059.0853 -597.70166 3019.0 1
1081.1514 -592.55414 2993.0 1
1102.6757 -587.4067 2967.0 1
1124.0402 -582.45715 2942.0 1
1154.6957 -582.45715 2942.0 1
1175.2788 -577.5077 2917.0 1
1256.0442 -572.75616 2893.0 1
1254.6235 -558.6996 2822.0 1
1273.5637 -554.14606 2799.0 1
1292.4897 -549.79047 2777.0 1
1310.4818 -545.23694 2754.0 1
1339.1783 -545.23694 2754.0 1
1346.5175 -536.7238 2711.0 1
1385.9225 -541.07935 2733.0 1
1403.0148 -536.7238 2711.0 1
1420.1766 -532.5662 2690.0 1
1448.2063 -532.5662 2690.0 1
1049.9644 -623.7412 2993.0 1
1081.1514 -623.7412 2993.0 1
1112.3385 -623.7412 2993.0 1
1143.5255 -623.7412 2993.0 1
1174.7125 -623.7412 2993.0 1
1275.519 -597.8996 2869.0 1
1273.5637 -583.3116 2799.0 1
1292.4897 -578.7268 2777.0 1
1300.489 -569.5572 2733.0 1
1339.1783 -573.9336 2754.0 1
1346.5175 -564.9724 2711.0 1
1396.5718 -573.9336 2754.0 1
1403.0148 -564.9724 2711.0 1
1420.1766 -560.596 2690.0 1
1459.512 -564.9724 2711.0 1
1049.9644 -654.9282 2993.0 1
1090.5432 -660.61755 3019.0 1
1112.3385 -654.9282 2993.0 1
1143.5255 -654.9282 2993.0 1
1174.7125 -654.9282 2993.0 1
1286.1891 -633.0462 2893.0 1
1284.0288 -617.51 2822.0 1
1302.7291 -612.4771 2799.0 1
1310.4818 -602.63025 2754.0 1
1339.1783 -602.63025 2754.0 1
1379.2988 -607.6631 2777.0 1
1396.5718 -602.63025 2754.0 1
1403.0148 -593.221 2711.0 1
1431.2634 -593.221 2711.0 1
1436.9006 -584.0305 2669.0 1
1059.0853 -692.0755 3019.0 1
1090.5432 -692.0755 3019.0 1
1122.0013 -692.0755 3019.0 1
1143.5255 -686.11523 2993.0 1
1164.5078 -680.155 2967.0 1
1284.0288 -646.9152 2822.0 1
1302.7291 -641.6427 2799.0 1
1300.489 -626.5129 2733.0 1
1339.1783 -631.3269 2754.0 1
1367.875 -631.3269 2754.0 1
1396.5718 -631.3269 2754.0 1
1018.7772 -717.3024 2993.0 1
1068.5571 -730.0044 3046.0 1
1100.2964 -730.0044 3046.0 1
1132.0358 -730.0044 3046.0 1
1174.0908 -736.4752 3073.0 1
1294.494 -681.83276 2845.0 1
1313.434 -676.32056 2822.0 1
1321.4263 -665.5359 2777.0 1
1339.1783 -660.0237 2754.0 1
1367.875 -660.0237 2754.0 1
1408.2352 -665.5359 2777.0 1
1425.2684 -660.0237 2754.0 1
1065.0698 -782.50037 3129.0 1
1087.8514 -775.4981 3101.0 1
1110.0494 -768.49585 3073.0 1
1132.0358 -761.7437 3046.0 1
1184.7887 -775.4981 3101.0 1
1305.4142 -717.47955 2869.0 1
1313.434 -705.72577 2822.0 1
1321.4263 -694.47217 2777.0 1
1350.3625 -694.47217 2777.0 1
1367.875 -688.72034 2754.0 1
1396.5718 -688.72034 2754.0 1
1097.6741 -815.1045 3129.0 1
1120.1638 -807.8105 3101.0 1
1152.4763 -807.8105 3101.0 1
1195.4866 -815.1045 3129.0 1
1313.434 -735.131 2822.0 1
1331.8949 -729.13947 2799.0 1
1350.3625 -723.4085 2777.0 1
1379.2988 -723.4085 2777.0 1
1385.9225 -711.9465 2733.0 1
1097.6741 -847.7086 3129.0 1
1130.2782 -847.7086 3129.0 1
1162.8824 -847.7086 3129.0 1
1195.4866 -847.7086 3129.0 1
1324.1388 -770.76733 2845.0 1
1331.8949 -758.30505 2799.0 1
1361.0604 -758.30505 2799.0 1
1379.2988 -752.3448 2777.0 1
1408.2352 -752.3448 2777.0 1
1437.1715 -752.3448 2777.0 1
1128.1942 -904.78937 3216.0 1
1150.868 -896.3492 3186.0 1
1173.2886 -888.1903 3157.0 1
1206.1844 -888.1903 3157.0 1
1353.7838 -800.41223 2845.0 1
1372.2445 -793.9414 2822.0 1
1390.2258 -787.4706 2799.0 1
1408.2352 -781.2811 2777.0 1
1437.1715 -781.2811 2777.0 1
1128.1942 -938.30023 3216.0 1
1150.868 -929.5474 3186.0 1
1173.2886 -921.08636 3157.0 1
1206.1844 -921.08636 3157.0 1
1353.7838 -830.05725 2845.0 1
1383.4286 -830.05725 2845.0 1
1401.6497 -823.34674 2822.0 1
1419.3916 -816.6363 2799.0 1
1448.5571 -816.6363 2799.0 1
1128.1942 -971.8109 3216.0 1
1161.705 -971.8109 3216.0 1
1184.0663 -962.7455 3186.0 1
1217.2644 -962.7455 3186.0 1
1365.2041 -866.9544 2869.0 1
1383.4286 -859.7021 2845.0 1
1401.6497 -852.75195 2822.0 1
1419.3916 -845.8018 2799.0 1
1460.4602 -852.75195 2822.0 1
1126.3394 -1034.3934 3309.0 1
1128.1942 -1005.3216 3216.0 1
1161.705 -1005.3216 3216.0 1
1195.2157 -1005.3216 3216.0 1
1228.7263 -1005.3216 3216.0 1
1376.6245 -904.3518 2893.0 1
1383.4286 -889.347 2845.0 1
1401.6497 -882.15717 2822.0 1
1431.055 -882.15717 2822.0 1
1460.4602 -882.15717 2822.0 1
1115.447 -1058.5365 3277.0 1
1128.1942 -1038.8323 3216.0 1
1161.705 -1038.8323 3216.0 1
1195.2157 -1038.8323 3216.0 1
1252.0325 -1058.5365 3277.0 1
1388.0448 -942.24927 2917.0 1
1383.4286 -918.9919 2845.0 1
1413.0735 -918.9919 2845.0 1
1431.055 -911.5624 2822.0 1
1460.4602 -911.5624 2822.0 1
1128.1942 -1072.3429 3216.0 1
1161.705 -1072.3429 3216.0 1
1195.2157 -1072.3429 3216.0 1
1388.0448 -972.6444 2917.0 1
1418.4398 -972.6444 2917.0 1
1424.9939 -956.6393 2869.0 1
1442.7185 -948.6367 2845.0 1
1472.3633 -948.6367 2845.0 1
1376.6245 -994.78705 2893.0 1
1406.7694 -994.78705 2893.0 1
1424.9939 -986.53436 2869.0 1
1454.889 -986.53436 2869.0 1
1472.3633 -978.28174 2845.0 1
1430.5966 -1042.2917 2942.0 1
1436.9144 -1024.932 2893.0 1
1454.889 -1016.4293 2869.0 1
1472.3633 -1007.92664 2845.0 1
1527.3497 -1024.932 2893.0 1
1430.5966 -1072.9474 2942.0 1
1424.9939 -1046.3243 2869.0 1
1467.0596 -1055.077 2893.0 1
1472.3633 -1037.5715 2845.0 1
1514.6791 -1046.3243 2869.0 1
1442.7532 -1112.981 2967.0 1
1448.835 -1094.225 2917.0 1
1467.0596 -1085.2222 2893.0 1
1497.2046 -1085.2222 2893.0 1
1514.6791 -1076.2192 2869.0 1
1442.7532 -1143.8971 2967.0 1
1448.835 -1124.6201 2917.0 1
1454.889 -1106.1141 2869.0 1
1497.2046 -1115.3672 2893.0 1
1514.6791 -1106.1141 2869.0 1
1479.2301 -1155.0154 2917.0 1
1497.2046 -1145.5123 2893.0 1
1540.0205 -1155.0154 2917.0 1
1557.4948 -1145.5123 2893.0 1
1497.2046 -1175.6573 2893.0 1
1514.6791 -1165.9042 2869.0 1
1570.4155 -1185.4105 2917.0 1
