ply
format ascii 1.0
comment : created from Kinect user tracker
element vertex 862
property float x
property float y
property float z
property int userId
end_header
626.59973 274.5774 2027.0 1
636.537 269.8363 1992.0 1
595.0237 249.07968 1992.0 1
615.7803 249.07968 1992.0 1
636.537 249.07968 1992.0 1
657.2936 249.07968 1992.0 1
678.0502 249.07968 1992.0 1
683.02057 243.45288 1947.0 1
703.3083 243.45288 1947.0 1
566.5701 233.71016 2039.0 1
580.8976 230.95927 2015.0 1
595.0237 228.32301 1992.0 1
612.07074 226.94757 1980.0 1
629.18744 225.68675 1969.0 1
649.70435 225.68675 1969.0 1
666.47705 224.42593 1958.0 1
679.16174 221.9043 1936.0 1
699.3348 221.9043 1936.0 1
723.59607 223.16512 1947.0 1
756.492 226.94757 1980.0 1
786.1507 229.58383 2003.0 1
566.5701 212.46379 2039.0 1
580.8976 209.963 2015.0 1
595.0237 207.56639 1992.0 1
608.67035 205.1698 1969.0 1
625.6724 204.02359 1958.0 1
646.0747 204.02359 1958.0 1
666.47705 204.02359 1958.0 1
675.30286 200.58499 1925.0 1
695.36127 200.58499 1925.0 1
719.508 201.7312 1936.0 1
739.681 201.7312 1936.0 1
777.12354 206.316 1980.0 1
569.90454 192.3428 2051.0 1
580.8976 188.96672 2015.0 1
591.4392 185.68442 1980.0 1
608.67035 184.65283 1969.0 1
629.18744 184.65283 1969.0 1
638.8154 181.55809 1936.0 1
658.9885 181.55809 1936.0 1
679.16174 181.55809 1936.0 1
699.3348 181.55809 1936.0 1
723.59607 182.58968 1947.0 1
748.08655 183.62126 1958.0 1
764.17145 182.58968 1947.0 1
551.7425 171.97166 2063.0 1
563.2357 168.9707 2027.0 1
577.4381 166.97006 2003.0 1
591.4392 165.05278 1980.0 1
608.67035 164.13583 1969.0 1
625.6724 163.21887 1958.0 1
646.0747 163.21887 1958.0 1
658.9885 161.38495 1936.0 1
686.87946 163.21887 1958.0 1
699.3348 161.38495 1936.0 1
727.6842 163.21887 1958.0 1
756.492 165.05278 1980.0 1
545.3238 148.72467 2039.0 1
559.9013 146.9741 2015.0 1
574.26697 145.2965 1992.0 1
591.4392 144.4212 1980.0 1
608.67035 143.61887 1969.0 1
625.6724 142.81653 1958.0 1
638.8154 141.21185 1936.0 1
655.24426 140.4095 1925.0 1
683.02057 142.01419 1947.0 1
707.2818 142.81653 1958.0 1
735.8604 144.4212 1980.0 1
756.492 144.4212 1980.0 1
548.53314 128.2285 2051.0 1
563.2357 126.72802 2027.0 1
577.4381 125.22754 2003.0 1
591.4392 123.78958 1980.0 1
608.67035 123.10186 1969.0 1
629.18744 123.10186 1969.0 1
646.0747 122.41414 1958.0 1
658.9885 121.0387 1936.0 1
683.02057 121.72642 1947.0 1
711.25525 123.10186 1969.0 1
735.8604 123.78958 1980.0 1
769.8643 125.977776 2015.0 1
536.67163 108.7848 2088.0 1
551.7425 107.4823 2063.0 1
563.2357 105.6067 2027.0 1
577.4381 104.3563 2003.0 1
595.0237 103.783195 1992.0 1
608.67035 102.5849 1969.0 1
632.70245 103.158 1980.0 1
646.0747 102.011795 1958.0 1
670.22125 102.5849 1969.0 1
694.5972 103.158 1980.0 1
723.537 104.3563 2003.0 1
766.7071 107.4823 2063.0 1
788.2035 107.4823 2063.0 1
543.3543 88.11154 2114.0 1
545.3238 84.98554 2039.0 1
563.2357 84.48538 2027.0 1
584.357 84.48538 2027.0 1
595.0237 83.02658 1992.0 1
612.07074 82.52642 1980.0 1
632.70245 82.52642 1980.0 1
653.334 82.52642 1980.0 1
673.9655 82.52642 1980.0 1
698.8069 83.02658 1992.0 1
727.8717 83.98522 2015.0 1
762.2474 85.4857 2051.0 1
788.2035 85.985855 2063.0 1
481.73053 69.928604 2237.0 1
498.4928 69.022064 2208.0 1
511.81644 67.74041 2167.0 1
527.7383 66.896385 2140.0 1
546.6957 66.490005 2127.0 1
561.9055 65.677246 2101.0 1
573.23895 64.48937 2063.0 1
584.357 63.36401 2027.0 1
591.4392 61.89479 1980.0 1
612.07074 61.89479 1980.0 1
643.8866 62.988888 2015.0 1
668.8424 63.36401 2027.0 1
685.8791 62.988888 2015.0 1
711.08514 63.36401 2027.0 1
732.2064 63.36401 2027.0 1
757.7876 63.73913 2039.0 1
458.42093 46.61909 2237.0 1
475.4855 46.01473 2208.0 1
489.23636 45.16029 2167.0 1
508.50983 44.86853 2153.0 1
521.32654 44.05577 2114.0 1
540.013 43.78485 2101.0 1
555.2193 43.26385 2076.0 1
569.90454 42.74285 2051.0 1
584.357 42.24269 2027.0 1
601.8939 41.99261 2015.0 1
630.30927 42.49277 2039.0 1
655.39026 42.74285 2051.0 1
672.802 42.49277 2039.0 1
698.133 42.74285 2051.0 1
715.2948 42.49277 2039.0 1
736.54114 42.49277 2039.0 1
435.11145 23.309517 2237.0 1
452.47803 23.007338 2208.0 1
466.65628 22.580118 2167.0 1
486.07562 22.434238 2153.0 1
502.369 22.163319 2127.0 1
521.32654 22.027859 2114.0 1
533.58734 21.631899 2076.0 1
551.7425 21.496439 2063.0 1
566.5701 21.246359 2039.0 1
584.357 21.121319 2027.0 1
605.47845 21.121319 2027.0 1
637.7283 21.496439 2063.0 1
655.39026 21.371399 2051.0 1
676.7616 21.371399 2051.0 1
438.02902 0.0 2252.0 1
446.94504 0.0 2181.0 1
460.84192 0.0 2140.0 1
480.2057 0.0 2127.0 1
499.29855 0.0 2114.0 1
518.1206 0.0 2101.0 1
530.246 0.0 2063.0 1
545.3238 0.0 2039.0 1
563.2357 0.0 2027.0 1
580.8976 0.0 2015.0 1
598.30945 0.0 2003.0 1
622.8902 0.0 2015.0 1
647.7211 0.0 2027.0 1
417.14032 -23.611696 2266.0 1
438.02902 -23.465816 2252.0 1
444.07605 -22.580118 2167.0 1
460.84192 -22.298779 2140.0 1
480.2057 -22.163319 2127.0 1
499.29855 -22.027859 2114.0 1
511.95544 -21.631899 2076.0 1
527.1617 -21.371399 2051.0 1
542.11444 -21.121319 2027.0 1
556.5669 -20.87124 2003.0 1
574.26697 -20.75662 1992.0 1
591.4392 -20.63158 1980.0 1
612.07074 -20.63158 1980.0 1
632.70245 -20.63158 1980.0 1
422.84702 -47.869434 2297.0 1
435.11145 -46.619034 2237.0 1
444.07605 -45.160236 2167.0 1
458.04242 -44.326637 2127.0 1
480.2057 -44.326637 2127.0 1
496.22812 -43.784798 2101.0 1
508.74957 -42.992878 2063.0 1
520.99304 -42.242638 2027.0 1
535.69574 -41.74248 2003.0 1
553.5104 -41.51324 1992.0 1
570.80756 -41.26316 1980.0 1
588.15344 -41.03392 1969.0 1
608.67035 -41.03392 1969.0 1
625.6724 -40.80468 1958.0 1
646.0747 -40.80468 1958.0 1
412.632 -74.2738 2376.0 1
431.315 -73.242226 2343.0 1
435.11145 -69.928665 2237.0 1
441.20706 -67.30282 2153.0 1
458.04242 -66.49006 2127.0 1
477.27072 -66.08368 2114.0 1
496.22812 -65.6773 2101.0 1
505.79028 -64.114296 2051.0 1
520.99304 -63.36406 2027.0 1
532.7538 -62.26996 1992.0 1
550.17596 -61.894836 1980.0 1
567.6364 -61.55098 1969.0 1
584.8677 -61.20712 1958.0 1
601.86957 -60.86326 1947.0 1
618.6424 -60.519398 1936.0 1
635.18585 -60.175537 1925.0 1
655.24426 -60.175537 1925.0 1
412.632 -99.0317 2376.0 1
431.315 -97.656265 2343.0 1
432.38834 -92.65466 2223.0 1
441.20706 -89.73706 2153.0 1
455.2429 -88.11154 2114.0 1
477.27072 -88.11154 2114.0 1
493.15768 -87.02786 2088.0 1
502.83102 -84.98554 2039.0 1
517.9087 -83.98522 2015.0 1
529.54443 -82.52642 1980.0 1
550.17596 -82.52642 1980.0 1
567.6364 -82.06794 1969.0 1
578.29614 -80.6925 1936.0 1
595.0688 -80.23402 1925.0 1
618.6424 -80.6925 1936.0 1
631.88617 -79.817215 1915.0 1
658.9885 -80.6925 1936.0 1
683.02057 -81.15098 1947.0 1
428.3696 -121.236694 2327.0 1
429.47073 -115.0368 2208.0 1
441.20706 -112.171295 2153.0 1
455.2429 -110.1394 2114.0 1
477.27072 -110.1394 2114.0 1
493.15768 -108.7848 2088.0 1
499.87173 -105.6067 2027.0 1
517.9087 -104.9815 2015.0 1
529.54443 -103.158 1980.0 1
547.11945 -102.5849 1969.0 1
561.29407 -101.4387 1947.0 1
578.29614 -100.8656 1936.0 1
595.0688 -100.292496 1925.0 1
615.1274 -100.292496 1925.0 1
628.25653 -99.198395 1904.0 1
651.8404 -99.7715 1915.0 1
675.30286 -100.292496 1925.0 1
424.21906 -136.3561 2181.0 1
438.54303 -133.79277 2140.0 1
455.2429 -132.16725 2114.0 1
474.33575 -131.35449 2101.0 1
487.25302 -128.97874 2063.0 1
499.87173 -126.72802 2027.0 1
517.9087 -125.977776 2015.0 1
529.54443 -123.78958 1980.0 1
544.0629 -122.41414 1958.0 1
558.1229 -121.0387 1936.0 1
575.0104 -120.350975 1925.0 1
595.0688 -120.350975 1925.0 1
611.9319 -119.72578 1915.0 1
628.25653 -119.038055 1904.0 1
648.0961 -119.038055 1904.0 1
671.7948 -119.72578 1915.0 1
691.749 -119.72578 1915.0 1
406.4633 -161.05147 2208.0 1
424.21906 -159.08209 2181.0 1
438.54303 -156.09155 2140.0 1
452.4434 -153.2469 2101.0 1
477.27072 -154.19511 2114.0 1
487.25302 -150.47517 2063.0 1
496.91245 -146.97406 2015.0 1
511.99707 -145.29643 1992.0 1
529.54443 -144.42116 1980.0 1
544.0629 -142.81648 1958.0 1
558.1229 -141.21179 1936.0 1
575.0104 -140.40945 1925.0 1
591.97754 -139.68005 1915.0 1
611.9319 -139.68005 1915.0 1
628.25653 -138.87772 1904.0 1
651.8404 -139.68005 1915.0 1
671.7948 -139.68005 1915.0 1
409.22458 -185.30933 2223.0 1
424.21906 -181.8082 2181.0 1
441.20706 -179.47412 2153.0 1
452.4434 -175.1394 2101.0 1
474.33575 -175.1394 2101.0 1
490.32346 -173.0554 2076.0 1
499.87173 -168.97076 2027.0 1
511.99707 -166.05316 1992.0 1
529.54443 -165.05284 1980.0 1
544.0629 -163.21892 1958.0 1
558.1229 -161.385 1936.0 1
575.0104 -160.46803 1925.0 1
591.97754 -159.63443 1915.0 1
611.9319 -159.63443 1915.0 1
631.88617 -159.63443 1915.0 1
655.24426 -160.46803 1925.0 1
671.7948 -159.63443 1915.0 1
424.21906 -204.5342 2181.0 1
441.20706 -201.90836 2153.0 1
455.2429 -198.25093 2114.0 1
474.33575 -197.0318 2101.0 1
487.25302 -193.46815 2063.0 1
499.87173 -190.09207 2027.0 1
514.8244 -187.84135 2003.0 1
529.54443 -185.68442 1980.0 1
547.11945 -184.65283 1969.0 1
558.1229 -181.55809 1936.0 1
575.0104 -180.52652 1925.0 1
591.97754 -179.58871 1915.0 1
611.9319 -179.58871 1915.0 1
624.95685 -177.61934 1894.0 1
655.24426 -180.52652 1925.0 1
671.7948 -179.58871 1915.0 1
409.22458 -231.6366 2223.0 1
421.49597 -225.80139 2167.0 1
441.20706 -224.34259 2153.0 1
455.2429 -220.2788 2114.0 1
471.4008 -217.5696 2088.0 1
487.25302 -214.9646 2063.0 1
502.83102 -212.46379 2039.0 1
517.9087 -209.963 2015.0 1
532.7538 -207.56639 1992.0 1
547.11945 -205.1698 1969.0 1
558.1229 -201.7312 1936.0 1
575.0104 -200.58499 1925.0 1
591.97754 -199.543 1915.0 1
611.9319 -199.543 1915.0 1
631.88617 -199.543 1915.0 1
655.24426 -200.58499 1925.0 1
675.30286 -200.58499 1925.0 1
401.49295 -249.98619 2181.0 1
421.49597 -248.38152 2167.0 1
438.54303 -245.28677 2140.0 1
452.4434 -240.81659 2101.0 1
474.33575 -240.81659 2101.0 1
490.32346 -237.9511 2076.0 1
502.83102 -233.71016 2039.0 1
517.9087 -230.95927 2015.0 1
538.9051 -230.95927 2015.0 1
550.17596 -226.94757 1980.0 1
561.29407 -223.16512 1947.0 1
575.0104 -220.64348 1925.0 1
588.57715 -218.23645 1904.0 1
611.9319 -219.49728 1915.0 1
631.88617 -219.49728 1915.0 1
651.8404 -219.49728 1915.0 1
675.30286 -220.64348 1925.0 1
424.21906 -272.7122 2181.0 1
438.54303 -267.58554 2140.0 1
452.4434 -262.70898 2101.0 1
471.4008 -261.08347 2088.0 1
490.32346 -259.583 2076.0 1
508.74957 -257.9575 2063.0 1
524.07733 -254.95651 2039.0 1
538.9051 -251.95555 2015.0 1
553.5104 -249.07964 1992.0 1
561.29407 -243.45284 1947.0 1
575.0104 -240.70195 1925.0 1
591.97754 -239.45155 1915.0 1
608.4169 -238.07611 1904.0 1
628.25653 -238.07611 1904.0 1
648.0961 -238.07611 1904.0 1
675.30286 -240.70195 1925.0 1
699.3348 -242.0774 1936.0 1
414.5631 -305.05597 2252.0 1
424.21906 -295.4383 2181.0 1
441.20706 -291.64542 2153.0 1
452.4434 -284.6015 2101.0 1
471.4008 -282.8405 2088.0 1
490.32346 -281.215 2076.0 1
508.74957 -279.454 2063.0 1
524.07733 -276.20297 2039.0 1
538.9051 -272.95193 2015.0 1
559.9013 -272.95193 2015.0 1
567.6364 -266.72076 1969.0 1
575.0104 -260.76053 1925.0 1
591.97754 -259.40594 1915.0 1
608.4169 -257.91586 1904.0 1
631.88617 -259.40594 1915.0 1
658.9885 -262.25058 1936.0 1
675.30286 -260.76053 1925.0 1
414.5631 -328.5218 2252.0 1
421.49597 -316.12198 2167.0 1
438.54303 -312.18323 2140.0 1
455.2429 -308.39035 2114.0 1
471.4008 -304.59744 2088.0 1
490.32346 -302.8469 2076.0 1
508.74957 -300.95047 2063.0 1
527.1617 -299.1999 2051.0 1
542.11444 -295.69876 2027.0 1
559.9013 -293.9482 2015.0 1
564.4652 -285.63306 1958.0 1
575.0104 -280.819 1925.0 1
588.57715 -277.75552 1904.0 1
608.4169 -277.75552 1904.0 1
635.18585 -280.819 1925.0 1
658.9885 -282.4237 1936.0 1
414.5631 -351.98758 2252.0 1
426.74765 -342.92218 2194.0 1
438.54303 -334.482 2140.0 1
455.2429 -330.41818 2114.0 1
474.33575 -328.3863 2101.0 1
490.32346 -324.4788 2076.0 1
508.74957 -322.4469 2063.0 1
524.07733 -318.6957 2039.0 1
542.11444 -316.8201 2027.0 1
559.9013 -314.9445 2015.0 1
558.1229 -302.5968 1936.0 1
575.0104 -300.8775 1925.0 1
591.97754 -299.31448 1915.0 1
611.9319 -299.31448 1915.0 1
638.8154 -302.5968 1936.0 1
658.9885 -302.5968 1936.0 1
393.52866 -377.78748 2266.0 1
411.80182 -372.9526 2237.0 1
426.74765 -365.78366 2194.0 1
438.54303 -356.78076 2140.0 1
455.2429 -352.44604 2114.0 1
477.27072 -352.44604 2114.0 1
490.32346 -346.1107 2076.0 1
508.74957 -343.94333 2063.0 1
527.1617 -341.9427 2051.0 1
542.11444 -337.9414 2027.0 1
559.9013 -335.94077 2015.0 1
558.1229 -322.7699 1936.0 1
575.0104 -320.93597 1925.0 1
595.0688 -320.93597 1925.0 1
615.1274 -320.93597 1925.0 1
638.8154 -322.7699 1936.0 1
393.52866 -401.3992 2266.0 1
409.22458 -393.78217 2223.0 1
426.74765 -388.6451 2194.0 1
441.20706 -381.3824 2153.0 1
455.2429 -374.4739 2114.0 1
474.33575 -372.17108 2101.0 1
490.32346 -367.74258 2076.0 1
508.74957 -365.43976 2063.0 1
530.246 -365.43976 2063.0 1
545.3238 -361.18842 2039.0 1
559.9013 -356.93704 2015.0 1
558.1229 -342.943 1936.0 1
575.0104 -340.99445 1925.0 1
595.0688 -340.99445 1925.0 1
611.9319 -339.22305 1915.0 1
635.18585 -340.99445 1925.0 1
655.24426 -340.99445 1925.0 1
393.52866 -425.011 2266.0 1
406.4633 -414.1325 2208.0 1
421.49597 -406.44257 2167.0 1
441.20706 -403.8167 2153.0 1
455.2429 -396.50186 2114.0 1
474.33575 -394.0636 2101.0 1
490.32346 -389.3746 2076.0 1
508.74957 -386.9363 2063.0 1
527.1617 -384.6856 2051.0 1
545.3238 -382.43488 2039.0 1
563.2357 -380.18414 2027.0 1
564.4652 -367.24252 1958.0 1
575.0104 -361.05304 1925.0 1
591.97754 -359.17743 1915.0 1
615.1274 -361.05304 1925.0 1
631.88617 -359.17743 1915.0 1
648.0961 -357.11426 1904.0 1
388.49234 -442.8813 2237.0 1
406.4633 -437.13986 2208.0 1
421.49597 -429.02267 2167.0 1
441.20706 -426.25095 2153.0 1
455.2429 -418.52972 2114.0 1
477.27072 -418.52972 2114.0 1
490.32346 -411.0065 2076.0 1
508.74957 -408.43274 2063.0 1
527.1617 -406.057 2051.0 1
545.3238 -403.68124 2039.0 1
566.5701 -403.68124 2039.0 1
564.4652 -387.64487 1958.0 1
575.0104 -381.1115 1925.0 1
591.97754 -379.1317 1915.0 1
611.9319 -379.1317 1915.0 1
631.88617 -379.1317 1915.0 1
369.917 -472.2344 2266.0 1
388.49234 -466.1908 2237.0 1
403.88608 -457.22958 2194.0 1
421.49597 -451.60278 2167.0 1
441.20706 -448.68518 2153.0 1
455.2429 -440.5576 2114.0 1
474.33575 -437.8484 2101.0 1
490.32346 -432.6384 2076.0 1
508.74957 -429.9292 2063.0 1
527.1617 -427.4284 2051.0 1
545.3238 -424.92758 2039.0 1
563.2357 -422.4268 2027.0 1
567.6364 -410.3396 1969.0 1
575.0104 -401.16998 1925.0 1
595.0688 -401.16998 1925.0 1
611.9319 -399.086 1915.0 1
635.18585 -401.16998 1925.0 1
658.9885 -403.4624 1936.0 1
367.63156 -492.78262 2252.0 1
386.061 -486.43683 2223.0 1
401.49295 -477.2464 2181.0 1
418.7729 -471.11942 2153.0 1
433.21494 -462.58545 2114.0 1
452.4434 -459.74078 2101.0 1
471.4008 -456.89612 2088.0 1
490.32346 -454.2703 2076.0 1
508.74957 -451.42563 2063.0 1
527.1617 -448.7998 2051.0 1
548.53314 -448.7998 2051.0 1
563.2357 -443.54813 2027.0 1
577.4381 -438.29642 2003.0 1
575.0104 -421.2285 1925.0 1
595.0688 -421.2285 1925.0 1
615.1274 -421.2285 1925.0 1
635.18585 -421.2285 1925.0 1
655.24426 -421.2285 1925.0 1
679.16174 -423.6355 1936.0 1
372.3657 -522.89636 2281.0 1
386.061 -509.60046 2223.0 1
401.49295 -499.97238 2181.0 1
421.49597 -496.76303 2167.0 1
435.879 -487.5934 2127.0 1
452.4434 -481.63318 2101.0 1
471.4008 -478.65308 2088.0 1
487.25302 -472.92206 2063.0 1
508.74957 -472.92206 2063.0 1
527.1617 -470.1712 2051.0 1
548.53314 -470.1712 2051.0 1
566.5701 -467.42032 2039.0 1
584.357 -464.66943 2027.0 1
584.8677 -448.85187 1958.0 1
595.0688 -441.28696 1925.0 1
615.1274 -441.28696 1925.0 1
638.8154 -443.8086 1936.0 1
655.24426 -441.28696 1925.0 1
679.16174 -443.8086 1936.0 1
369.917 -543.0696 2266.0 1
386.061 -532.7642 2223.0 1
403.88608 -525.8141 2194.0 1
418.7729 -515.98804 2153.0 1
438.54303 -512.87244 2140.0 1
452.4434 -503.5257 2101.0 1
474.33575 -503.5257 2101.0 1
490.32346 -497.53418 2076.0 1
508.74957 -494.4186 2063.0 1
530.246 -494.4186 2063.0 1
545.3238 -488.66678 2039.0 1
569.90454 -491.5427 2051.0 1
587.81647 -488.66678 2039.0 1
598.30945 -480.039 2003.0 1
601.86957 -466.61804 1947.0 1
618.6424 -463.98178 1936.0 1
638.8154 -463.98178 1936.0 1
655.24426 -461.34552 1925.0 1
683.02057 -466.61804 1947.0 1
369.917 -566.6813 2266.0 1
388.49234 -559.42896 2237.0 1
403.88608 -548.67554 2194.0 1
421.49597 -541.9234 2167.0 1
438.54303 -535.1712 2140.0 1
452.4434 -525.4181 2101.0 1
474.33575 -525.4181 2101.0 1
490.32346 -519.1661 2076.0 1
508.74957 -515.91504 2063.0 1
530.246 -515.91504 2063.0 1
548.53314 -512.91406 2051.0 1
569.90454 -512.91406 2051.0 1
591.2759 -512.91406 2051.0 1
612.6474 -512.91406 2051.0 1
615.7803 -498.15936 1992.0 1
618.6424 -484.15488 1936.0 1
638.8154 -484.15488 1936.0 1
658.9885 -484.15488 1936.0 1
679.16174 -484.15488 1936.0 1
703.3083 -486.90576 1947.0 1
369.917 -590.29297 2266.0 1
391.09732 -586.646 2252.0 1
406.4633 -575.18396 2208.0 1
421.49597 -564.5035 2167.0 1
438.54303 -557.47 2140.0 1
455.2429 -550.69696 2114.0 1
474.33575 -547.3105 2101.0 1
493.15768 -543.924 2088.0 1
511.95544 -540.798 2076.0 1
530.246 -537.4115 2063.0 1
551.7425 -537.4115 2063.0 1
573.23895 -537.4115 2063.0 1
594.73535 -537.4115 2063.0 1
616.2319 -537.4115 2063.0 1
637.7283 -537.4115 2063.0 1
629.18744 -512.9245 1969.0 1
642.44507 -507.19348 1947.0 1
666.47705 -510.059 1958.0 1
686.87946 -510.059 1958.0 1
711.25525 -512.9245 1969.0 1
382.487 -634.7655 2343.0 1
396.13367 -617.9685 2281.0 1
409.22458 -602.2551 2223.0 1
429.47073 -598.19135 2208.0 1
438.54303 -579.76874 2140.0 1
455.2429 -572.72485 2114.0 1
477.27072 -572.72485 2114.0 1
493.15768 -565.6809 2088.0 1
511.95544 -562.4299 2076.0 1
533.58734 -562.4299 2076.0 1
555.2193 -562.4299 2076.0 1
576.8512 -562.4299 2076.0 1
598.48303 -562.4299 2076.0 1
620.11505 -562.4299 2076.0 1
645.4564 -565.6809 2088.0 1
671.3676 -569.2029 2101.0 1
649.70435 -533.44147 1969.0 1
670.22125 -533.44147 1969.0 1
686.87946 -530.4613 1958.0 1
707.2818 -530.4613 1958.0 1
735.8604 -536.4216 1980.0 1
382.487 -659.17957 2343.0 1
401.51733 -650.458 2312.0 1
414.5631 -633.57764 2252.0 1
432.38834 -625.41876 2223.0 1
444.07605 -609.6637 2167.0 1
460.84192 -602.06757 2140.0 1
477.27072 -594.7527 2114.0 1
496.22812 -591.0953 2101.0 1
514.91473 -587.43787 2088.0 1
533.58734 -584.06177 2076.0 1
555.2193 -584.06177 2076.0 1
576.8512 -584.06177 2076.0 1
598.48303 -584.06177 2076.0 1
623.6995 -587.43787 2088.0 1
645.4564 -587.43787 2088.0 1
675.52167 -594.7527 2114.0 1
701.8391 -598.41016 2127.0 1
670.22125 -553.95844 1969.0 1
690.73834 -553.95844 1969.0 1
711.25525 -553.95844 1969.0 1
740.3202 -560.42926 1992.0 1
765.27954 -563.524 2003.0 1
382.487 -683.5937 2343.0 1
401.51733 -674.54913 2312.0 1
419.9016 -665.5046 2281.0 1
438.02902 -657.0436 2252.0 1
452.47803 -644.2061 2208.0 1
466.65628 -632.24396 2167.0 1
480.2057 -620.57355 2127.0 1
499.29855 -616.7807 2114.0 1
518.1206 -612.9878 2101.0 1
536.67163 -609.1949 2088.0 1
555.2193 -605.6938 2076.0 1
576.8512 -605.6938 2076.0 1
601.9425 -609.1949 2088.0 1
623.6995 -609.1949 2088.0 1
653.4937 -616.7807 2114.0 1
675.52167 -616.7807 2114.0 1
706.12866 -624.36646 2140.0 1
742.38324 -636.3286 2181.0 1
694.5972 -577.6848 1980.0 1
715.22876 -577.6848 1980.0 1
735.8604 -577.6848 1980.0 1
761.0768 -581.186 1992.0 1
385.09894 -712.84265 2359.0 1
401.51733 -698.6402 2312.0 1
419.9016 -689.2726 2281.0 1
443.66974 -689.2726 2281.0 1
461.4948 -680.5094 2252.0 1
478.7157 -671.74615 2223.0 1
492.3971 -659.05457 2181.0 1
502.369 -642.7369 2127.0 1
524.5324 -642.7369 2127.0 1
543.3543 -638.80853 2114.0 1
561.9055 -634.8802 2101.0 1
583.79785 -634.8802 2101.0 1
605.69025 -634.8802 2101.0 1
627.5827 -634.8802 2101.0 1
653.4937 -638.80853 2114.0 1
675.52167 -638.80853 2114.0 1
706.12866 -646.6652 2140.0 1
737.61786 -654.8241 2167.0 1
723.537 -605.26654 2003.0 1
735.8604 -598.3164 1980.0 1
761.0768 -601.94257 1992.0 1
781.8334 -601.94257 1992.0 1
385.09894 -737.4234 2359.0 1
404.1223 -727.42017 2327.0 1
422.84702 -718.0422 2297.0 1
443.66974 -713.0406 2281.0 1
464.3638 -708.35156 2266.0 1
487.9756 -708.35156 2266.0 1
501.8793 -694.9098 2223.0 1
511.81644 -677.4042 2167.0 1
530.94415 -673.0278 2153.0 1
546.6957 -664.9002 2127.0 1
565.3823 -660.83636 2114.0 1
587.4101 -660.83636 2114.0 1
609.4379 -660.83636 2114.0 1
635.3491 -664.9002 2127.0 1
657.5124 -664.9002 2127.0 1
679.6758 -664.9002 2127.0 1
715.0378 -677.4042 2167.0 1
746.8083 -685.84436 2194.0 1
740.87585 -641.1426 2051.0 1
744.4083 -626.1378 2003.0 1
765.27954 -626.1378 2003.0 1
790.8606 -629.889 2015.0 1
816.69183 -633.6402 2027.0 1
387.87415 -767.4955 2376.0 1
406.901 -756.8358 2343.0 1
425.6083 -746.8222 2312.0 1
443.66974 -736.8086 2281.0 1
467.43768 -736.8086 2281.0 1
491.2058 -736.8086 2281.0 1
518.586 -741.9769 2297.0 1
521.5001 -713.22815 2208.0 1
537.8492 -704.5066 2181.0 1
553.37836 -695.46204 2153.0 1
572.33594 -691.26276 2140.0 1
591.0224 -687.0635 2127.0 1
613.18567 -687.0635 2127.0 1
635.3491 -687.0635 2127.0 1
661.531 -691.26276 2140.0 1
687.984 -695.46204 2153.0 1
719.6573 -704.5066 2181.0 1
742.38324 -704.5066 2181.0 1
748.8681 -650.88525 2015.0 1
769.8643 -650.88525 2015.0 1
790.8606 -650.88525 2015.0 1
816.69183 -654.76154 2027.0 1
832.8532 -650.88525 2015.0 1
387.87415 -792.25336 2376.0 1
404.1223 -775.9148 2327.0 1
428.3696 -775.9148 2327.0 1
443.66974 -760.5766 2281.0 1
467.43768 -760.5766 2281.0 1
494.65134 -765.9116 2297.0 1
525.359 -775.9148 2327.0 1
535.1989 -755.57495 2266.0 1
548.20667 -741.23706 2223.0 1
563.91644 -731.5673 2194.0 1
579.55695 -722.56445 2167.0 1
598.24695 -717.89624 2153.0 1
620.68115 -717.89624 2153.0 1
643.1155 -717.89624 2153.0 1
669.87744 -722.56445 2167.0 1
692.45764 -722.56445 2167.0 1
728.5664 -736.2355 2208.0 1
756.6795 -741.23706 2223.0 1
771.5385 -692.2214 2076.0 1
774.4491 -675.8828 2027.0 1
795.57043 -675.8828 2027.0 1
816.69183 -675.8828 2027.0 1
390.48608 -822.5131 2392.0 1
406.901 -805.664 2343.0 1
428.3696 -800.16223 2327.0 1
449.69943 -795.00433 2312.0 1
476.86432 -800.16223 2327.0 1
497.88153 -795.00433 2312.0 1
525.359 -800.16223 2327.0 1
525.0429 -764.4008 2223.0 1
551.6591 -769.21484 2237.0 1
574.9686 -769.21484 2237.0 1
590.5223 -759.2429 2208.0 1
609.63947 -754.4289 2194.0 1
628.7532 -749.9587 2181.0 1
651.47925 -749.9587 2181.0 1
674.2052 -749.9587 2181.0 1
705.5591 -759.2429 2208.0 1
733.51587 -764.4008 2223.0 1
761.4449 -769.21484 2237.0 1
771.5385 -713.8534 2076.0 1
774.4491 -697.0043 2027.0 1
795.57043 -697.0043 2027.0 1
811.85693 -692.8779 2015.0 1
393.2613 -853.4605 2409.0 1
409.67966 -835.7465 2359.0 1
428.3696 -824.40955 2327.0 1
452.61703 -824.40955 2327.0 1
476.86432 -824.40955 2327.0 1
501.11176 -824.40955 2327.0 1
532.58356 -835.7465 2359.0 1
574.9686 -792.52435 2237.0 1
598.27826 -792.52435 2237.0 1
617.6976 -787.56445 2223.0 1
636.53687 -782.25024 2208.0 1
659.5443 -782.25024 2208.0 1
687.18854 -787.56445 2223.0 1
710.3523 -787.56445 2223.0 1
738.13544 -792.52435 2237.0 1
766.5507 -797.83856 2252.0 1
774.4491 -718.12555 2027.0 1
363.11612 -866.52716 2376.0 1
390.48608 -872.36237 2392.0 1
409.67966 -860.3273 2359.0 1
431.315 -854.49207 2343.0 1
452.61703 -848.65686 2327.0 1
476.86432 -848.65686 2327.0 1
504.55728 -854.49207 2343.0 1
614.3251 -837.7159 2297.0 1
633.81384 -831.8807 2281.0 1
644.8972 -815.83386 2237.0 1
664.02496 -810.7281 2223.0 1
687.18854 -810.7281 2223.0 1
714.8259 -815.83386 2237.0 1
743.0849 -821.3044 2252.0 1
781.8681 -837.7159 2297.0 1
437.61572 -1152.7437 3073.0 1
368.1594 -903.66406 2409.0 1
387.87415 -891.2851 2376.0 1
409.67966 -884.908 2359.0 1
431.315 -878.9061 2343.0 1
455.72916 -878.9061 2343.0 1
480.14313 -878.9061 2343.0 1
630.90674 -884.908 2359.0 1
642.42773 -867.2774 2312.0 1
657.5818 -855.6487 2281.0 1
676.8693 -850.0219 2266.0 1
700.48096 -850.0219 2266.0 1
719.61914 -844.7702 2252.0 1
747.70447 -850.0219 2266.0 1
792.0797 -872.9042 2327.0 1
350.32043 -948.42834 2460.0 1
368.1594 -928.7658 2409.0 1
387.87415 -916.04297 2376.0 1
406.901 -903.3201 2343.0 1
431.315 -903.3201 2343.0 1
455.72916 -903.3201 2343.0 1
483.42197 -909.4888 2359.0 1
638.93365 -1143.8971 2967.0 1
660.2112 -916.04297 2376.0 1
662.1944 -885.5853 2297.0 1
686.1292 -885.5853 2297.0 1
705.11786 -879.4167 2281.0 1
728.886 -879.4167 2281.0 1
757.9334 -885.5853 2297.0 1
781.8681 -885.5853 2297.0 1
343.05768 -953.8677 2409.0 1
365.56134 -947.13635 2392.0 1
387.87415 -940.80096 2376.0 1
409.67966 -934.06964 2359.0 1
434.26038 -934.06964 2359.0 1
458.84125 -934.06964 2359.0 1
490.18454 -947.13635 2392.0 1
655.4874 -934.06964 2359.0 1
675.45557 -927.7343 2343.0 1
686.1292 -909.52014 2297.0 1
705.11786 -903.1848 2281.0 1
728.886 -903.1848 2281.0 1
757.9334 -909.52014 2297.0 1
786.9739 -915.45953 2312.0 1
343.05768 -978.9694 2409.0 1
365.56134 -972.061 2392.0 1
387.87415 -965.5589 2376.0 1
409.67966 -958.65045 2359.0 1
431.315 -952.1483 2343.0 1
462.14786 -965.5589 2376.0 1
648.8257 -985.87787 2426.0 1
664.65704 -972.061 2392.0 1
680.0682 -958.65045 2359.0 1
695.09045 -945.64624 2327.0 1
710.0639 -933.4549 2297.0 1
738.79193 -939.55054 2312.0 1
767.8324 -945.64624 2327.0 1
776.42194 -926.95276 2281.0 1
