ply
format ascii 1.0
comment : created from Kinect user tracker
element vertex 855
property float x
property float y
property float z
property int userId
end_header
127.127525 358.94812 2153.0 1
103.42889 332.4501 2127.0 1
124.82471 330.41818 2114.0 1
145.94946 328.3863 2101.0 1
167.84183 328.3863 2101.0 1
190.90833 330.41818 2114.0 1
58.37973 306.4939 2101.0 1
80.27223 306.4939 2101.0 1
100.94893 302.8469 2076.0 1
121.813324 300.95047 2063.0 1
143.30974 300.95047 2063.0 1
165.84467 302.8469 2076.0 1
189.73433 306.4939 2101.0 1
211.6267 306.4939 2101.0 1
232.0743 304.59744 2088.0 1
58.37973 284.60144 2101.0 1
78.82038 279.45398 2063.0 1
100.31679 279.45398 2063.0 1
121.813324 279.45398 2063.0 1
142.47614 277.82843 2051.0 1
163.84749 277.82843 2051.0 1
185.219 277.82843 2051.0 1
210.31725 282.84045 2088.0 1
233.5192 284.60144 2101.0 1
36.71313 264.33456 2114.0 1
58.37973 262.70905 2101.0 1
79.31706 259.58304 2076.0 1
100.94893 259.58304 2076.0 1
121.813324 257.95752 2063.0 1
143.30974 257.95752 2063.0 1
163.84749 256.45703 2051.0 1
185.219 256.45703 2051.0 1
207.79909 257.95752 2063.0 1
233.5192 262.70905 2101.0 1
260.15265 267.5856 2140.0 1
14.95623 246.77684 2153.0 1
36.71313 242.30666 2114.0 1
58.37973 240.81659 2101.0 1
79.77554 239.32654 2088.0 1
101.53245 239.32654 2088.0 1
121.813324 236.46103 2063.0 1
143.30974 236.46103 2063.0 1
164.80614 236.46103 2063.0 1
186.30267 236.46103 2063.0 1
209.10854 237.9511 2076.0 1
233.5192 240.81659 2101.0 1
256.99194 242.30666 2114.0 1
15.053484 225.80139 2167.0 1
36.9389 221.63339 2127.0 1
58.740955 220.2788 2114.0 1
80.27223 218.9242 2101.0 1
101.53245 217.5696 2088.0 1
121.813324 214.9646 2063.0 1
142.47614 213.7142 2051.0 1
164.80614 214.9646 2063.0 1
186.30267 214.9646 2063.0 1
210.31725 217.5696 2088.0 1
239.29883 224.34259 2153.0 1
37.164665 200.68922 2140.0 1
58.740955 198.25093 2114.0 1
80.76892 198.25093 2114.0 1
102.1646 197.0318 2101.0 1
123.28949 195.81265 2088.0 1
145.0464 195.81265 2088.0 1
164.80614 193.46815 2063.0 1
189.73433 197.0318 2101.0 1
212.93614 198.25093 2114.0 1
239.29883 201.90836 2153.0 1
265.1369 204.5342 2181.0 1
37.633568 180.64111 2167.0 1
59.824635 179.47406 2153.0 1
80.76892 176.22302 2114.0 1
102.1646 175.13934 2101.0 1
123.28949 174.05566 2088.0 1
144.2128 173.05534 2076.0 1
164.80614 171.97166 2063.0 1
190.90833 176.22302 2114.0 1
212.93614 176.22302 2114.0 1
243.85583 182.89183 2194.0 1
60.963886 160.03036 2194.0 1
82.25898 157.03983 2153.0 1
102.1646 153.24695 2101.0 1
123.28949 152.29872 2088.0 1
144.2128 151.42345 2076.0 1
164.80614 150.47523 2063.0 1
190.90833 154.19518 2114.0 1
40.41223 145.48401 2327.0 1
64.242714 144.54622 2312.0 1
81.76229 133.79277 2140.0 1
102.796745 132.16725 2114.0 1
124.0571 131.35449 2101.0 1
145.0464 130.54173 2088.0 1
166.8033 130.54173 2088.0 1
190.90833 132.16725 2114.0 1
228.2466 141.67029 2266.0 1
251.8584 141.67029 2266.0 1
-56.96612 122.0703 2343.0 1
-32.329754 121.236694 2327.0 1
-8.030377 120.4552 2312.0 1
16.164955 121.236694 2327.0 1
40.151733 120.4552 2312.0 1
63.825912 119.6737 2297.0 1
86.04144 117.3292 2252.0 1
104.061035 111.493996 2140.0 1
124.82471 110.1394 2114.0 1
145.94946 109.4621 2101.0 1
167.84183 109.4621 2101.0 1
193.25629 111.493996 2140.0 1
228.2466 118.0586 2266.0 1
253.5256 118.840096 2281.0 1
277.29355 118.840096 2281.0 1
-56.57711 96.98938 2327.0 1
-32.121357 96.36418 2312.0 1
-7.9782767 95.73898 2297.0 1
16.060755 96.36418 2312.0 1
39.89123 95.73898 2297.0 1
62.964527 94.4469 2266.0 1
86.04144 93.86338 2252.0 1
107.367645 92.02946 2208.0 1
127.127525 89.73706 2153.0 1
146.85252 88.11154 2114.0 1
171.99593 89.73706 2153.0 1
200.75174 92.65466 2223.0 1
226.83643 93.86338 2252.0 1
250.30235 93.86338 2252.0 1
275.47006 94.4469 2266.0 1
299.08173 94.4469 2266.0 1
322.69354 94.4469 2266.0 1
-81.380196 73.242165 2343.0 1
-56.21241 72.27311 2312.0 1
-31.912956 71.80421 2297.0 1
-7.9227033 71.30405 2281.0 1
15.845407 71.30405 2281.0 1
39.613365 71.30405 2281.0 1
62.964527 70.835144 2266.0 1
85.46834 69.928604 2237.0 1
108.097046 69.49097 2223.0 1
130.37509 69.022064 2208.0 1
154.4244 69.49097 2223.0 1
177.588 69.49097 2223.0 1
200.75174 69.49097 2223.0 1
223.91534 69.49097 2223.0 1
250.30235 70.39751 2252.0 1
273.76813 70.39751 2252.0 1
295.25412 69.928604 2237.0 1
320.69983 70.39751 2252.0 1
346.30518 70.835144 2266.0 1
-81.380196 48.828133 2343.0 1
-56.21241 48.18209 2312.0 1
-31.912956 47.86949 2297.0 1
-7.870603 47.22345 2266.0 1
15.741206 47.22345 2266.0 1
39.352867 47.22345 2266.0 1
62.575512 46.93169 2252.0 1
85.46834 46.61909 2237.0 1
108.097046 46.32733 2223.0 1
131.2608 46.32733 2223.0 1
154.4244 46.32733 2223.0 1
177.588 46.32733 2223.0 1
200.75174 46.32733 2223.0 1
223.91534 46.32733 2223.0 1
247.0791 46.32733 2223.0 1
270.2427 46.32733 2223.0 1
295.25412 46.61909 2237.0 1
318.56375 46.61909 2237.0 1
341.87323 46.61909 2237.0 1
367.63156 46.93169 2252.0 1
-82.5264 24.757896 2376.0 1
-56.57711 24.247316 2327.0 1
-31.912956 23.934717 2297.0 1
-7.870603 23.611696 2266.0 1
15.845407 23.767998 2281.0 1
39.352867 23.611696 2266.0 1
62.158714 23.309517 2237.0 1
84.93345 23.163637 2223.0 1
108.097046 23.163637 2223.0 1
131.2608 23.163637 2223.0 1
153.3824 23.007338 2208.0 1
177.588 23.163637 2223.0 1
200.75174 23.163637 2223.0 1
223.91534 23.163637 2223.0 1
247.0791 23.163637 2223.0 1
270.2427 23.163637 2223.0 1
295.25412 23.309517 2237.0 1
318.56375 23.309517 2237.0 1
339.73364 23.163637 2223.0 1
367.63156 23.465816 2252.0 1
-108.00679 0.0 2392.0 1
-82.5264 0.0 2376.0 1
-56.57711 0.0 2327.0 1
-31.912956 0.0 2297.0 1
-7.870603 0.0 2266.0 1
15.741206 0.0 2266.0 1
39.109734 0.0 2252.0 1
62.158714 0.0 2237.0 1
84.93345 0.0 2223.0 1
108.097046 0.0 2223.0 1
130.37509 0.0 2208.0 1
153.3824 0.0 2208.0 1
177.588 0.0 2223.0 1
200.75174 0.0 2223.0 1
223.91534 0.0 2223.0 1
247.0791 0.0 2223.0 1
270.2427 0.0 2223.0 1
293.40628 0.0 2223.0 1
316.57004 0.0 2223.0 1
341.87323 0.0 2237.0 1
369.917 0.0 2266.0 1
-108.00679 -24.924616 2392.0 1
-82.5264 -24.757896 2376.0 1
-56.96612 -24.414036 2343.0 1
-31.912956 -23.934717 2297.0 1
-7.870603 -23.611696 2266.0 1
15.741206 -23.611696 2266.0 1
39.109734 -23.465816 2252.0 1
62.158714 -23.309517 2237.0 1
84.93345 -23.163637 2223.0 1
107.367645 -23.007338 2208.0 1
130.37509 -23.007338 2208.0 1
153.3824 -23.007338 2208.0 1
176.3897 -23.007338 2208.0 1
199.39714 -23.007338 2208.0 1
222.40445 -23.007338 2208.0 1
245.4119 -23.007338 2208.0 1
270.2427 -23.163637 2223.0 1
293.40628 -23.163637 2223.0 1
320.69983 -23.465816 2252.0 1
346.30518 -23.611696 2266.0 1
372.3657 -23.767998 2281.0 1
-108.77439 -50.20351 2409.0 1
-83.08213 -49.84923 2392.0 1
-57.768463 -49.515793 2376.0 1
-32.121357 -48.182034 2312.0 1
-7.870603 -47.223392 2266.0 1
15.741206 -47.223392 2266.0 1
39.109734 -46.931633 2252.0 1
62.158714 -46.619034 2237.0 1
84.93345 -46.327274 2223.0 1
108.097046 -46.327274 2223.0 1
130.37509 -46.014675 2208.0 1
153.3824 -46.014675 2208.0 1
176.3897 -46.014675 2208.0 1
199.39714 -46.014675 2208.0 1
222.40445 -46.014675 2208.0 1
245.4119 -46.014675 2208.0 1
270.2427 -46.327274 2223.0 1
293.40628 -46.327274 2223.0 1
320.69983 -46.931633 2252.0 1
346.30518 -47.223392 2266.0 1
374.97766 -47.869434 2297.0 1
401.51733 -48.182034 2312.0 1
-109.542 -75.83681 2426.0 1
-83.08213 -74.773964 2392.0 1
-58.157475 -74.773964 2392.0 1
-32.329754 -72.742065 2327.0 1
-7.870603 -70.835205 2266.0 1
15.741206 -70.835205 2266.0 1
39.109734 -70.39756 2252.0 1
62.158714 -69.928665 2237.0 1
85.46834 -69.928665 2237.0 1
108.097046 -69.49102 2223.0 1
131.2608 -69.49102 2223.0 1
153.3824 -69.022125 2208.0 1
176.3897 -69.022125 2208.0 1
199.39714 -69.022125 2208.0 1
222.40445 -69.022125 2208.0 1
247.0791 -69.49102 2223.0 1
270.2427 -69.49102 2223.0 1
295.25412 -69.928665 2237.0 1
322.69354 -70.835205 2266.0 1
348.5976 -71.30411 2281.0 1
374.97766 -71.80427 2297.0 1
404.1223 -72.742065 2327.0 1
-137.71075 -103.283066 2478.0 1
-110.30961 -101.824265 2443.0 1
-84.85353 -101.824265 2443.0 1
-59.810783 -102.53282 2460.0 1
-32.329754 -96.98938 2327.0 1
-7.870603 -94.4469 2266.0 1
15.741206 -94.4469 2266.0 1
39.352867 -94.4469 2266.0 1
62.575512 -93.86338 2252.0 1
85.46834 -93.23818 2237.0 1
108.097046 -92.65466 2223.0 1
131.2608 -92.65466 2223.0 1
154.4244 -92.65466 2223.0 1
176.3897 -92.02946 2208.0 1
199.39714 -92.02946 2208.0 1
222.40445 -92.02946 2208.0 1
247.0791 -92.65466 2223.0 1
270.2427 -92.65466 2223.0 1
297.23392 -93.86338 2252.0 1
324.82962 -95.0721 2281.0 1
351.04282 -95.73898 2297.0 1
374.97766 -95.73898 2297.0 1
-165.9072 -130.9794 2514.0 1
-139.7114 -130.9794 2514.0 1
-111.88998 -129.10379 2478.0 1
-85.444 -128.166 2460.0 1
-60.68606 -130.0416 2496.0 1
-32.329754 -121.236694 2327.0 1
-7.9782767 -119.6737 2297.0 1
15.845407 -118.840096 2281.0 1
39.352867 -118.0586 2266.0 1
62.158714 -116.5477 2237.0 1
85.46834 -116.5477 2237.0 1
108.097046 -115.8183 2223.0 1
131.2608 -115.8183 2223.0 1
154.4244 -115.8183 2223.0 1
176.3897 -115.0368 2208.0 1
199.39714 -115.0368 2208.0 1
222.40445 -115.0368 2208.0 1
247.0791 -115.8183 2223.0 1
271.94464 -116.5477 2237.0 1
299.08173 -118.0586 2266.0 1
329.24423 -120.4552 2312.0 1
353.3352 -120.4552 2312.0 1
379.87506 -121.236694 2327.0 1
404.1223 -121.236694 2327.0 1
-165.9072 -157.17525 2514.0 1
-139.7114 -157.17525 2514.0 1
-113.515495 -157.17525 2514.0 1
-87.319595 -157.17525 2514.0 1
-8.082478 -145.48401 2327.0 1
15.845407 -142.6081 2281.0 1
39.352867 -141.67029 2266.0 1
62.964527 -141.67029 2266.0 1
86.04144 -140.79501 2252.0 1
108.777824 -139.85721 2237.0 1
131.2608 -138.98193 2223.0 1
154.4244 -138.98193 2223.0 1
177.588 -138.98193 2223.0 1
199.39714 -138.04413 2208.0 1
223.91534 -138.98193 2223.0 1
247.0791 -138.98193 2223.0 1
275.47006 -141.67029 2266.0 1
301.06152 -142.6081 2281.0 1
335.93735 -147.48465 2359.0 1
358.07285 -146.48433 2343.0 1
385.09894 -147.48465 2359.0 1
409.67966 -147.48465 2359.0 1
-193.47855 -184.68402 2532.0 1
-167.09508 -184.68402 2532.0 1
-140.71172 -184.68402 2532.0 1
-114.328255 -184.68402 2532.0 1
-87.9448 -184.68402 2532.0 1
-33.94138 -178.19237 2443.0 1
-8.138051 -170.89838 2343.0 1
16.164955 -169.73132 2327.0 1
39.613365 -166.3761 2281.0 1
62.964527 -165.282 2266.0 1
86.57633 -165.282 2266.0 1
110.187996 -165.282 2266.0 1
132.97314 -164.26083 2252.0 1
155.39693 -163.16673 2237.0 1
177.588 -162.14557 2223.0 1
200.75174 -162.14557 2223.0 1
225.32552 -163.16673 2237.0 1
250.30235 -164.26083 2252.0 1
279.23862 -167.54314 2297.0 1
307.1329 -169.73132 2327.0 1
340.63678 -174.47243 2392.0 1
365.56134 -174.47243 2392.0 1
390.48608 -174.47243 2392.0 1
412.632 -173.30539 2376.0 1
-193.47855 -211.06757 2532.0 1
-165.9072 -209.5671 2514.0 1
-140.71172 -211.06757 2532.0 1
-114.328255 -211.06757 2532.0 1
-33.232822 -199.39717 2392.0 1
-8.252671 -198.0634 2376.0 1
16.276102 -195.31253 2343.0 1
39.613365 -190.1442 2281.0 1
62.964527 -188.8938 2266.0 1
86.57633 -188.8938 2266.0 1
109.507225 -187.72676 2252.0 1
132.97314 -187.72676 2252.0 1
157.41147 -188.8938 2266.0 1
178.7064 -186.47636 2237.0 1
203.37064 -187.72676 2252.0 1
228.2466 -188.8938 2266.0 1
253.5256 -190.1442 2281.0 1
282.88562 -193.97876 2327.0 1
311.35648 -196.64629 2359.0 1
343.05768 -200.81429 2409.0 1
365.56134 -199.39717 2392.0 1
390.48608 -199.39717 2392.0 1
418.363 -200.81429 2409.0 1
-221.51183 -239.2328 2551.0 1
-193.47855 -237.45097 2532.0 1
-165.9072 -235.76294 2514.0 1
-140.71172 -237.45097 2532.0 1
-114.328255 -237.45097 2532.0 1
-33.469006 -225.91605 2409.0 1
-8.252671 -222.8213 2376.0 1
16.276102 -219.72656 2343.0 1
39.89123 -215.41267 2297.0 1
62.964527 -212.5055 2266.0 1
86.57633 -212.5055 2266.0 1
109.507225 -211.19258 2252.0 1
132.97314 -211.19258 2252.0 1
157.41147 -212.5055 2266.0 1
181.02312 -212.5055 2266.0 1
204.63493 -212.5055 2266.0 1
229.75749 -213.9122 2281.0 1
255.30396 -215.41267 2297.0 1
286.77576 -221.22704 2359.0 1
345.4786 -227.5103 2426.0 1
370.75745 -227.5103 2426.0 1
396.03647 -227.5103 2426.0 1
421.31534 -227.5103 2426.0 1
-221.51183 -265.8142 2551.0 1
-193.47855 -263.83438 2532.0 1
-167.09508 -263.83438 2532.0 1
-142.8235 -267.794 2570.0 1
-33.94138 -254.5606 2443.0 1
-8.252671 -247.5792 2376.0 1
16.276102 -244.1406 2343.0 1
40.151733 -240.9104 2312.0 1
63.381325 -237.68019 2281.0 1
87.14944 -237.68019 2281.0 1
110.187996 -236.1172 2266.0 1
133.7998 -236.1172 2266.0 1
156.43893 -234.6584 2252.0 1
181.02312 -236.1172 2266.0 1
204.63493 -236.1172 2266.0 1
232.88002 -240.9104 2312.0 1
256.97116 -240.9104 2312.0 1
286.77576 -245.8078 2359.0 1
350.32043 -256.332 2460.0 1
373.3555 -254.5606 2443.0 1
398.81168 -254.5606 2443.0 1
421.31534 -252.7892 2426.0 1
-221.51183 -292.3956 2551.0 1
-193.47855 -290.2178 2532.0 1
-167.09508 -290.2178 2532.0 1
-34.177567 -281.96518 2460.0 1
-8.252671 -272.3371 2376.0 1
16.164955 -266.7207 2327.0 1
40.151733 -265.0014 2312.0 1
63.381325 -261.44818 2281.0 1
87.14944 -261.44818 2281.0 1
110.9174 -261.44818 2281.0 1
133.7998 -259.72888 2266.0 1
157.41147 -259.72888 2266.0 1
182.22142 -261.44818 2281.0 1
205.98953 -261.44818 2281.0 1
234.39091 -266.7207 2327.0 1
258.63834 -266.7207 2327.0 1
286.77576 -270.38855 2359.0 1
315.71204 -274.17102 2392.0 1
375.95355 -281.96518 2460.0 1
396.03647 -278.06808 2426.0 1
424.26767 -280.01663 2443.0 1
-248.09326 -318.977 2551.0 1
-219.862 -316.60123 2532.0 1
-193.47855 -316.60123 2532.0 1
-60.68606 -312.0998 2496.0 1
-34.677727 -312.0998 2496.0 1
-8.367291 -301.2213 2409.0 1
16.387249 -294.9693 2359.0 1
40.41223 -290.96802 2327.0 1
64.242714 -289.09244 2312.0 1
87.76074 -287.21683 2297.0 1
110.9174 -285.2162 2281.0 1
134.6855 -285.2162 2281.0 1
158.45346 -285.2162 2281.0 1
183.4996 -287.21683 2297.0 1
208.78905 -289.09244 2312.0 1
234.39091 -290.96802 2327.0 1
260.4167 -292.96866 2343.0 1
288.8424 -297.095 2376.0 1
375.95355 -307.59836 2460.0 1
396.03647 -303.347 2426.0 1
421.31534 -303.347 2426.0 1
-246.24545 -342.98477 2532.0 1
-219.862 -342.98477 2532.0 1
-34.427647 -335.66992 2478.0 1
-8.308245 -324.02036 2392.0 1
16.387249 -319.55017 2359.0 1
40.690098 -317.3828 2343.0 1
64.65951 -315.21545 2327.0 1
87.76074 -311.15167 2297.0 1
111.69542 -311.15167 2297.0 1
135.63025 -311.15167 2297.0 1
159.56493 -311.15167 2297.0 1
183.4996 -311.15167 2297.0 1
210.14365 -315.21545 2327.0 1
234.39091 -315.21545 2327.0 1
260.4167 -317.3828 2343.0 1
290.78748 -324.02036 2392.0 1
375.95355 -333.23163 2460.0 1
401.58685 -333.23163 2460.0 1
424.26767 -330.92883 2443.0 1
-280.91977 -380.60095 2609.0 1
-246.24545 -369.36816 2532.0 1
-219.862 -369.36816 2532.0 1
-34.677727 -364.1165 2496.0 1
-8.367291 -351.42493 2409.0 1
16.505342 -346.6109 2376.0 1
40.690098 -341.79684 2343.0 1
64.65951 -339.46277 2327.0 1
88.906944 -339.46277 2327.0 1
112.42482 -337.27457 2312.0 1
135.63025 -335.08636 2297.0 1
159.56493 -335.08636 2297.0 1
185.89621 -339.46277 2327.0 1
210.14365 -339.46277 2327.0 1
236.00255 -341.79684 2343.0 1
265.86288 -348.94498 2392.0 1
290.78748 -348.94498 2392.0 1
381.45532 -364.1165 2496.0 1
401.58685 -358.8648 2460.0 1
427.22 -358.8648 2460.0 1
-272.6289 -395.7516 2532.0 1
-246.24545 -395.7516 2532.0 1
-219.862 -395.7516 2532.0 1
-34.677727 -390.1248 2496.0 1
-8.485386 -381.84088 2443.0 1
16.734583 -376.5267 2409.0 1
41.2632 -371.3688 2376.0 1
65.104095 -366.2109 2343.0 1
89.51825 -366.2109 2343.0 1
113.15422 -363.71008 2327.0 1
137.40166 -363.71008 2327.0 1
160.60693 -361.3656 2312.0 1
185.89621 -363.71008 2327.0 1
211.58855 -366.2109 2343.0 1
239.32652 -371.3688 2376.0 1
265.86288 -373.8696 2392.0 1
292.8541 -376.5267 2409.0 1
384.2062 -392.9382 2514.0 1
404.5253 -387.3114 2478.0 1
427.22 -384.498 2460.0 1
-274.6747 -425.30267 2551.0 1
-248.09326 -425.30267 2551.0 1
-223.16167 -428.47037 2570.0 1
-34.677727 -416.1331 2496.0 1
-8.485386 -407.29694 2443.0 1
16.852676 -404.46268 2426.0 1
41.541065 -398.79422 2392.0 1
66.02106 -396.12668 2376.0 1
89.51825 -390.62494 2343.0 1
113.93224 -390.62494 2343.0 1
138.3464 -390.62494 2343.0 1
162.76039 -390.62494 2343.0 1
187.1744 -390.62494 2343.0 1
213.03345 -393.29245 2359.0 1
240.93816 -398.79422 2392.0 1
265.86288 -398.79422 2392.0 1
290.78748 -398.79422 2392.0 1
381.45532 -416.1331 2496.0 1
404.5253 -413.13214 2478.0 1
430.34598 -413.13214 2478.0 1
-301.25604 -451.8841 2551.0 1
-272.6289 -448.51843 2532.0 1
-248.09326 -451.8841 2551.0 1
-219.862 -448.51843 2532.0 1
-61.56134 -448.51843 2532.0 1
-34.677727 -442.1414 2496.0 1
-8.544433 -435.76434 2460.0 1
17.088865 -435.76434 2460.0 1
42.13153 -429.74158 2426.0 1
66.465645 -423.7188 2392.0 1
90.77907 -420.88458 2376.0 1
114.71027 -417.8732 2359.0 1
139.29115 -417.8732 2359.0 1
165.0528 -420.88458 2376.0 1
189.81065 -420.88458 2376.0 1
216.01358 -423.7188 2392.0 1
239.32652 -420.88458 2376.0 1
265.86288 -423.7188 2392.0 1
290.78748 -423.7188 2392.0 1
381.45532 -442.1414 2496.0 1
404.5253 -438.95285 2478.0 1
430.34598 -438.95285 2478.0 1
-303.49982 -482.02924 2570.0 1
-274.6747 -478.4656 2551.0 1
-248.09326 -478.4656 2551.0 1
-221.51183 -478.4656 2551.0 1
-34.677727 -468.1498 2496.0 1
-8.544433 -461.39764 2460.0 1
17.213905 -464.7737 2478.0 1
42.426765 -458.2091 2443.0 1
66.93801 -451.8321 2409.0 1
91.39037 -448.64355 2392.0 1
115.53693 -445.6426 2376.0 1
140.29494 -445.6426 2376.0 1
165.0528 -445.6426 2376.0 1
189.81065 -445.6426 2376.0 1
214.56866 -445.6426 2376.0 1
239.32652 -445.6426 2376.0 1
267.75238 -451.8321 2409.0 1
292.8541 -451.8321 2409.0 1
384.2062 -471.52588 2514.0 1
407.46375 -468.1498 2496.0 1
436.598 -471.52588 2514.0 1
-303.49982 -508.80862 2570.0 1
-278.7663 -512.57025 2589.0 1
-248.09326 -505.047 2551.0 1
-219.862 -501.28537 2532.0 1
-61.56134 -501.28537 2532.0 1
-34.927807 -497.72174 2514.0 1
-8.606953 -490.59445 2478.0 1
17.213905 -490.59445 2478.0 1
42.722 -487.03082 2460.0 1
66.93801 -476.93384 2409.0 1
91.39037 -473.56818 2392.0 1
116.31495 -473.56818 2392.0 1
141.23969 -473.56818 2392.0 1
166.16426 -473.56818 2392.0 1
189.81065 -470.40048 2376.0 1
214.56866 -470.40048 2376.0 1
240.93816 -473.56818 2392.0 1
267.75238 -476.93384 2409.0 1
294.92072 -480.2995 2426.0 1
386.9571 -501.28537 2532.0 1
410.4022 -497.72174 2514.0 1
430.34598 -490.59445 2478.0 1
-274.6747 -531.6284 2551.0 1
-246.24545 -527.66876 2532.0 1
-218.299 -523.9176 2514.0 1
-35.177887 -527.66876 2532.0 1
-8.669473 -520.1664 2496.0 1
17.213905 -516.41516 2478.0 1
42.722 -512.664 2460.0 1
66.93801 -502.03558 2409.0 1
92.03989 -502.03558 2409.0 1
116.31495 -498.4928 2392.0 1
140.29494 -495.1584 2376.0 1
165.0528 -495.1584 2376.0 1
189.81065 -495.1584 2376.0 1
214.56866 -495.1584 2376.0 1
239.32652 -495.1584 2376.0 1
265.86288 -498.4928 2392.0 1
294.92072 -505.5784 2426.0 1
365.98517 -535.588 2570.0 1
386.9571 -527.66876 2532.0 1
413.3406 -527.66876 2532.0 1
-35.177887 -554.0522 2532.0 1
-8.731993 -550.11346 2514.0 1
17.463985 -550.11346 2514.0 1
43.0346 -542.2359 2478.0 1
67.410385 -530.8573 2426.0 1
92.03989 -527.1373 2409.0 1
116.31495 -523.4174 2392.0 1
140.29494 -519.91626 2376.0 1
165.0528 -519.91626 2376.0 1
188.45258 -516.19635 2359.0 1
213.03345 -516.19635 2359.0 1
239.32652 -519.91626 2376.0 1
267.75238 -527.1373 2409.0 1
290.78748 -523.4174 2392.0 1
371.53903 -570.90137 2609.0 1
389.86078 -558.2098 2551.0 1
413.3406 -554.0522 2532.0 1
-35.177887 -580.4356 2532.0 1
-8.794514 -580.4356 2532.0 1
17.589027 -580.4356 2532.0 1
43.659798 -576.3093 2514.0 1
68.85529 -568.05664 2478.0 1
93.33892 -560.03326 2443.0 1
117.14161 -552.2391 2409.0 1
141.23969 -548.34204 2392.0 1
165.0528 -544.6742 2376.0 1
188.45258 -540.7771 2359.0 1
213.03345 -540.7771 2359.0 1
240.93816 -548.34204 2392.0 1
267.75238 -552.2391 2409.0 1
374.38715 -602.6719 2629.0 1
389.86078 -584.7912 2551.0 1
416.44232 -584.7912 2551.0 1
-35.44186 -611.3727 2551.0 1
-8.794514 -606.81915 2532.0 1
17.721014 -611.3727 2551.0 1
43.9724 -606.81915 2532.0 1
70.355774 -606.81915 2532.0 1
94.67615 -593.8775 2478.0 1
117.96826 -581.4152 2426.0 1
142.24348 -577.341 2409.0 1
166.16426 -573.2668 2392.0 1
188.45258 -565.358 2359.0 1
214.56866 -569.4322 2376.0 1
237.61417 -565.358 2359.0 1
264.08453 -569.4322 2376.0 1
392.7645 -615.9263 2570.0 1
416.44232 -611.3727 2551.0 1
-36.247673 -652.45874 2609.0 1
-8.9265 -642.7056 2570.0 1
17.853 -642.7056 2570.0 1
44.63233 -642.7056 2570.0 1
71.93961 -647.45715 2589.0 1
96.73931 -633.2026 2532.0 1
117.96826 -606.6941 2426.0 1
141.23969 -598.19135 2392.0 1
166.16426 -598.19135 2392.0 1
189.81065 -594.19006 2376.0 1
214.56866 -594.19006 2376.0 1
240.93816 -598.19135 2392.0 1
265.86288 -598.19135 2392.0 1
-8.992495 -674.4345 2589.0 1
18.123922 -679.6445 2609.0 1
45.30963 -679.6445 2609.0 1
72.495346 -679.6445 2609.0 1
98.91709 -674.4345 2589.0 1
117.96826 -631.97296 2426.0 1
141.23969 -623.11597 2392.0 1
165.0528 -618.948 2376.0 1
188.45258 -614.5195 2359.0 1
214.56866 -618.948 2376.0 1
240.93816 -623.11597 2392.0 1
265.86288 -623.11597 2392.0 1
-37.37303 -728.7748 2690.0 1
-9.200895 -717.66705 2649.0 1
18.262856 -712.24866 2629.0 1
45.656967 -712.24866 2629.0 1
73.05108 -712.24866 2629.0 1
100.44536 -712.24866 2629.0 1
118.794914 -661.85754 2443.0 1
141.23969 -648.0406 2392.0 1
165.0528 -643.7059 2376.0 1
189.81065 -643.7059 2376.0 1
213.03345 -639.1002 2359.0 1
239.32652 -643.7059 2376.0 1
-37.66479 -762.71265 2711.0 1
-9.270362 -750.8964 2669.0 1
18.40179 -745.2696 2649.0 1
46.35163 -750.8964 2669.0 1
74.74606 -756.8045 2690.0 1
102.77597 -756.8045 2690.0 1
118.794914 -687.31354 2443.0 1
141.23969 -672.9652 2392.0 1
165.0528 -668.4638 2376.0 1
188.45258 -663.681 2359.0 1
214.56866 -668.4638 2376.0 1
240.93816 -672.9652 2392.0 1
-9.270362 -778.70746 2669.0 1
18.686604 -784.8344 2690.0 1
46.71633 -784.8344 2690.0 1
75.32958 -790.9614 2711.0 1
102.77597 -784.8344 2690.0 1
117.14161 -702.84985 2409.0 1
141.23969 -697.88995 2392.0 1
165.0528 -693.2218 2376.0 1
189.81065 -693.2218 2376.0 1
216.01358 -697.88995 2392.0 1
242.6505 -702.84985 2409.0 1
-9.416243 -819.21 2711.0 1
18.832485 -819.21 2711.0 1
47.08103 -819.21 2711.0 1
75.32958 -819.21 2711.0 1
102.77597 -812.8642 2690.0 1
117.14161 -727.95166 2409.0 1
141.23969 -722.8146 2392.0 1
166.16426 -722.8146 2392.0 1
189.81065 -717.9797 2376.0 1
214.56866 -717.9797 2376.0 1
244.36285 -733.0887 2426.0 1
-9.965032 -896.84937 2869.0 1
19.290966 -868.0902 2777.0 1
47.8278 -860.9004 2754.0 1
76.52441 -860.9004 2754.0 1
93.33892 -763.68176 2443.0 1
117.14161 -753.0534 2409.0 1
141.23969 -747.7392 2392.0 1
165.0528 -742.7376 2376.0 1
191.08884 -747.7392 2392.0 1
216.01358 -747.7392 2392.0 1
242.6505 -753.0534 2409.0 1
19.763342 -918.9919 2845.0 1
48.6093 -904.13293 2799.0 1
77.7748 -904.13293 2799.0 1
106.9405 -904.13293 2799.0 1
117.14161 -778.15515 2409.0 1
141.23969 -772.6638 2392.0 1
166.16426 -772.6638 2392.0 1
191.08884 -772.6638 2392.0 1
216.01358 -772.6638 2392.0 1
242.6505 -778.15515 2409.0 1
19.930063 -956.6393 2869.0 1
49.408165 -948.6367 2845.0 1
78.413895 -940.9676 2822.0 1
106.9405 -933.29846 2799.0 1
117.96826 -808.92535 2426.0 1
142.24348 -803.2569 2409.0 1
166.16426 -797.58844 2392.0 1
191.08884 -797.58844 2392.0 1
217.54878 -803.2569 2409.0 1
240.93816 -797.58844 2392.0 1
50.241764 -994.78705 2893.0 1
79.052986 -978.28174 2845.0 1
93.988434 -845.8956 2460.0 1
118.794914 -840.05 2443.0 1
142.24348 -828.35876 2409.0 1
166.16426 -822.5131 2392.0 1
191.08884 -822.5131 2392.0 1
217.54878 -828.35876 2409.0 1
244.36285 -834.2044 2426.0 1
20.610838 -1051.1488 2967.0 1
50.241764 -1024.932 2893.0 1
79.71987 -1016.4293 2869.0 1
110.53192 -1024.932 2893.0 1
118.794914 -865.50604 2443.0 1
142.24348 -853.4605 2409.0 1
166.16426 -847.43774 2392.0 1
191.08884 -847.43774 2392.0 1
220.61922 -865.50604 2443.0 1
21.159628 -1110.8762 3046.0 1
50.241764 -1055.077 2893.0 1
80.38675 -1055.077 2893.0 1
110.53192 -1055.077 2893.0 1
119.62157 -897.162 2460.0 1
142.24348 -878.56226 2409.0 1
167.3452 -878.56226 2409.0 1
192.44691 -878.56226 2409.0 1
220.61922 -890.9621 2443.0 1
-10.579814 -1142.6155 3046.0 1
50.658566 -1094.225 2917.0 1
80.38675 -1085.2222 2893.0 1
110.53192 -1085.2222 2893.0 1
119.62157 -922.79517 2460.0 1
144.25107 -916.4181 2443.0 1
167.3452 -903.66406 2409.0 1
192.44691 -903.66406 2409.0 1
220.61922 -916.4181 2443.0 1
20.791452 -1153.9211 2993.0 1
51.09273 -1134.2585 2942.0 1
80.38675 -1115.3672 2893.0 1
95.36387 -962.3078 2496.0 1
120.49684 -955.36804 2478.0 1
145.25487 -948.42834 2460.0 1
169.70706 -941.87415 2443.0 1
196.52113 -948.42834 2460.0 1
222.15443 -948.42834 2460.0 1
-10.305419 -1174.8134 2967.0 1
20.610838 -1174.8134 2967.0 1
50.658566 -1155.0154 2917.0 1
81.74829 -1164.9143 2942.0 1
95.36387 -988.31616 2496.0 1
121.37212 -988.31616 2496.0 1
145.25487 -974.06165 2460.0 1
170.888 -974.06165 2460.0 1
196.52113 -974.06165 2460.0 1
222.15443 -974.06165 2460.0 1
-41.22148 -1205.7295 2967.0 1
-10.131752 -1185.4105 2917.0 1
20.263504 -1185.4105 2917.0 1
51.09273 -1195.57 2942.0 1
81.05363 -1185.4105 2917.0 1
96.73931 -1028.9542 2532.0 1
121.37212 -1014.32446 2496.0 1
146.3177 -1007.00964 2478.0 1
172.1384 -1007.00964 2478.0 1
196.52113 -999.6948 2460.0 1
225.40547 -1014.32446 2496.0 1
