ply
format ascii 1.0
comment : created from Kinect user tracker
element vertex 736
property float x
property float y
property float z
property int userId
end_header
367.84332 224.44681 1795.0 1
386.5473 224.44681 1795.0 1
407.28305 225.57216 1804.0 1
350.89005 206.77446 1804.0 1
367.84332 205.74287 1795.0 1
386.5473 205.74287 1795.0 1
403.21927 204.7113 1786.0 1
438.22006 203.67972 1777.0 1
320.06766 192.0406 1843.0 1
335.77402 190.06079 1824.0 1
347.38892 186.1012 1786.0 1
365.999 186.1012 1786.0 1
386.5473 187.039 1795.0 1
401.18735 185.16339 1777.0 1
419.70364 185.16339 1777.0 1
438.22006 185.16339 1777.0 1
454.42313 184.2256 1768.0 1
470.43872 183.2878 1759.0 1
501.27145 187.97679 1804.0 1
522.95197 189.0188 1814.0 1
330.43552 168.33511 1795.0 1
347.38892 167.49109 1786.0 1
362.3103 165.80305 1768.0 1
380.73294 165.80305 1768.0 1
397.12357 164.95903 1759.0 1
413.3266 164.11502 1750.0 1
429.34222 163.271 1741.0 1
452.10986 164.95903 1759.0 1
470.43872 164.95903 1759.0 1
491.26825 165.80305 1768.0 1
514.87994 167.49109 1786.0 1
315.03134 151.21503 1814.0 1
328.77875 148.88095 1786.0 1
345.63837 148.1307 1777.0 1
362.3103 147.38046 1768.0 1
378.79483 146.63023 1759.0 1
399.15546 147.38046 1768.0 1
413.3266 145.87999 1750.0 1
429.34222 145.12975 1741.0 1
449.79663 145.87999 1750.0 1
468.0317 145.87999 1750.0 1
486.26666 145.87999 1750.0 1
512.28534 148.1307 1777.0 1
304.12857 135.88722 1863.0 1
311.73166 130.9273 1795.0 1
328.77875 130.27084 1786.0 1
343.88782 128.95793 1768.0 1
360.46597 128.30147 1759.0 1
374.91858 126.98855 1741.0 1
395.09164 127.645004 1750.0 1
413.3266 127.645004 1750.0 1
429.34222 126.98855 1741.0 1
449.79663 127.645004 1750.0 1
465.6247 126.98855 1741.0 1
491.26825 128.95793 1768.0 1
520.0691 131.58377 1804.0 1
299.23117 114.59914 1833.0 1
313.29465 112.78606 1804.0 1
330.43552 112.22338 1795.0 1
345.63837 111.09802 1777.0 1
362.3103 110.53534 1768.0 1
378.79483 109.972664 1759.0 1
395.09164 109.40998 1750.0 1
411.20093 108.8473 1741.0 1
433.78113 109.972664 1759.0 1
447.4834 108.8473 1741.0 1
472.84573 110.53534 1768.0 1
498.77066 112.22338 1795.0 1
281.65952 96.0203 1843.0 1
299.23117 95.4993 1833.0 1
311.73166 93.5195 1795.0 1
328.77875 93.0506 1786.0 1
343.88782 92.1128 1768.0 1
362.3103 92.1128 1768.0 1
378.79483 91.6439 1759.0 1
397.12357 91.6439 1759.0 1
413.3266 91.174995 1750.0 1
433.78113 91.6439 1759.0 1
452.10986 91.6439 1759.0 1
477.6598 93.0506 1786.0 1
501.27145 93.988396 1804.0 1
296.1295 75.60754 1814.0 1
313.29465 75.190735 1804.0 1
327.12195 74.06538 1777.0 1
343.88782 73.690254 1768.0 1
360.46597 73.31514 1759.0 1
374.91858 72.564896 1741.0 1
393.05975 72.564896 1741.0 1
413.3266 72.94002 1750.0 1
433.78113 73.31514 1759.0 1
456.73636 74.06538 1777.0 1
482.47382 75.190735 1804.0 1
504.0501 75.60754 1814.0 1
534.1951 77.233055 1853.0 1
296.1295 56.70563 1814.0 1
313.29465 56.39303 1804.0 1
328.77875 55.83035 1786.0 1
343.88782 55.26767 1768.0 1
360.46597 54.986332 1759.0 1
380.73294 55.26767 1768.0 1
401.18735 55.54901 1777.0 1
413.3266 54.70499 1750.0 1
436.0006 55.26767 1768.0 1
456.73636 55.54901 1777.0 1
490.22977 57.29957 1833.0 1
514.8869 57.92477 1853.0 1
537.078 58.23737 1863.0 1
283.18777 38.616528 1853.0 1
299.23117 38.19973 1833.0 1
315.03134 37.80377 1814.0 1
332.0923 37.595367 1804.0 1
349.1395 37.407806 1795.0 1
362.3103 36.845127 1768.0 1
382.67108 37.03269 1777.0 1
403.21927 37.22025 1786.0 1
419.70364 37.03269 1777.0 1
438.22006 37.03269 1777.0 1
463.6761 37.595367 1804.0 1
492.90424 38.408127 1843.0 1
514.8869 38.616528 1853.0 1
534.1951 38.616528 1853.0 1
283.18777 19.30824 1853.0 1
299.23117 19.099842 1833.0 1
318.331 19.099842 1833.0 1
335.77402 19.006062 1824.0 1
349.1395 18.703882 1795.0 1
365.999 18.610102 1786.0 1
382.67108 18.516321 1777.0 1
405.25116 18.703882 1795.0 1
426.0807 18.79766 1804.0 1
447.3445 18.901861 1814.0 1
471.12985 19.099842 1833.0 1
492.90424 19.20404 1843.0 1
517.6656 19.412441 1863.0 1
250.79202 0.0 2063.0 1
269.12076 0.0 2039.0 1
278.83228 0.0 1958.0 1
292.66302 0.0 1915.0 1
305.76105 0.0 1873.0 1
320.06766 0.0 1843.0 1
335.77402 0.0 1824.0 1
349.1395 0.0 1795.0 1
365.999 0.0 1786.0 1
384.6092 0.0 1786.0 1
413.8303 0.0 1833.0 1
432.9301 0.0 1833.0 1
452.03003 0.0 1833.0 1
476.2704 0.0 1853.0 1
495.5787 0.0 1853.0 1
226.6281 -21.246359 2039.0 1
239.36476 -20.51696 1969.0 1
258.42984 -20.40234 1958.0 1
272.7088 -19.95428 1915.0 1
289.45367 -19.73546 1894.0 1
307.39352 -19.62084 1883.0 1
320.06766 -19.20404 1843.0 1
337.43082 -19.099842 1833.0 1
356.53073 -19.099842 1833.0 1
377.6798 -19.20404 1843.0 1
396.88394 -19.20404 1843.0 1
420.6033 -19.412441 1863.0 1
437.65384 -19.30824 1853.0 1
456.96216 -19.30824 1853.0 1
476.2704 -19.30824 1853.0 1
207.79909 -42.992878 2063.0 1
223.96059 -41.992558 2015.0 1
238.02753 -40.80468 1958.0 1
252.75441 -39.90856 1915.0 1
268.15176 -39.24168 1883.0 1
284.71606 -38.824883 1863.0 1
300.86365 -38.40808 1843.0 1
318.331 -38.199684 1833.0 1
337.43082 -38.199684 1833.0 1
358.4758 -38.40808 1843.0 1
377.6798 -38.40808 1843.0 1
399.0374 -38.61648 1853.0 1
207.79909 -64.48942 2063.0 1
221.4042 -62.26996 1992.0 1
235.35306 -60.519398 1936.0 1
251.30255 -59.519077 1904.0 1
265.30365 -58.237415 1863.0 1
281.65952 -57.612217 1843.0 1
297.76196 -57.018276 1824.0 1
313.29465 -56.393074 1804.0 1
332.0923 -56.393074 1804.0 1
354.78018 -57.018276 1824.0 1
377.6798 -57.612217 1843.0 1
401.1909 -58.237415 1863.0 1
188.56035 -87.02786 2088.0 1
202.9642 -83.98522 2015.0 1
217.62521 -81.60946 1958.0 1
234.01582 -80.23402 1925.0 1
248.53084 -78.48346 1883.0 1
262.4555 -76.81625 1843.0 1
277.22754 -75.60754 1814.0 1
296.1295 -75.60754 1814.0 1
313.29465 -75.190735 1804.0 1
332.0923 -75.190735 1804.0 1
350.89005 -75.190735 1804.0 1
375.63055 -76.39946 1833.0 1
401.1909 -77.64986 1863.0 1
187.47667 -108.1596 2076.0 1
200.64749 -103.783195 1992.0 1
216.4026 -101.4387 1947.0 1
232.80016 -99.7715 1915.0 1
247.21097 -97.5833 1873.0 1
259.7498 -95.030396 1824.0 1
274.32385 -93.5195 1795.0 1
291.5586 -93.0506 1786.0 1
308.60565 -92.581696 1777.0 1
325.46518 -92.1128 1768.0 1
343.88782 -92.1128 1768.0 1
369.68768 -93.988396 1804.0 1
394.73047 -95.4993 1833.0 1
198.33078 -123.10186 1969.0 1
215.18 -121.0387 1936.0 1
231.46294 -119.038055 1904.0 1
244.57124 -115.84954 1853.0 1
256.90164 -112.78606 1804.0 1
274.32385 -112.22338 1795.0 1
288.62015 -110.53534 1768.0 1
305.47968 -109.972664 1759.0 1
322.1516 -109.40998 1750.0 1
342.13724 -109.972664 1759.0 1
360.46597 -109.972664 1759.0 1
390.6389 -113.41126 1814.0 1
420.6033 -116.47474 1863.0 1
198.33078 -143.61882 1969.0 1
213.95738 -140.40945 1925.0 1
230.24727 -138.14832 1894.0 1
241.9315 -133.69897 1833.0 1
255.61998 -130.92726 1795.0 1
271.57297 -129.61435 1777.0 1
287.15094 -128.30142 1759.0 1
302.35367 -126.9885 1741.0 1
318.83804 -126.33205 1732.0 1
336.88556 -126.33205 1732.0 1
354.93295 -126.33205 1732.0 1
372.98047 -126.33205 1732.0 1
413.8303 -133.69897 1833.0 1
183.05164 -168.97076 2027.0 1
198.33078 -164.13588 1969.0 1
213.95738 -160.46803 1925.0 1
226.4787 -155.29971 1863.0 1
238.1039 -150.38147 1804.0 1
254.33833 -148.881 1786.0 1
270.1975 -147.38051 1768.0 1
285.6817 -145.88004 1750.0 1
300.79065 -144.37955 1732.0 1
317.18127 -143.62932 1723.0 1
335.135 -143.62932 1723.0 1
353.08862 -143.62932 1723.0 1
371.04236 -143.62932 1723.0 1
393.05975 -145.12979 1741.0 1
423.95502 -149.63123 1795.0 1
169.91888 -199.47008 2127.0 1
183.05164 -190.09207 2027.0 1
197.22278 -183.62126 1958.0 1
212.84592 -179.58871 1915.0 1
224.04736 -172.83655 1843.0 1
238.1039 -169.17914 1804.0 1
253.05667 -166.64708 1777.0 1
268.82208 -164.95903 1759.0 1
282.74326 -162.42697 1732.0 1
299.22766 -161.58295 1723.0 1
317.18127 -161.58295 1723.0 1
335.135 -161.58295 1723.0 1
351.44922 -160.83272 1715.0 1
369.31958 -160.83272 1715.0 1
393.05975 -163.271 1741.0 1
419.70364 -166.64708 1777.0 1
170.95741 -222.98799 2140.0 1
183.05164 -211.2134 2027.0 1
197.22278 -204.02359 1958.0 1
210.51183 -197.3548 1894.0 1
224.04736 -192.0406 1843.0 1
238.1039 -187.97679 1804.0 1
251.77501 -184.2256 1768.0 1
267.44662 -182.34999 1750.0 1
282.74326 -180.4744 1732.0 1
299.22766 -179.53659 1723.0 1
317.18127 -179.53659 1723.0 1
333.57895 -178.703 1715.0 1
349.60486 -177.7652 1706.0 1
369.31958 -178.703 1715.0 1
393.05975 -181.4122 1741.0 1
421.82935 -186.1012 1786.0 1
454.4961 -192.0406 1843.0 1
171.99593 -246.77684 2153.0 1
183.05164 -232.33472 2027.0 1
197.22278 -224.42593 1958.0 1
208.17775 -214.68324 1873.0 1
222.8317 -210.09843 1833.0 1
236.91602 -205.74287 1795.0 1
251.77501 -202.64813 1768.0 1
267.44662 -200.58498 1750.0 1
282.74326 -198.52182 1732.0 1
297.83832 -196.57327 1715.0 1
317.18127 -197.49023 1723.0 1
331.8284 -195.5417 1706.0 1
351.44922 -196.57327 1715.0 1
369.31958 -196.57327 1715.0 1
393.05975 -199.5534 1741.0 1
423.95502 -205.74287 1795.0 1
454.4961 -211.24464 1843.0 1
153.3824 -276.08826 2208.0 1
171.99593 -269.21106 2153.0 1
183.05164 -253.45604 2027.0 1
197.22278 -244.82828 1958.0 1
205.95482 -231.69908 1853.0 1
221.7376 -228.07292 1824.0 1
236.91602 -224.44676 1795.0 1
250.49335 -219.94533 1759.0 1
264.69577 -216.56924 1732.0 1
281.27405 -215.44388 1723.0 1
297.83832 -214.44356 1715.0 1
315.7086 -214.44356 1715.0 1
331.8284 -213.3182 1706.0 1
351.44922 -214.44356 1715.0 1
371.04236 -215.44388 1723.0 1
395.09164 -218.81996 1750.0 1
426.0807 -225.57211 1804.0 1
456.96216 -231.69908 1853.0 1
151.50679 -295.4383 2181.0 1
171.99593 -291.64542 2153.0 1
178.80722 -268.21085 1980.0 1
196.11479 -263.74066 1947.0 1
208.17775 -253.71661 1873.0 1
222.8317 -248.29822 1833.0 1
236.91602 -243.15073 1795.0 1
251.77501 -239.49332 1768.0 1
264.69577 -234.61674 1732.0 1
281.27405 -233.39761 1723.0 1
297.83832 -232.31393 1715.0 1
315.7086 -232.31393 1715.0 1
333.57895 -232.31393 1715.0 1
351.44922 -232.31393 1715.0 1
371.04236 -233.39761 1723.0 1
399.15546 -239.49332 1768.0 1
428.44257 -245.72447 1814.0 1
459.42822 -252.36201 1863.0 1
150.53427 -316.12198 2167.0 1
173.11435 -316.12198 2167.0 1
174.83372 -282.4237 1936.0 1
196.11479 -284.02838 1947.0 1
208.17775 -273.23325 1873.0 1
224.04736 -268.85684 1843.0 1
238.1039 -263.16754 1804.0 1
251.77501 -257.91586 1768.0 1
264.69577 -252.66417 1732.0 1
281.27405 -251.35126 1723.0 1
299.22766 -251.35126 1723.0 1
317.18127 -251.35126 1723.0 1
333.57895 -250.18422 1715.0 1
349.60486 -248.87129 1706.0 1
372.98047 -252.66417 1732.0 1
405.25116 -261.8546 1795.0 1
428.44257 -264.62634 1814.0 1
461.89432 -273.23325 1873.0 1
149.56174 -336.5139 2153.0 1
173.11435 -338.7021 2167.0 1
176.82048 -306.0354 1958.0 1
195.00679 -302.5968 1936.0 1
208.17775 -292.7499 1873.0 1
224.04736 -288.06088 1843.0 1
241.9315 -286.4979 1833.0 1
251.77501 -276.3384 1768.0 1
264.69577 -270.7116 1732.0 1
281.27405 -269.3049 1723.0 1
299.22766 -269.3049 1723.0 1
315.7086 -268.0545 1715.0 1
333.57895 -268.0545 1715.0 1
353.08862 -269.3049 1723.0 1
372.98047 -270.7116 1732.0 1
409.54074 -283.5282 1814.0 1
437.65384 -289.6239 1853.0 1
464.36038 -294.3129 1883.0 1
151.50679 -363.6163 2181.0 1
174.23276 -363.6163 2181.0 1
174.83372 -322.7699 1936.0 1
195.00679 -322.7699 1936.0 1
209.28922 -313.93375 1883.0 1
224.04736 -307.26492 1843.0 1
241.9315 -305.59775 1833.0 1
254.33833 -297.7619 1786.0 1
263.3203 -287.25854 1723.0 1
282.74326 -288.759 1732.0 1
299.22766 -287.25854 1723.0 1
315.7086 -285.92477 1715.0 1
335.135 -287.25854 1723.0 1
353.08862 -287.25854 1723.0 1
374.91858 -290.2595 1741.0 1
418.3456 -308.93213 1853.0 1
442.37756 -312.26654 1873.0 1
175.27129 -388.6451 2194.0 1
175.8271 -344.89154 1947.0 1
193.8988 -340.99445 1925.0 1
209.28922 -333.55457 1883.0 1
225.26303 -328.2404 1853.0 1
241.9315 -324.69757 1833.0 1
254.33833 -316.372 1786.0 1
263.3203 -305.2122 1723.0 1
281.27405 -305.2122 1723.0 1
297.83832 -303.79507 1715.0 1
317.18127 -305.2122 1723.0 1
335.135 -305.2122 1723.0 1
354.93295 -306.80643 1732.0 1
372.98047 -306.80643 1732.0 1
422.86096 -331.78317 1873.0 1
447.3375 -335.5031 1894.0 1
176.3897 -414.1325 2208.0 1
180.88428 -375.6827 2003.0 1
193.8988 -361.05304 1925.0 1
209.28922 -353.1755 1883.0 1
226.4787 -349.42432 1863.0 1
244.57124 -347.5487 1853.0 1
249.21169 -328.23004 1750.0 1
264.69577 -324.85394 1732.0 1
281.27405 -323.1659 1723.0 1
297.83832 -321.66544 1715.0 1
317.18127 -323.1659 1723.0 1
336.88556 -324.85394 1732.0 1
353.08862 -323.1659 1723.0 1
371.04236 -323.1659 1723.0 1
427.60205 -355.23868 1894.0 1
454.65927 -361.05304 1925.0 1
155.39693 -442.8813 2237.0 1
177.588 -440.10956 2223.0 1
179.8909 -394.37616 1992.0 1
193.8988 -381.1115 1925.0 1
209.28922 -372.79636 1883.0 1
227.69437 -370.81656 1873.0 1
247.21097 -370.81656 1873.0 1
246.64836 -342.90137 1732.0 1
264.69577 -342.90137 1732.0 1
281.27405 -341.11954 1723.0 1
299.22766 -341.11954 1723.0 1
318.83804 -342.90137 1732.0 1
338.6361 -344.6832 1741.0 1
383.8276 -370.81656 1873.0 1
405.4978 -372.79636 1883.0 1
432.34317 -379.1317 1915.0 1
467.64954 -392.00043 1980.0 1
173.11435 -451.60278 2167.0 1
184.13531 -424.92758 2039.0 1
197.22278 -408.04718 1958.0 1
212.84592 -399.086 1915.0 1
228.91003 -392.4172 1883.0 1
248.53084 -392.4172 1883.0 1
247.93002 -362.8244 1741.0 1
264.69577 -360.9488 1732.0 1
281.27405 -359.07318 1723.0 1
299.22766 -359.07318 1723.0 1
318.83804 -360.9488 1732.0 1
342.13724 -366.5756 1759.0 1
383.8276 -390.3332 1873.0 1
407.86664 -394.7096 1894.0 1
442.05112 -408.04718 1958.0 1
470.48376 -415.13278 1992.0 1
146.85252 -462.58545 2114.0 1
167.84183 -459.74078 2101.0 1
184.13531 -446.17395 2039.0 1
198.33078 -430.85657 1969.0 1
213.95738 -421.2285 1925.0 1
232.80016 -419.04028 1915.0 1
251.30255 -416.63324 1904.0 1
249.21169 -382.93497 1750.0 1
264.69577 -378.99622 1732.0 1
282.74326 -378.99622 1732.0 1
299.22766 -377.02682 1723.0 1
318.83804 -378.99622 1732.0 1
364.311 -409.84982 1873.0 1
383.8276 -409.84982 1873.0 1
414.5424 -421.2285 1925.0 1
444.53455 -430.85657 1969.0 1
467.64954 -433.26358 1980.0 1
148.65866 -490.57355 2140.0 1
164.80614 -472.92206 2063.0 1
183.05164 -464.66943 2027.0 1
198.33078 -451.3735 1969.0 1
213.95738 -441.28696 1925.0 1
232.80016 -438.99457 1915.0 1
249.9827 -434.1805 1894.0 1
247.93002 -399.1068 1741.0 1
264.69577 -397.04364 1732.0 1
282.74326 -397.04364 1732.0 1
300.79065 -397.04364 1732.0 1
318.83804 -397.04364 1732.0 1
366.25607 -431.65887 1883.0 1
390.18033 -436.4729 1904.0 1
414.5424 -441.28696 1925.0 1
447.018 -453.89514 1980.0 1
467.64954 -453.89514 1980.0 1
144.2128 -497.53418 2076.0 1
163.84749 -491.5427 2051.0 1
180.88428 -480.039 2003.0 1
197.22278 -469.2543 1958.0 1
213.95738 -461.34552 1925.0 1
232.80016 -458.94894 1915.0 1
251.30255 -456.31268 1904.0 1
247.93002 -417.24808 1741.0 1
264.69577 -415.09116 1732.0 1
282.74326 -415.09116 1732.0 1
300.79065 -415.09116 1732.0 1
318.83804 -415.09116 1732.0 1
366.25607 -451.27982 1883.0 1
392.43454 -458.94894 1915.0 1
414.5424 -461.34552 1925.0 1
447.018 -474.52682 1980.0 1
145.94946 -525.4181 2101.0 1
160.97157 -503.91122 2015.0 1
178.80722 -495.15842 1980.0 1
195.00679 -484.15488 1936.0 1
212.84592 -478.9032 1915.0 1
231.46294 -476.15234 1904.0 1
252.75441 -478.9032 1915.0 1
247.93002 -435.38928 1741.0 1
264.69577 -433.13858 1732.0 1
281.27405 -430.88785 1723.0 1
299.22766 -430.88785 1723.0 1
346.63513 -470.90067 1883.0 1
368.39563 -473.65152 1894.0 1
392.43454 -478.9032 1915.0 1
419.28 -486.90576 1947.0 1
449.7272 -498.15936 1992.0 1
145.0464 -543.924 2088.0 1
160.01294 -521.7815 2003.0 1
176.82048 -510.059 1958.0 1
193.8988 -501.4625 1925.0 1
212.84592 -498.85748 1915.0 1
230.24727 -493.387 1894.0 1
249.9827 -493.387 1894.0 1
247.93002 -453.5305 1741.0 1
264.69577 -451.186 1732.0 1
281.27405 -448.8415 1723.0 1
299.22766 -448.8415 1723.0 1
350.50095 -495.992 1904.0 1
372.4803 -498.85748 1915.0 1
394.4838 -501.4625 1925.0 1
424.01764 -512.9245 1969.0 1
142.47614 -555.65686 2051.0 1
160.01294 -542.6527 2003.0 1
175.8271 -527.4812 1947.0 1
192.89154 -518.81177 1915.0 1
211.6233 -515.83167 1904.0 1
230.24727 -513.12244 1894.0 1
249.9827 -513.12244 1894.0 1
246.64836 -469.23343 1732.0 1
266.0712 -471.6717 1741.0 1
282.74326 -469.23343 1732.0 1
299.22766 -466.79514 1723.0 1
315.7086 -464.62778 1715.0 1
372.4803 -518.81177 1915.0 1
398.9922 -527.4812 1947.0 1
139.97533 -566.9 2015.0 1
160.01294 -563.524 2003.0 1
176.82048 -550.86365 1958.0 1
193.8988 -541.57947 1925.0 1
211.6233 -535.6713 1904.0 1
230.24727 -532.8579 1894.0 1
248.53084 -529.7632 1883.0 1
247.93002 -489.8129 1741.0 1
264.69577 -487.28082 1732.0 1
282.74326 -487.28082 1732.0 1
299.22766 -484.74878 1723.0 1
317.18127 -484.74878 1723.0 1
378.7045 -547.7689 1947.0 1
401.24637 -550.86365 1958.0 1
138.3776 -581.186 1992.0 1
158.17554 -577.6848 1980.0 1
176.82048 -571.2661 1958.0 1
196.11479 -568.05676 1947.0 1
213.95738 -561.638 1925.0 1
228.91003 -549.3841 1883.0 1
248.53084 -549.3841 1883.0 1
246.64836 -505.32834 1732.0 1
264.69577 -505.32834 1732.0 1
281.27405 -502.7025 1723.0 1
299.22766 -502.7025 1723.0 1
317.18127 -502.7025 1723.0 1
382.98364 -574.47546 1969.0 1
403.50058 -574.47546 1969.0 1
139.14172 -605.26654 2003.0 1
158.17554 -598.3164 1980.0 1
176.82048 -591.66846 1958.0 1
195.00679 -585.0205 1936.0 1
213.95738 -581.69653 1925.0 1
232.80016 -578.6747 1915.0 1
251.30255 -575.3507 1904.0 1
269.71826 -572.3289 1894.0 1
264.69577 -523.3758 1732.0 1
282.74326 -523.3758 1732.0 1
299.22766 -520.6561 1723.0 1
317.18127 -520.6561 1723.0 1
336.88556 -523.3758 1732.0 1
138.3776 -622.6992 1992.0 1
157.2968 -615.5094 1969.0 1
176.82048 -612.0708 1958.0 1
193.8988 -601.755 1925.0 1
213.95738 -601.755 1925.0 1
232.80016 -598.62897 1915.0 1
251.30255 -595.19037 1904.0 1
271.1423 -595.19037 1904.0 1
264.69577 -541.4232 1732.0 1
282.74326 -541.4232 1732.0 1
299.22766 -538.6098 1723.0 1
317.18127 -538.6098 1723.0 1
336.88556 -541.4232 1732.0 1
356.77728 -544.2366 1741.0 1
158.17554 -639.5796 1980.0 1
176.82048 -632.47314 1958.0 1
195.00679 -625.3667 1936.0 1
213.95738 -621.8135 1925.0 1
232.80016 -618.58325 1915.0 1
252.75441 -618.58325 1915.0 1
272.7088 -618.58325 1915.0 1
266.0712 -562.3778 1741.0 1
282.74326 -559.47064 1732.0 1
299.22766 -556.5634 1723.0 1
318.83804 -559.47064 1732.0 1
336.88556 -559.47064 1732.0 1
356.77728 -562.3778 1741.0 1
160.01294 -667.88025 2003.0 1
177.81384 -656.54333 1969.0 1
195.00679 -645.5398 1936.0 1
213.95738 -641.87195 1925.0 1
232.80016 -638.53754 1915.0 1
252.75441 -638.53754 1915.0 1
272.7088 -638.53754 1915.0 1
292.66302 -638.53754 1915.0 1
284.2125 -580.519 1741.0 1
300.79065 -577.518 1732.0 1
318.83804 -577.518 1732.0 1
336.88556 -577.518 1732.0 1
356.77728 -580.519 1741.0 1
158.17554 -680.84283 1980.0 1
177.81384 -677.06036 1969.0 1
196.11479 -669.4954 1947.0 1
213.95738 -661.93054 1925.0 1
232.80016 -658.49194 1915.0 1
252.75441 -658.49194 1915.0 1
272.7088 -658.49194 1915.0 1
292.66302 -658.49194 1915.0 1
281.27405 -592.4708 1723.0 1
302.35367 -598.6603 1741.0 1
318.83804 -595.56555 1732.0 1
336.88556 -595.56555 1732.0 1
358.62164 -601.755 1750.0 1
158.17554 -701.4744 1980.0 1
177.81384 -697.57733 1969.0 1
196.11479 -689.78314 1947.0 1
213.95738 -681.989 1925.0 1
232.80016 -678.4462 1915.0 1
252.75441 -678.4462 1915.0 1
271.1423 -674.54913 1904.0 1
292.66302 -678.4462 1915.0 1
314.24988 -681.989 1925.0 1
302.35367 -616.8015 1741.0 1
320.49484 -616.8015 1741.0 1
336.88556 -613.613 1732.0 1
358.62164 -619.99 1750.0 1
378.79483 -623.1785 1759.0 1
160.97157 -734.8705 2015.0 1
178.80722 -722.10596 1980.0 1
196.11479 -710.07086 1947.0 1
213.95738 -702.0475 1925.0 1
234.01582 -702.0475 1925.0 1
252.75441 -698.4005 1915.0 1
272.7088 -698.4005 1915.0 1
292.66302 -698.4005 1915.0 1
312.6174 -698.4005 1915.0 1
303.91666 -638.225 1750.0 1
320.49484 -634.9427 1741.0 1
338.6361 -634.9427 1741.0 1
360.46597 -641.50726 1759.0 1
380.73294 -644.7896 1768.0 1
160.97157 -755.86676 2015.0 1
178.80722 -742.73755 1980.0 1
197.22278 -734.4849 1958.0 1
215.18 -726.2323 1936.0 1
234.01582 -722.10596 1925.0 1
254.07428 -722.10596 1925.0 1
272.7088 -718.3548 1915.0 1
292.66302 -718.3548 1915.0 1
312.6174 -718.3548 1915.0 1
300.79065 -649.7078 1732.0 1
322.1516 -656.45996 1750.0 1
340.3867 -656.45996 1750.0 1
358.62164 -656.45996 1750.0 1
378.79483 -659.83606 1759.0 1
160.01294 -772.2366 2003.0 1
178.80722 -763.36914 1980.0 1
197.22278 -754.88727 1958.0 1
215.18 -746.4054 1936.0 1
234.01582 -742.1644 1925.0 1
254.07428 -742.1644 1925.0 1
274.13284 -742.1644 1925.0 1
294.1913 -742.1644 1925.0 1
314.24988 -742.1644 1925.0 1
336.21866 -746.4054 1936.0 1
322.1516 -674.69495 1750.0 1
338.6361 -671.2251 1741.0 1
358.62164 -674.69495 1750.0 1
378.79483 -678.1648 1759.0 1
401.18735 -685.10455 1777.0 1
159.13419 -788.7523 1992.0 1
177.81384 -779.64526 1969.0 1
197.22278 -775.28973 1958.0 1
217.62521 -775.28973 1958.0 1
234.01582 -762.223 1925.0 1
254.07428 -762.223 1925.0 1
274.13284 -762.223 1925.0 1
294.1913 -762.223 1925.0 1
314.24988 -762.223 1925.0 1
338.129 -770.93414 1947.0 1
318.83804 -685.80273 1732.0 1
340.3867 -692.93 1750.0 1
358.62164 -692.93 1750.0 1
378.79483 -696.49365 1759.0 1
401.18735 -703.621 1777.0 1
160.01294 -813.9791 2003.0 1
178.80722 -804.6324 1980.0 1
198.33078 -800.16223 1969.0 1
216.4026 -791.22186 1947.0 1
235.35306 -786.7517 1936.0 1
254.07428 -782.2815 1925.0 1
274.13284 -782.2815 1925.0 1
294.1913 -782.2815 1925.0 1
314.24988 -782.2815 1925.0 1
340.03934 -795.692 1958.0 1
362.46658 -800.16223 1969.0 1
340.3867 -711.165 1750.0 1
356.77728 -707.50757 1741.0 1
376.85672 -711.165 1750.0 1
399.15546 -718.47986 1768.0 1
421.82935 -725.7947 1786.0 1
