ply
format ascii 1.0
comment : created from Kinect user tracker
element vertex 113
property float x
property float y
property float z
property int userId
end_header
1448.2063 -308.32776 2690.0 1
1442.8783 -341.73425 2733.0 1
1436.9006 -333.7317 2669.0 1
1431.2634 -367.23212 2711.0 1
1436.9006 -361.5428 2669.0 1
1436.9006 -389.35373 2669.0 1
1466.1079 -434.0451 2777.0 1
1436.9006 -417.1647 2669.0 1
1477.7228 -466.64923 2799.0 1
1448.2063 -448.47678 2690.0 1
1466.1079 -491.91772 2777.0 1
1471.3561 -484.12357 2733.0 1
1489.8656 -529.2944 2822.0 1
1482.6617 -516.5403 2754.0 1
1522.5634 -582.45715 2942.0 1
1502.0083 -563.2531 2845.0 1
1495.0442 -549.79047 2777.0 1
1484.7839 -597.8996 2869.0 1
1502.0083 -592.898 2845.0 1
1506.8883 -583.3116 2799.0 1
1509.6252 -638.2979 2917.0 1
1502.0083 -622.54285 2845.0 1
1519.2708 -617.51 2822.0 1
1491.9078 -674.424 2942.0 1
1509.6252 -668.693 2917.0 1
1527.3497 -663.1912 2893.0 1
1531.6532 -652.18774 2845.0 1
1486.5831 -717.3024 2993.0 1
1491.9078 -705.0798 2942.0 1
1509.6252 -699.08826 2917.0 1
1527.3497 -693.3364 2893.0 1
1531.6532 -681.83276 2845.0 1
1486.5831 -748.48944 2993.0 1
1491.9078 -735.73535 2942.0 1
1509.6252 -729.4834 2917.0 1
1514.6791 -717.47955 2869.0 1
1544.574 -717.47955 2869.0 1
1468.0391 -786.44946 3019.0 1
1473.6692 -772.9035 2967.0 1
1491.9078 -766.391 2942.0 1
1509.6252 -759.8785 2917.0 1
1527.3497 -753.62646 2893.0 1
1531.6532 -741.1225 2845.0 1
1449.429 -825.2223 3046.0 1
1455.3961 -810.8635 2993.0 1
1473.6692 -803.8196 2967.0 1
1491.9078 -797.0466 2942.0 1
1509.6252 -790.2736 2917.0 1
1540.0205 -790.2736 2917.0 1
1570.4155 -790.2736 2917.0 1
1436.5812 -849.36536 3019.0 1
1455.3961 -842.05054 2993.0 1
1461.2521 -827.7022 2942.0 1
1479.2301 -820.6687 2917.0 1
1509.6252 -820.6687 2917.0 1
1540.0205 -820.6687 2917.0 1
1436.5812 -880.8235 3019.0 1
1442.7532 -865.652 2967.0 1
1461.2521 -858.358 2942.0 1
1491.9078 -858.358 2942.0 1
1522.5634 -858.358 2942.0 1
1417.6896 -920.4403 3046.0 1
1436.5812 -912.28143 3019.0 1
1430.5966 -889.01355 2942.0 1
1461.2521 -889.01355 2942.0 1
1491.9078 -889.01355 2942.0 1
1417.6896 -952.17957 3046.0 1
1436.5812 -943.7394 3019.0 1
1455.3961 -935.61176 2993.0 1
1486.5831 -935.61176 2993.0 1
1530.9551 -943.7394 3019.0 1
1398.2355 -992.6404 3073.0 1
1417.6896 -983.9189 3046.0 1
1436.5812 -975.1973 3019.0 1
1442.7532 -958.40027 2967.0 1
1486.5831 -966.7988 2993.0 1
1410.9757 -1033.9973 3101.0 1
1417.6896 -1015.65814 3046.0 1
1436.5812 -1006.6553 3019.0 1
1481.1682 -1015.65814 3046.0 1
1512.9075 -1015.65814 3046.0 1
1410.9757 -1066.3099 3101.0 1
1430.2561 -1056.6818 3073.0 1
1436.5812 -1038.1134 3019.0 1
1481.1682 -1047.3976 3046.0 1
1526.318 -1056.6818 3073.0 1
1519.2708 -970.373 2822.0 1
1378.6631 -1098.6223 3101.0 1
1410.9757 -1098.6223 3101.0 1
1417.6896 -1079.1368 3046.0 1
1449.429 -1079.1368 3046.0 1
1507.913 -1098.6223 3101.0 1
1568.0397 -1118.4619 3157.0 1
1600.9358 -1118.4619 3157.0 1
1502.0083 -1007.92664 2845.0 1
1506.8883 -991.6297 2799.0 1
1366.2147 -1120.723 3073.0 1
1410.9757 -1130.9347 3101.0 1
1417.6896 -1110.8762 3046.0 1
1462.2769 -1120.723 3073.0 1
1481.1682 -1110.8762 3046.0 1
1568.0397 -1151.3579 3157.0 1
1553.2191 -1072.9474 2942.0 1
1531.6532 -1037.5715 2845.0 1
1410.9757 -1163.2471 3101.0 1
1502.0083 -1067.2163 2845.0 1
1531.6532 -1067.2163 2845.0 1
1527.3497 -1115.3672 2893.0 1
1544.574 -1106.1141 2869.0 1
1527.3497 -1145.5123 2893.0 1
1544.574 -1136.0093 2869.0 1
1553.2191 -1195.57 2942.0 1
1570.4155 -1185.4105 2917.0 1
