ply
format ascii 1.0
comment : created from Kinect user tracker
element vertex 219
property float x
property float y
property float z
property int userId
end_header
1453.9652 57.39337 2754.0 1
1471.3561 56.955734 2733.0 1
1466.1079 28.936312 2777.0 1
1482.6617 28.696651 2754.0 1
1472.3633 0.0 2845.0 1
1466.1079 0.0 2777.0 1
1482.6617 0.0 2754.0 1
1460.4602 -29.40521 2822.0 1
1466.1079 -28.936312 2777.0 1
1506.8883 -29.165552 2799.0 1
1460.4602 -58.81042 2822.0 1
1477.7228 -58.331104 2799.0 1
1506.8883 -58.331104 2799.0 1
1431.055 -88.215775 2822.0 1
1460.4602 -88.215775 2822.0 1
1489.8656 -88.215775 2822.0 1
1495.0442 -86.809074 2777.0 1
1431.055 -117.62099 2822.0 1
1460.4602 -117.62099 2822.0 1
1489.8656 -117.62099 2822.0 1
1495.0442 -115.745384 2777.0 1
1454.889 -149.4749 2869.0 1
1472.3633 -148.2245 2845.0 1
1502.0083 -148.2245 2845.0 1
1459.512 -141.2431 2711.0 1
1454.889 -179.36984 2869.0 1
1472.3633 -177.86937 2845.0 1
1453.9652 -172.18005 2754.0 1
1436.9006 -166.86584 2669.0 1
1467.0596 -211.01537 2893.0 1
1460.4602 -205.83662 2822.0 1
1431.2634 -197.74028 2711.0 1
1426.1333 -193.218 2649.0 1
1461.2521 -245.24518 2942.0 1
1479.2301 -243.16118 2917.0 1
1425.2684 -229.57349 2754.0 1
1420.1766 -224.23845 2690.0 1
1415.366 -219.15349 2629.0 1
1436.9144 -271.30557 2893.0 1
1454.889 -269.05484 2869.0 1
1403.0148 -254.23761 2711.0 1
1398.5308 -248.42325 2649.0 1
1404.5986 -244.67204 2609.0 1
1417.6896 -317.3932 3046.0 1
1399.9409 -306.5564 2942.0 1
1418.4398 -303.9514 2917.0 1
1448.835 -303.9514 2917.0 1
1442.7185 -296.449 2845.0 1
1392.1467 -280.298 2690.0 1
1398.5308 -276.0258 2649.0 1
1393.8313 -269.7738 2589.0 1
1430.5966 -337.212 2942.0 1
1424.9939 -328.84476 2869.0 1
1385.9225 -313.25644 2733.0 1
1381.2786 -305.92075 2669.0 1
1377.4128 -299.04355 2609.0 1
1383.6023 -294.57336 2570.0 1
1379.2988 -347.23602 2777.0 1
1374.7662 -338.98337 2711.0 1
1370.9281 -331.2309 2649.0 1
1377.4128 -326.2293 2609.0 1
1383.6023 -321.35275 2570.0 1
1367.875 -373.0569 2754.0 1
1374.7662 -367.23212 2711.0 1
1370.9281 -358.8336 2649.0 1
1366.854 -350.706 2589.0 1
1383.6023 -348.13223 2570.0 1
1379.2988 -405.1088 2777.0 1
1385.9225 -398.69006 2733.0 1
1370.9281 -386.43613 2649.0 1
1366.854 -377.68335 2589.0 1
1383.6023 -374.91162 2570.0 1
1374.7662 -423.72928 2711.0 1
1370.9281 -414.0387 2649.0 1
1366.854 -404.6607 2589.0 1
1383.6023 -401.69098 2570.0 1
1467.0596 -482.32092 2893.0 1
1381.2786 -444.97565 2669.0 1
1377.4128 -434.97244 2609.0 1
1373.3733 -425.30267 2551.0 1
1442.7185 -503.96323 2845.0 1
1414.4003 -484.12357 2733.0 1
1377.4128 -462.1582 2609.0 1
1383.6023 -455.24973 2570.0 1
1442.7185 -533.6083 2845.0 1
1425.2684 -516.5403 2754.0 1
1387.9718 -493.09528 2629.0 1
1393.8313 -485.5929 2589.0 1
1479.2301 -577.5077 2917.0 1
1448.5571 -554.14606 2799.0 1
1398.5308 -524.44904 2649.0 1
1393.8313 -512.57025 2589.0 1
1479.2301 -607.9028 2917.0 1
1460.4602 -588.1048 2822.0 1
1466.1079 -578.7268 2777.0 1
1415.366 -547.8836 2629.0 1
1473.6692 -649.2389 2967.0 1
1491.9078 -643.7684 2942.0 1
1497.2046 -633.0462 2893.0 1
1502.0083 -622.54285 2845.0 1
1448.2063 -588.62573 2690.0 1
1473.6692 -680.155 2967.0 1
1491.9078 -674.424 2942.0 1
1484.7839 -657.6895 2869.0 1
1514.6791 -657.6895 2869.0 1
1482.6617 -631.3269 2754.0 1
1455.3961 -717.3024 2993.0 1
1461.2521 -705.0798 2942.0 1
1479.2301 -699.08826 2917.0 1
1509.6252 -699.08826 2917.0 1
1514.6791 -687.5846 2869.0 1
1519.2708 -676.32056 2822.0 1
1424.2091 -748.48944 2993.0 1
1430.5966 -735.73535 2942.0 1
1448.835 -729.4834 2917.0 1
1479.2301 -729.4834 2917.0 1
1509.6252 -729.4834 2917.0 1
1527.3497 -723.48145 2893.0 1
1531.6532 -711.4776 2845.0 1
1393.022 -779.6765 2993.0 1
1424.2091 -779.6765 2993.0 1
1430.5966 -766.391 2942.0 1
1461.2521 -766.391 2942.0 1
1479.2301 -759.8785 2917.0 1
1509.6252 -759.8785 2917.0 1
1540.0205 -759.8785 2917.0 1
1393.022 -810.8635 2993.0 1
1399.9409 -797.0466 2942.0 1
1418.4398 -790.2736 2917.0 1
1448.835 -790.2736 2917.0 1
1479.2301 -790.2736 2917.0 1
1509.6252 -790.2736 2917.0 1
1385.9503 -856.96155 3046.0 1
1393.022 -842.05054 2993.0 1
1399.9409 -827.7022 2942.0 1
1430.5966 -827.7022 2942.0 1
1448.835 -820.6687 2917.0 1
1479.2301 -820.6687 2917.0 1
1497.2046 -813.91656 2893.0 1
1373.6652 -880.8235 3019.0 1
1380.9209 -865.652 2967.0 1
1399.9409 -858.358 2942.0 1
1430.5966 -858.358 2942.0 1
1461.2521 -858.358 2942.0 1
1467.0596 -844.0617 2893.0 1
1354.2109 -920.4403 3046.0 1
1350.0048 -896.56805 2967.0 1
1369.2852 -889.01355 2942.0 1
1399.9409 -889.01355 2942.0 1
1418.4398 -881.45905 2917.0 1
1436.9144 -874.2067 2893.0 1
1370.6642 -986.8782 3157.0 1
1342.207 -943.7394 3019.0 1
1350.0048 -927.4842 2967.0 1
1369.2852 -919.6692 2942.0 1
1399.9409 -919.6692 2942.0 1
1418.4398 -911.8542 2917.0 1
1314.0385 -1001.685 3101.0 1
1310.7491 -975.1973 3019.0 1
1330.6478 -966.7988 2993.0 1
1350.0048 -958.40027 2967.0 1
1369.2852 -950.32477 2942.0 1
1399.9409 -950.32477 2942.0 1
1482.6617 -889.59705 2754.0 1
1279.2913 -1006.6553 3019.0 1
1310.7491 -1006.6553 3019.0 1
1330.6478 -997.98584 2993.0 1
1350.0048 -989.3164 2967.0 1
1380.9209 -989.3164 2967.0 1
1424.2091 -997.98584 2993.0 1
1482.6617 -918.2937 2754.0 1
1290.7324 -1047.3976 3046.0 1
1322.4717 -1047.3976 3046.0 1
1330.6478 -1029.173 2993.0 1
1361.835 -1029.173 2993.0 1
1380.9209 -1020.23267 2967.0 1
1466.1079 -954.89923 2777.0 1
1495.0442 -954.89923 2777.0 1
1281.726 -1098.6223 3101.0 1
1279.2913 -1069.5713 3019.0 1
1299.4608 -1060.3601 2993.0 1
1330.6478 -1060.3601 2993.0 1
1350.0048 -1051.1488 2967.0 1
1380.9209 -1051.1488 2967.0 1
1489.8656 -999.7782 2822.0 1
1506.8883 -991.6297 2799.0 1
1237.0867 -1091.5471 2993.0 1
1268.2738 -1091.5471 2993.0 1
1299.4608 -1091.5471 2993.0 1
1342.207 -1101.0293 3019.0 1
1373.6652 -1101.0293 3019.0 1
1417.6896 -1110.8762 3046.0 1
1489.8656 -1029.1833 2822.0 1
1506.8883 -1020.7953 2799.0 1
1237.0867 -1122.7341 2993.0 1
1268.2738 -1122.7341 2993.0 1
1299.4608 -1122.7341 2993.0 1
1354.2109 -1142.6155 3046.0 1
1385.9503 -1142.6155 3046.0 1
1417.6896 -1142.6155 3046.0 1
1475.6006 -1163.2471 3101.0 1
1502.0083 -1067.2163 2845.0 1
1519.2708 -1058.5886 2822.0 1
1247.8331 -1163.9452 3019.0 1
1268.2738 -1153.9211 2993.0 1
1322.4717 -1174.3547 3046.0 1
1354.2109 -1174.3547 3046.0 1
1398.2355 -1184.7643 3073.0 1
1417.6896 -1174.3547 3046.0 1
1449.429 -1174.3547 3046.0 1
1514.6791 -1106.1141 2869.0 1
1531.6532 -1096.8612 2845.0 1
1319.0885 -1174.8134 2967.0 1
1385.9503 -1206.0942 3046.0 1
1514.6791 -1136.0093 2869.0 1
1544.574 -1136.0093 2869.0 1
1319.0885 -1205.7295 2967.0 1
1540.0205 -1185.4105 2917.0 1
1544.574 -1165.9042 2869.0 1
