ply
format ascii 1.0
comment : created from Kinect user tracker
element vertex 713
property float x
property float y
property float z
property int userId
end_header
462.14786 420.88464 2376.0 1
508.00284 417.87326 2359.0 1
528.9713 415.03903 2343.0 1
557.16425 417.87326 2359.0 1
577.79944 415.03903 2343.0 1
462.14786 396.12668 2376.0 1
480.14313 390.62494 2343.0 1
504.55728 390.62494 2343.0 1
521.97253 385.4566 2312.0 1
553.3853 390.62494 2343.0 1
581.7451 393.29245 2359.0 1
594.2456 385.4566 2312.0 1
418.363 376.5267 2409.0 1
443.46472 376.5267 2409.0 1
462.14786 371.3688 2376.0 1
480.14313 366.2109 2343.0 1
504.55728 366.2109 2343.0 1
525.359 363.71008 2327.0 1
546.0635 361.3656 2312.0 1
573.85376 363.71008 2327.0 1
598.101 363.71008 2327.0 1
626.62756 366.2109 2343.0 1
418.363 351.42493 2409.0 1
446.59418 353.9049 2426.0 1
468.5666 351.42493 2409.0 1
480.14313 341.79684 2343.0 1
501.11176 339.46277 2327.0 1
521.97253 337.27457 2312.0 1
538.7417 332.7523 2281.0 1
573.85376 339.46277 2327.0 1
602.21344 341.79684 2343.0 1
618.33673 337.27457 2312.0 1
427.22 333.23157 2460.0 1
452.85312 333.23157 2460.0 1
468.5666 326.32312 2409.0 1
480.14313 317.38275 2343.0 1
501.11176 315.2154 2327.0 1
525.359 315.2154 2327.0 1
549.6063 315.2154 2327.0 1
589.8832 324.0203 2392.0 1
610.6953 321.85294 2376.0 1
622.34845 315.2154 2327.0 1
660.2112 321.85294 2376.0 1
684.96906 321.85294 2376.0 1
421.31534 303.34705 2426.0 1
456.1667 309.84912 2478.0 1
468.5666 301.22137 2409.0 1
490.18454 299.09567 2392.0 1
504.55728 292.96872 2343.0 1
525.359 290.96808 2327.0 1
553.3853 292.96872 2343.0 1
581.7451 294.96936 2359.0 1
619.1772 301.22137 2409.0 1
639.7325 299.09567 2392.0 1
456.1667 284.02832 2478.0 1
471.8732 278.06808 2426.0 1
490.18454 274.17102 2392.0 1
504.55728 268.55463 2343.0 1
528.9713 268.55463 2343.0 1
561.17944 272.3371 2376.0 1
581.7451 270.38855 2359.0 1
623.54663 278.06808 2426.0 1
644.27905 276.11954 2409.0 1
674.1045 278.06808 2426.0 1
468.5666 251.01779 2409.0 1
490.18454 249.2464 2392.0 1
504.55728 244.1406 2343.0 1
528.9713 244.1406 2343.0 1
564.95844 249.2464 2392.0 1
585.93744 247.5792 2376.0 1
636.91205 258.20758 2478.0 1
648.8257 252.7892 2426.0 1
481.98755 232.38686 2478.0 1
490.18454 224.32178 2392.0 1
511.66373 222.8213 2376.0 1
536.4216 222.8213 2376.0 1
561.17944 222.8213 2376.0 1
598.2678 227.5103 2426.0 1
636.91205 232.38686 2478.0 1
499.05887 225.98894 2711.0 1
519.1383 222.48782 2669.0 1
493.6683 200.81422 2409.0 1
515.10925 199.39711 2392.0 1
540.0339 199.39711 2392.0 1
577.00397 203.64847 2443.0 1
611.0914 206.56607 2478.0 1
636.91205 206.56607 2478.0 1
662.7329 206.56607 2478.0 1
470.81033 197.74036 2711.0 1
491.32724 194.67686 2669.0 1
507.46793 190.30048 2609.0 1
518.87427 184.68408 2532.0 1
533.6291 180.74533 2478.0 1
551.548 178.19243 2443.0 1
589.52185 182.05824 2496.0 1
615.5303 182.05824 2496.0 1
636.91205 180.74533 2478.0 1
662.7329 180.74533 2478.0 1
678.82825 178.19243 2443.0 1
467.16333 168.17877 2690.0 1
483.96378 164.36505 2629.0 1
503.5778 161.86426 2589.0 1
518.87427 158.30061 2532.0 1
541.3816 157.17525 2514.0 1
559.44977 154.92453 2478.0 1
589.52185 156.0499 2496.0 1
611.0914 154.92453 2478.0 1
636.91205 154.92453 2478.0 1
657.9188 153.79918 2460.0 1
674.1045 151.6735 2426.0 1
709.1851 153.79918 2460.0 1
442.56177 141.2431 2711.0 1
463.51633 139.0549 2669.0 1
480.28204 135.9289 2609.0 1
496.18652 132.9071 2551.0 1
518.87427 131.91719 2532.0 1
541.3816 130.9794 2514.0 1
559.44977 129.10379 2478.0 1
585.2705 129.10379 2478.0 1
611.0914 129.10379 2478.0 1
632.2856 128.166 2460.0 1
653.37225 127.2803 2443.0 1
674.1045 126.3946 2426.0 1
699.38336 126.3946 2426.0 1
719.58435 125.508896 2409.0 1
439.1336 112.119225 2690.0 1
456.56967 109.576744 2629.0 1
476.6003 107.909546 2589.0 1
496.18652 106.32571 2551.0 1
515.1856 104.78355 2514.0 1
537.5053 104.0333 2496.0 1
559.44977 103.283066 2478.0 1
581.0191 102.53282 2460.0 1
606.6524 102.53282 2460.0 1
627.9161 101.824265 2443.0 1
648.8257 101.1157 2426.0 1
669.3808 100.40714 2409.0 1
694.4825 100.40714 2409.0 1
719.58435 100.40714 2409.0 1
744.6861 100.40714 2409.0 1
432.4405 82.807724 2649.0 1
453.0963 81.55733 2609.0 1
469.605 79.74425 2551.0 1
492.4909 79.15031 2532.0 1
515.1856 78.58762 2514.0 1
533.6291 77.462265 2478.0 1
555.386 76.89959 2460.0 1
577.00397 76.368164 2443.0 1
602.4601 76.368164 2443.0 1
623.54663 75.83675 2426.0 1
644.27905 75.30533 2409.0 1
664.65704 74.77391 2392.0 1
689.5816 74.77391 2392.0 1
709.72705 74.27375 2376.0 1
744.6861 75.30533 2409.0 1
429.17554 54.788372 2629.0 1
453.0963 54.37157 2609.0 1
473.10266 53.55881 2570.0 1
492.4909 52.76689 2532.0 1
511.49692 52.01665 2496.0 1
533.6291 51.641533 2478.0 1
555.386 51.26641 2460.0 1
581.0191 51.26641 2460.0 1
602.4601 50.912132 2443.0 1
623.54663 50.55785 2426.0 1
644.27905 50.20357 2409.0 1
664.65704 49.849293 2392.0 1
689.5816 49.849293 2392.0 1
719.58435 50.20357 2409.0 1
744.6861 50.20357 2409.0 1
429.17554 27.394154 2629.0 1
449.623 26.977354 2589.0 1
469.605 26.581394 2551.0 1
488.98978 26.195854 2514.0 1
511.49692 26.008295 2496.0 1
529.75287 25.633175 2460.0 1
555.386 25.633175 2460.0 1
581.0191 25.633175 2460.0 1
602.4601 25.456036 2443.0 1
623.54663 25.278896 2426.0 1
644.27905 25.101755 2409.0 1
669.3808 25.101755 2409.0 1
689.5816 24.924616 2392.0 1
719.58435 25.101755 2409.0 1
744.6861 25.101755 2409.0 1
429.17554 0.0 2629.0 1
449.623 0.0 2589.0 1
469.605 0.0 2551.0 1
488.98978 0.0 2514.0 1
507.80823 0.0 2478.0 1
529.75287 0.0 2460.0 1
551.548 0.0 2443.0 1
581.0191 0.0 2460.0 1
602.4601 0.0 2443.0 1
623.54663 0.0 2426.0 1
644.27905 0.0 2409.0 1
669.3808 0.0 2409.0 1
689.5816 0.0 2392.0 1
714.50635 0.0 2392.0 1
744.6861 0.0 2409.0 1
425.9106 -27.185753 2609.0 1
449.623 -26.977354 2589.0 1
469.605 -26.581394 2551.0 1
492.4909 -26.383415 2532.0 1
507.80823 -25.820734 2478.0 1
529.75287 -25.633175 2460.0 1
551.548 -25.456036 2443.0 1
581.0191 -25.633175 2460.0 1
602.4601 -25.456036 2443.0 1
623.54663 -25.278896 2426.0 1
648.8257 -25.278896 2426.0 1
669.3808 -25.101755 2409.0 1
694.4825 -25.101755 2409.0 1
714.50635 -24.924616 2392.0 1
744.6861 -25.101755 2409.0 1
429.17554 -54.788307 2629.0 1
449.623 -53.95471 2589.0 1
473.10266 -53.558746 2570.0 1
492.4909 -52.76683 2532.0 1
507.80823 -51.641468 2478.0 1
529.75287 -51.26635 2460.0 1
555.386 -51.26635 2460.0 1
581.0191 -51.26635 2460.0 1
602.4601 -50.91207 2443.0 1
627.9161 -50.91207 2443.0 1
653.37225 -50.91207 2443.0 1
669.3808 -50.20351 2409.0 1
694.4825 -50.20351 2409.0 1
714.50635 -49.84923 2392.0 1
744.6861 -50.20351 2409.0 1
442.1275 -90.435234 2893.0 1
429.17554 -82.182594 2629.0 1
449.623 -80.93219 2589.0 1
469.605 -79.74431 2551.0 1
492.4909 -79.15037 2532.0 1
511.49692 -78.02501 2496.0 1
533.6291 -77.462326 2478.0 1
559.44977 -77.462326 2478.0 1
585.2705 -77.462326 2478.0 1
611.0914 -77.462326 2478.0 1
636.91205 -77.462326 2478.0 1
662.7329 -77.462326 2478.0 1
674.1045 -75.83681 2426.0 1
694.4825 -75.30539 2409.0 1
714.50635 -74.773964 2392.0 1
739.43097 -74.773964 2392.0 1
769.78796 -75.30539 2409.0 1
449.616 -122.62259 2942.0 1
429.17554 -109.576744 2629.0 1
453.0963 -108.74314 2609.0 1
469.605 -106.32571 2551.0 1
492.4909 -105.53378 2532.0 1
518.87427 -105.53378 2532.0 1
533.6291 -103.283066 2478.0 1
559.44977 -103.283066 2478.0 1
589.52185 -104.0333 2496.0 1
615.5303 -104.0333 2496.0 1
636.91205 -103.283066 2478.0 1
667.54694 -104.0333 2496.0 1
678.82825 -101.824265 2443.0 1
694.4825 -100.40714 2409.0 1
719.58435 -100.40714 2409.0 1
749.9412 -101.1157 2426.0 1
453.43668 -154.5807 2967.0 1
432.4405 -138.0129 2649.0 1
446.32333 -133.897 2570.0 1
469.605 -132.9071 2551.0 1
492.4909 -131.91719 2532.0 1
515.1856 -130.9794 2514.0 1
541.3816 -130.9794 2514.0 1
563.5136 -130.0416 2496.0 1
593.7732 -130.9794 2514.0 1
619.9692 -130.9794 2514.0 1
646.165 -130.9794 2514.0 1
672.36096 -130.9794 2514.0 1
683.552 -128.166 2460.0 1
699.38336 -126.3946 2426.0 1
724.6624 -126.3946 2426.0 1
749.9412 -126.3946 2426.0 1
426.22318 -187.12233 2993.0 1
453.43668 -185.49681 2967.0 1
432.4405 -165.61545 2649.0 1
449.623 -161.86426 2589.0 1
473.10266 -160.67638 2570.0 1
492.4909 -158.30061 2532.0 1
518.87427 -158.30061 2532.0 1
541.3816 -157.17525 2514.0 1
563.5136 -156.0499 2496.0 1
593.7732 -157.17525 2514.0 1
629.0936 -159.4885 2551.0 1
650.7915 -158.30061 2532.0 1
672.36096 -157.17525 2514.0 1
683.552 -153.79918 2460.0 1
699.38336 -151.6735 2426.0 1
724.6624 -151.6735 2426.0 1
749.9412 -151.6735 2426.0 1
402.0313 -222.17517 3046.0 1
426.22318 -218.30936 2993.0 1
453.43668 -216.41292 2967.0 1
429.17554 -191.7592 2629.0 1
453.0963 -190.3004 2609.0 1
473.10266 -187.45575 2570.0 1
496.18652 -186.06989 2551.0 1
518.87427 -184.68402 2532.0 1
545.2578 -184.68402 2532.0 1
567.5774 -183.37111 2514.0 1
593.7732 -183.37111 2514.0 1
624.4081 -184.68402 2532.0 1
655.675 -186.06989 2551.0 1
677.175 -184.68402 2532.0 1
683.552 -179.43234 2460.0 1
699.38336 -176.9524 2426.0 1
724.6624 -176.9524 2426.0 1
755.1964 -178.19237 2443.0 1
376.97824 -258.49942 3101.0 1
398.46765 -251.6639 3019.0 1
422.5206 -247.32918 2967.0 1
445.79535 -243.16118 2917.0 1
432.4405 -220.8207 2649.0 1
453.0963 -217.48628 2609.0 1
476.6003 -215.81909 2589.0 1
496.18652 -212.65141 2551.0 1
522.7679 -212.65141 2551.0 1
545.2578 -211.06757 2532.0 1
571.6412 -211.06757 2532.0 1
602.5121 -212.65141 2551.0 1
629.0936 -212.65141 2551.0 1
660.5585 -214.23524 2570.0 1
692.4195 -215.81909 2589.0 1
688.5536 -206.56613 2478.0 1
704.28424 -203.64853 2443.0 1
724.6624 -202.2314 2426.0 1
749.9412 -202.2314 2426.0 1
367.00977 -283.12186 3019.0 1
395.036 -280.68356 2993.0 1
426.22318 -280.68356 2993.0 1
431.2768 -264.6472 2822.0 1
432.4405 -248.42325 2649.0 1
456.56967 -246.54764 2629.0 1
480.28204 -244.67204 2609.0 1
496.18652 -239.2328 2551.0 1
522.7679 -239.2328 2551.0 1
549.3494 -239.2328 2551.0 1
575.9308 -239.2328 2551.0 1
602.5121 -239.2328 2551.0 1
629.0936 -239.2328 2551.0 1
660.5585 -241.01462 2570.0 1
692.4195 -242.79645 2589.0 1
688.5536 -232.38686 2478.0 1
704.28424 -229.10455 2443.0 1
724.6624 -227.5103 2426.0 1
749.9412 -227.5103 2426.0 1
341.55377 -320.2066 3073.0 1
367.00977 -314.5798 3019.0 1
395.036 -311.8706 2993.0 1
418.96045 -306.5564 2942.0 1
427.76178 -291.6558 2799.0 1
442.56177 -282.4862 2711.0 1
460.043 -276.0258 2649.0 1
480.28204 -271.8578 2609.0 1
499.88217 -267.794 2570.0 1
526.6615 -267.794 2570.0 1
549.3494 -265.8142 2551.0 1
575.9308 -265.8142 2551.0 1
606.99963 -267.794 2570.0 1
633.7792 -267.794 2570.0 1
660.5585 -267.794 2570.0 1
687.338 -267.794 2570.0 1
688.5536 -258.20758 2478.0 1
704.28424 -254.5606 2443.0 1
724.6624 -252.7892 2426.0 1
744.6861 -251.01779 2409.0 1
335.55185 -346.03775 3019.0 1
363.84903 -343.05762 2993.0 1
395.036 -343.05762 2993.0 1
401.87164 -323.4576 2822.0 1
424.3996 -318.2997 2777.0 1
442.56177 -310.7348 2711.0 1
456.56967 -301.33594 2629.0 1
483.96378 -301.33594 2629.0 1
503.5778 -296.75116 2589.0 1
526.6615 -294.57336 2570.0 1
549.3494 -292.3956 2551.0 1
575.9308 -292.3956 2551.0 1
606.99963 -294.57336 2570.0 1
633.7792 -294.57336 2570.0 1
665.442 -296.75116 2589.0 1
672.36096 -288.15466 2514.0 1
683.552 -281.96518 2460.0 1
699.38336 -278.06808 2426.0 1
724.6624 -278.06808 2426.0 1
338.55283 -380.87177 3046.0 1
367.00977 -377.4957 3019.0 1
381.83734 -361.74066 2893.0 1
398.59628 -349.9869 2799.0 1
424.3996 -347.23602 2777.0 1
442.56177 -338.98337 2711.0 1
460.043 -331.2309 2649.0 1
487.6455 -331.2309 2649.0 1
507.46793 -326.2293 2609.0 1
530.5551 -323.72852 2589.0 1
553.441 -321.35275 2570.0 1
575.9308 -318.977 2551.0 1
611.4872 -323.72852 2589.0 1
638.46466 -323.72852 2589.0 1
675.7231 -328.7301 2629.0 1
662.7329 -309.84906 2478.0 1
678.82825 -305.47266 2443.0 1
699.38336 -303.347 2426.0 1
729.7404 -305.47266 2443.0 1
360.6883 -401.90988 2967.0 1
375.50198 -385.38376 2845.0 1
398.59628 -379.1526 2799.0 1
424.3996 -376.17245 2777.0 1
442.56177 -367.23212 2711.0 1
467.16333 -364.38745 2690.0 1
491.32724 -361.5428 2669.0 1
511.35806 -356.1244 2629.0 1
530.5551 -350.706 2589.0 1
553.441 -348.13223 2570.0 1
580.22034 -348.13223 2570.0 1
616.21094 -353.4152 2609.0 1
643.3968 -353.4152 2609.0 1
665.442 -350.706 2589.0 1
657.9188 -333.23163 2460.0 1
683.552 -333.23163 2460.0 1
704.28424 -330.92883 2443.0 1
351.69235 -422.03085 2893.0 1
372.46628 -411.67337 2822.0 1
398.59628 -408.31815 2799.0 1
424.3996 -405.1088 2777.0 1
442.56177 -395.4807 2711.0 1
467.16333 -392.4172 2690.0 1
487.6455 -386.43613 2649.0 1
511.35806 -383.51852 2629.0 1
534.6536 -380.60095 2609.0 1
561.83954 -380.60095 2609.0 1
580.22034 -374.91162 2570.0 1
616.21094 -380.60095 2609.0 1
648.329 -383.51852 2629.0 1
646.165 -366.74234 2514.0 1
653.37225 -356.38486 2443.0 1
678.82825 -356.38486 2443.0 1
704.28424 -356.38486 2443.0 1
348.77475 -448.42468 2869.0 1
372.46628 -441.07858 2822.0 1
401.87164 -441.07858 2822.0 1
424.3996 -434.0451 2777.0 1
446.1532 -427.16788 2733.0 1
467.16333 -420.447 2690.0 1
491.32724 -417.1647 2669.0 1
515.24817 -414.0387 2649.0 1
534.6536 -407.78668 2609.0 1
561.83954 -407.78668 2609.0 1
584.5099 -404.6607 2589.0 1
611.4872 -404.6607 2589.0 1
643.3968 -407.78668 2609.0 1
636.91205 -387.3114 2478.0 1
653.37225 -381.84088 2443.0 1
674.1045 -379.1838 2426.0 1
348.77475 -478.31964 2869.0 1
372.46628 -470.4838 2822.0 1
398.59628 -466.64923 2799.0 1
427.76178 -466.64923 2799.0 1
453.33606 -462.9814 2777.0 1
470.81033 -451.97787 2711.0 1
491.32724 -444.97565 2669.0 1
515.24817 -441.64124 2649.0 1
538.75214 -438.30685 2629.0 1
561.83954 -434.97244 2609.0 1
584.5099 -431.63806 2589.0 1
616.21094 -434.97244 2609.0 1
638.46466 -431.63806 2589.0 1
632.2856 -410.13116 2460.0 1
648.8257 -404.46268 2426.0 1
674.1045 -404.46268 2426.0 1
318.87985 -508.2146 2869.0 1
348.77475 -508.2146 2869.0 1
372.46628 -499.889 2822.0 1
398.59628 -495.8148 2799.0 1
427.76178 -495.8148 2799.0 1
456.9275 -495.8148 2799.0 1
478.27798 -487.8435 2754.0 1
495.19305 -476.50653 2690.0 1
515.24817 -469.2438 2649.0 1
538.75214 -465.701 2629.0 1
561.83954 -462.1582 2609.0 1
589.0252 -462.1582 2609.0 1
620.9347 -465.701 2629.0 1
615.5303 -442.1414 2496.0 1
632.2856 -435.76434 2460.0 1
653.37225 -432.75296 2443.0 1
664.65704 -423.7188 2392.0 1
318.87985 -538.1097 2869.0 1
348.77475 -538.1097 2869.0 1
375.50198 -533.6083 2845.0 1
401.87164 -529.2944 2822.0 1
427.76178 -524.98047 2799.0 1
456.9275 -524.98047 2799.0 1
482.27234 -520.8542 2777.0 1
499.05887 -508.47522 2711.0 1
515.24817 -496.8465 2649.0 1
538.75214 -493.09528 2629.0 1
561.83954 -489.3441 2609.0 1
589.0252 -489.3441 2609.0 1
616.21094 -489.3441 2609.0 1
611.0914 -464.7737 2478.0 1
627.9161 -458.2091 2443.0 1
648.8257 -455.0206 2426.0 1
318.87985 -568.00464 2869.0 1
345.85715 -563.2531 2845.0 1
372.46628 -558.6996 2822.0 1
401.87164 -558.6996 2822.0 1
431.2768 -558.6996 2822.0 1
464.43683 -563.2531 2845.0 1
486.093 -554.14606 2799.0 1
499.05887 -536.7238 2711.0 1
523.22296 -532.5662 2690.0 1
538.75214 -520.48944 2629.0 1
566.1464 -520.48944 2629.0 1
584.5099 -512.57025 2589.0 1
589.52185 -494.15808 2496.0 1
611.0914 -490.59445 2478.0 1
627.9161 -483.66516 2443.0 1
667.54694 -494.15808 2496.0 1
291.4022 -602.9012 2893.0 1
318.87985 -597.8996 2869.0 1
348.77475 -597.8996 2869.0 1
375.50198 -592.898 2845.0 1
401.87164 -588.1048 2822.0 1
431.2768 -588.1048 2822.0 1
468.35477 -597.8996 2869.0 1
499.05887 -564.9724 2711.0 1
519.1383 -556.2196 2669.0 1
542.8507 -552.0516 2649.0 1
566.1464 -547.8836 2629.0 1
559.44977 -516.41516 2478.0 1
585.2705 -516.41516 2478.0 1
606.6524 -512.664 2460.0 1
632.2856 -512.664 2460.0 1
293.81964 -638.2979 2917.0 1
321.54736 -633.0462 2893.0 1
348.77475 -627.79456 2869.0 1
375.50198 -622.54285 2845.0 1
405.147 -622.54285 2845.0 1
434.7918 -622.54285 2845.0 1
499.05887 -593.221 2711.0 1
523.22296 -588.62573 2690.0 1
546.9492 -584.0305 2669.0 1
561.83954 -570.90137 2609.0 1
555.386 -538.2972 2460.0 1
585.2705 -542.2359 2478.0 1
606.6524 -538.2972 2460.0 1
632.2856 -538.2972 2460.0 1
293.81964 -668.693 2917.0 1
321.54736 -663.1912 2893.0 1
348.77475 -657.6895 2869.0 1
378.66968 -657.6895 2869.0 1
408.56476 -657.6895 2869.0 1
442.1275 -663.1912 2893.0 1
511.2086 -636.5994 2777.0 1
527.3076 -621.4696 2711.0 1
551.2527 -616.6555 2690.0 1
557.5326 -593.5023 2589.0 1
555.386 -563.93036 2460.0 1
585.2705 -568.05664 2478.0 1
611.0914 -568.05664 2478.0 1
636.91205 -568.05664 2478.0 1
296.3378 -705.0798 2942.0 1
324.2149 -699.08826 2917.0 1
351.69235 -693.3364 2893.0 1
378.66968 -687.5846 2869.0 1
411.9825 -693.3364 2893.0 1
449.616 -705.0798 2942.0 1
480.27176 -705.0798 2942.0 1
511.2086 -665.5359 2777.0 1
531.58673 -654.99084 2733.0 1
551.2527 -644.6854 2690.0 1
566.1464 -630.06616 2629.0 1
559.44977 -593.8775 2478.0 1
585.2705 -593.8775 2478.0 1
611.0914 -593.8775 2478.0 1
298.856 -741.98737 2967.0 1
324.2149 -729.4834 2917.0 1
351.69235 -723.48145 2893.0 1
381.83734 -723.48145 2893.0 1
415.40027 -729.4834 2917.0 1
449.616 -735.73535 2942.0 1
480.27176 -735.73535 2942.0 1
515.2585 -699.97394 2799.0 1
535.6714 -688.72034 2754.0 1
555.55615 -677.9669 2711.0 1
583.8049 -677.9669 2711.0 1
612.0534 -677.9669 2711.0 1
694.8611 -735.73535 2942.0 1
357.64914 -766.391 2942.0 1
385.00504 -759.8785 2917.0 1
418.96045 -766.391 2942.0 1
449.616 -766.391 2942.0 1
484.35294 -772.9035 2967.0 1
515.269 -772.9035 2967.0 1
515.2585 -729.13947 2799.0 1
535.6714 -717.417 2754.0 1
560.0645 -711.9465 2733.0 1
593.06476 -717.417 2754.0 1
631.9209 -729.13947 2799.0 1
683.28796 -753.62646 2893.0 1
363.84903 -810.8635 2993.0 1
395.036 -810.8635 2993.0 1
418.96045 -797.0466 2942.0 1
449.616 -797.0466 2942.0 1
484.35294 -803.8196 2967.0 1
515.269 -803.8196 2967.0 1
523.7265 -770.76733 2845.0 1
540.145 -752.3448 2777.0 1
564.368 -746.11365 2754.0 1
598.01776 -752.3448 2777.0 1
631.9209 -758.30505 2799.0 1
395.036 -842.05054 2993.0 1
422.5206 -834.7357 2967.0 1
453.43668 -834.7357 2967.0 1
484.35294 -834.7357 2967.0 1
519.7843 -842.05054 2993.0 1
523.7265 -800.41223 2845.0 1
544.4242 -787.4706 2799.0 1
573.5897 -787.4706 2799.0 1
602.7554 -787.4706 2799.0 1
642.30615 -800.41223 2845.0 1
677.61945 -807.16437 2869.0 1
426.22318 -873.23773 2993.0 1
453.43668 -865.652 2967.0 1
484.35294 -865.652 2967.0 1
515.269 -865.652 2967.0 1
546.18506 -865.652 2967.0 1
548.8978 -823.34674 2822.0 1
573.5897 -816.6363 2799.0 1
602.7554 -816.6363 2799.0 1
631.9209 -816.6363 2799.0 1
666.5187 -823.34674 2822.0 1
433.77075 -920.4403 3046.0 1
457.41016 -904.42474 2993.0 1
492.84177 -912.28143 3019.0 1
519.7843 -904.42474 2993.0 1
550.9713 -904.42474 2993.0 1
562.7078 -874.2067 2893.0 1
578.303 -852.75195 2822.0 1
612.6613 -859.7021 2845.0 1
637.1135 -852.75195 2822.0 1
671.951 -859.7021 2845.0 1
437.61572 -960.6198 3073.0 1
469.6363 -960.6198 3073.0 1
492.84177 -943.7394 3019.0 1
524.2997 -943.7394 3019.0 1
560.7279 -952.17957 3046.0 1
562.7078 -904.3518 2893.0 1
587.9346 -896.84937 2869.0 1
612.6613 -889.347 2845.0 1
637.1135 -882.15717 2822.0 1
666.5187 -882.15717 2822.0 1
433.77075 -983.9189 3046.0 1
469.6363 -992.6404 3073.0 1
492.84177 -975.1973 3019.0 1
524.2997 -975.1973 3019.0 1
565.69824 -992.6404 3073.0 1
582.1585 -966.7988 2993.0 1
592.8528 -934.4968 2893.0 1
622.998 -934.4968 2893.0 1
647.72455 -926.7443 2869.0 1
441.60312 -1033.9973 3101.0 1
469.6363 -1024.661 3073.0 1
497.24942 -1015.65814 3046.0 1
528.98865 -1015.65814 3046.0 1
565.69824 -1024.661 3073.0 1
587.21564 -1006.6553 3019.0 1
602.8942 -980.9804 2942.0 1
628.1663 -972.6444 2917.0 1
653.14294 -964.64185 2893.0 1
700.76575 -989.3164 2967.0 1
441.60312 -1066.3099 3101.0 1
473.91544 -1066.3099 3101.0 1
506.228 -1066.3099 3101.0 1
533.6777 -1056.6818 3073.0 1
565.69824 -1056.6818 3073.0 1
587.21564 -1038.1134 3019.0 1
608.0174 -1020.23267 2967.0 1
633.55 -1011.63617 2942.0 1
664.2055 -1011.63617 2942.0 1
700.76575 -1020.23267 2967.0 1
409.29056 -1098.6223 3101.0 1
441.60312 -1098.6223 3101.0 1
473.91544 -1098.6223 3101.0 1
506.228 -1098.6223 3101.0 1
538.54034 -1098.6223 3101.0 1
565.69824 -1088.7024 3073.0 1
582.1585 -1060.3601 2993.0 1
608.0174 -1051.1488 2967.0 1
638.93365 -1051.1488 2967.0 1
669.8497 -1051.1488 2967.0 1
565.69824 -1120.723 3073.0 1
582.1585 -1091.5471 2993.0 1
613.34546 -1091.5471 2993.0 1
638.93365 -1082.0648 2967.0 1
675.7196 -1091.5471 2993.0 1
725.8015 -1120.723 3073.0 1
560.7279 -1142.6155 3046.0 1
582.1585 -1122.7341 2993.0 1
613.34546 -1122.7341 2993.0 1
644.53265 -1122.7341 2993.0 1
524.2997 -1163.9452 3019.0 1
550.9713 -1153.9211 2993.0 1
587.21564 -1163.9452 3019.0 1
613.34546 -1153.9211 2993.0 1
613.34546 -1185.1083 2993.0 1
