ply
format ascii 1.0
comment : created from Kinect user tracker
element vertex 1131
property float x
property float y
property float z
property int userId
end_header
123.44226 240.7124 1777.0 1
141.23958 239.49327 1768.0 1
160.47496 240.7124 1777.0 1
85.53428 219.94536 1759.0 1
103.86313 219.94536 1759.0 1
120.31626 216.56929 1732.0 1
137.64468 215.44392 1723.0 1
156.41116 216.56929 1732.0 1
175.3651 217.69464 1741.0 1
196.50735 221.07072 1768.0 1
84.22136 198.52182 1732.0 1
102.26887 198.52182 1732.0 1
118.51013 195.5417 1706.0 1
136.2866 195.5417 1706.0 1
153.34074 194.62474 1698.0 1
172.7462 196.57327 1715.0 1
192.50607 198.52182 1732.0 1
211.64757 199.5534 1741.0 1
228.60086 198.52182 1732.0 1
48.37654 181.4122 1741.0 1
65.83011 179.53659 1723.0 1
83.78372 179.53659 1723.0 1
101.265076 178.703 1715.0 1
117.39867 176.09799 1690.0 1
135.00842 176.09799 1690.0 1
152.61829 176.09799 1690.0 1
170.22804 176.09799 1690.0 1
189.61626 177.7652 1706.0 1
209.45937 179.53659 1723.0 1
229.78874 181.4122 1741.0 1
246.64836 180.4744 1732.0 1
48.37654 163.271 1741.0 1
65.52445 160.83272 1715.0 1
82.17904 158.48822 1690.0 1
100.261284 159.23845 1698.0 1
117.9544 159.23845 1698.0 1
135.6475 159.23845 1698.0 1
152.61829 158.48822 1690.0 1
170.22804 158.48822 1690.0 1
187.8379 158.48822 1690.0 1
206.4202 159.23845 1698.0 1
227.41298 161.58295 1723.0 1
247.93002 163.271 1741.0 1
47.87638 143.62927 1723.0 1
65.180595 142.21214 1706.0 1
82.95707 142.21214 1706.0 1
100.261284 141.54527 1698.0 1
117.9544 141.54527 1698.0 1
135.00842 140.87839 1690.0 1
152.61829 140.87839 1690.0 1
171.03386 141.54527 1698.0 1
187.8379 140.87839 1690.0 1
205.44766 140.87839 1690.0 1
224.11331 141.54527 1698.0 1
245.3667 143.62927 1723.0 1
264.69577 144.3795 1732.0 1
12.469314 130.9273 1795.0 1
30.391666 127.645004 1750.0 1
48.12646 126.332085 1732.0 1
65.83011 125.67563 1723.0 1
83.78372 125.67563 1723.0 1
100.73366 124.435646 1706.0 1
117.9544 123.85213 1698.0 1
135.00842 123.26861 1690.0 1
152.61829 123.26861 1690.0 1
171.03386 123.85213 1698.0 1
188.72708 123.85213 1698.0 1
207.39273 124.435646 1706.0 1
228.60086 126.332085 1732.0 1
255.61998 130.9273 1795.0 1
12.531835 112.78606 1804.0 1
30.235367 108.8473 1741.0 1
48.62662 109.40998 1750.0 1
66.173965 108.28462 1732.0 1
84.22136 108.28462 1732.0 1
101.73745 107.72194 1723.0 1
117.9544 106.15894 1698.0 1
135.00842 105.65878 1690.0 1
152.61829 105.65878 1690.0 1
170.22804 105.65878 1690.0 1
188.72708 106.15894 1698.0 1
207.39273 106.6591 1706.0 1
236.91602 112.22338 1795.0 1
258.3257 113.41126 1814.0 1
12.469314 93.5195 1795.0 1
30.704266 92.1128 1768.0 1
48.62662 91.174995 1750.0 1
66.173965 90.2372 1732.0 1
84.22136 90.2372 1732.0 1
101.265076 89.3515 1715.0 1
118.51013 88.8826 1706.0 1
135.6475 88.4658 1698.0 1
153.34074 88.4658 1698.0 1
171.03386 88.4658 1698.0 1
190.61658 89.3515 1715.0 1
210.55347 90.2372 1732.0 1
238.1039 93.988396 1804.0 1
31.016867 74.4405 1786.0 1
48.876698 73.31514 1759.0 1
67.20555 73.31514 1759.0 1
85.09664 72.94002 1750.0 1
102.26887 72.18977 1732.0 1
119.13533 71.48122 1715.0 1
137.00558 71.48122 1715.0 1
154.06319 71.106094 1706.0 1
171.03386 70.77266 1698.0 1
192.50607 72.18977 1732.0 1
212.74167 72.94002 1750.0 1
241.9315 76.39946 1833.0 1
31.503132 56.70563 1814.0 1
49.626938 55.83035 1786.0 1
68.23713 55.83035 1786.0 1
85.971924 55.26767 1768.0 1
102.80029 54.42365 1741.0 1
119.13533 53.61089 1715.0 1
137.64468 53.86097 1723.0 1
154.87595 53.61089 1715.0 1
171.03386 53.07947 1698.0 1
190.61658 53.61089 1715.0 1
212.74167 54.70499 1750.0 1
245.89111 58.23737 1863.0 1
50.68283 38.01217 1824.0 1
70.032845 38.19973 1833.0 1
86.40956 37.03269 1777.0 1
103.33171 36.47001 1750.0 1
120.31626 36.094887 1732.0 1
137.64468 35.90733 1723.0 1
155.5984 35.90733 1723.0 1
171.03386 35.38633 1698.0 1
192.50607 36.094887 1732.0 1
212.74167 36.47001 1750.0 1
245.89111 38.82493 1863.0 1
53.211414 19.95428 1915.0 1
71.56111 19.516642 1873.0 1
90.10519 19.30824 1853.0 1
103.86313 18.328762 1759.0 1
121.566666 18.234982 1750.0 1
138.36366 18.047422 1732.0 1
155.5984 17.953642 1723.0 1
173.55202 17.953642 1723.0 1
193.5064 18.141203 1741.0 1
234.01582 20.058481 1925.0 1
252.75441 19.95428 1915.0 1
-6.6514587 0.0 1915.0 1
13.372384 0.0 1925.0 1
33.430832 0.0 1925.0 1
52.90576 0.0 1904.0 1
72.36345 0.0 1894.0 1
90.59145 0.0 1863.0 1
105.988815 0.0 1795.0 1
122.81706 0.0 1768.0 1
139.80162 0.0 1750.0 1
157.22392 0.0 1741.0 1
175.3651 0.0 1741.0 1
194.50671 0.0 1750.0 1
234.01582 0.0 1925.0 1
254.07428 0.0 1925.0 1
274.13284 0.0 1925.0 1
294.1913 0.0 1925.0 1
-46.56002 -19.95428 1915.0 1
-26.74464 -20.058481 1925.0 1
-6.6132517 -19.83966 1904.0 1
13.3029175 -19.95428 1915.0 1
33.06613 -19.83966 1904.0 1
52.627895 -19.73546 1894.0 1
71.94318 -19.62084 1883.0 1
91.07772 -19.516642 1873.0 1
108.23259 -19.099842 1833.0 1
125.31786 -18.79766 1804.0 1
141.23958 -18.422543 1768.0 1
158.03668 -18.234982 1750.0 1
176.27164 -18.234982 1750.0 1
210.51183 -19.73546 1894.0 1
231.46294 -19.83966 1904.0 1
252.75441 -19.95428 1915.0 1
272.7088 -19.95428 1915.0 1
294.1913 -20.058481 1925.0 1
314.24988 -20.058481 1925.0 1
334.30832 -20.058481 1925.0 1
-66.514336 -39.90856 1915.0 1
-46.292572 -39.67932 1904.0 1
-26.313948 -39.47092 1894.0 1
-6.5785184 -39.47092 1894.0 1
13.226503 -39.67932 1904.0 1
32.892467 -39.47092 1894.0 1
52.322243 -39.24168 1883.0 1
71.94318 -39.24168 1883.0 1
91.07772 -39.033283 1873.0 1
109.41352 -38.61648 1853.0 1
127.3324 -38.199684 1833.0 1
146.4322 -38.199684 1833.0 1
166.43521 -38.40808 1843.0 1
188.66103 -39.033283 1873.0 1
209.28922 -39.24168 1883.0 1
228.91003 -39.24168 1883.0 1
249.9827 -39.47092 1894.0 1
272.7088 -39.90856 1915.0 1
292.66302 -39.90856 1915.0 1
312.6174 -39.90856 1915.0 1
332.57166 -39.90856 1915.0 1
354.3668 -40.116962 1925.0 1
-86.46864 -59.862938 1915.0 1
-66.13226 -59.519077 1904.0 1
-45.781994 -58.862617 1883.0 1
-26.161121 -58.862617 1883.0 1
-6.505578 -58.550014 1873.0 1
13.080623 -58.862617 1883.0 1
32.70143 -58.862617 1883.0 1
52.044376 -58.550014 1873.0 1
71.17905 -58.237415 1863.0 1
91.07772 -58.550014 1873.0 1
110.00399 -58.237415 1863.0 1
128.72173 -57.924816 1853.0 1
147.23108 -57.612217 1843.0 1
167.33827 -57.924816 1853.0 1
187.65375 -58.237415 1863.0 1
208.17775 -58.550014 1873.0 1
227.69437 -58.550014 1873.0 1
248.53084 -58.862617 1883.0 1
271.1423 -59.519077 1904.0 1
290.98193 -59.519077 1904.0 1
312.6174 -59.862938 1915.0 1
332.57166 -59.862938 1915.0 1
354.3668 -60.175537 1925.0 1
376.5649 -60.519398 1936.0 1
-86.92018 -80.23402 1925.0 1
-65.784935 -78.94194 1894.0 1
-45.781994 -78.48346 1883.0 1
-26.161121 -78.48346 1883.0 1
-6.505578 -78.06666 1873.0 1
13.011156 -78.06666 1873.0 1
32.527767 -78.06666 1873.0 1
52.044376 -78.06666 1873.0 1
71.17905 -77.64986 1863.0 1
90.10519 -77.233055 1853.0 1
109.41352 -77.233055 1853.0 1
128.72173 -77.233055 1853.0 1
147.23108 -76.81625 1843.0 1
166.43521 -76.81625 1843.0 1
187.65375 -77.64986 1863.0 1
207.06628 -77.64986 1863.0 1
227.69437 -78.06666 1873.0 1
248.53084 -78.48346 1883.0 1
269.71826 -78.94194 1894.0 1
289.45367 -78.94194 1894.0 1
310.8217 -79.358734 1904.0 1
332.57166 -79.817215 1915.0 1
354.3668 -80.23402 1925.0 1
376.5649 -80.6925 1936.0 1
-107.59 -100.8656 1936.0 1
-86.92018 -100.292496 1925.0 1
-66.13226 -99.198395 1904.0 1
-45.781994 -98.1043 1883.0 1
-26.022188 -97.5833 1873.0 1
-6.505578 -97.5833 1873.0 1
13.011156 -97.5833 1873.0 1
32.527767 -97.5833 1873.0 1
51.76651 -97.0623 1863.0 1
70.41491 -96.0203 1843.0 1
89.61892 -96.0203 1843.0 1
108.23259 -95.4993 1833.0 1
128.02707 -96.0203 1843.0 1
147.23108 -96.0203 1843.0 1
167.33827 -96.5413 1853.0 1
186.64648 -96.5413 1853.0 1
205.95482 -96.5413 1853.0 1
227.69437 -97.5833 1873.0 1
248.53084 -98.1043 1883.0 1
268.15176 -98.1043 1883.0 1
287.77258 -98.1043 1883.0 1
309.18924 -98.6774 1894.0 1
332.57166 -99.7715 1915.0 1
352.5259 -99.7715 1915.0 1
376.5649 -100.8656 1936.0 1
-107.59 -121.0387 1936.0 1
-86.46864 -119.72578 1915.0 1
-66.13226 -119.038055 1904.0 1
-46.04944 -118.41286 1894.0 1
-26.022188 -117.09994 1873.0 1
-6.505578 -117.09994 1873.0 1
13.011156 -117.09994 1873.0 1
32.3541 -116.47474 1863.0 1
51.210777 -115.22434 1843.0 1
70.796974 -115.84954 1853.0 1
89.61892 -115.22434 1843.0 1
108.82305 -115.22434 1843.0 1
127.3324 -114.59914 1833.0 1
146.4322 -114.59914 1833.0 1
165.53214 -114.59914 1833.0 1
185.63922 -115.22434 1843.0 1
205.95482 -115.84954 1853.0 1
225.26303 -115.84954 1853.0 1
248.53084 -117.725136 1883.0 1
266.7277 -117.09994 1873.0 1
287.77258 -117.725136 1883.0 1
307.39352 -117.725136 1883.0 1
332.57166 -119.72578 1915.0 1
354.3668 -120.350975 1925.0 1
378.7045 -121.72642 1947.0 1
-108.2013 -142.01414 1947.0 1
-86.92018 -140.40945 1925.0 1
-66.13226 -138.87772 1904.0 1
-46.04944 -138.14832 1894.0 1
-26.022188 -136.61658 1873.0 1
-6.4708447 -135.88718 1863.0 1
13.011156 -136.61658 1873.0 1
32.3541 -135.88718 1863.0 1
51.210777 -134.42838 1843.0 1
70.796974 -135.15778 1853.0 1
89.61892 -134.42838 1843.0 1
108.82305 -134.42838 1843.0 1
128.02707 -134.42838 1843.0 1
147.23108 -134.42838 1843.0 1
165.53214 -133.69897 1833.0 1
185.63922 -134.42838 1843.0 1
204.84335 -134.42838 1843.0 1
225.26303 -135.15778 1853.0 1
247.21097 -136.61658 1873.0 1
266.7277 -136.61658 1873.0 1
287.77258 -137.34598 1883.0 1
307.39352 -137.34598 1883.0 1
330.66132 -138.87772 1904.0 1
354.3668 -140.40945 1925.0 1
380.8441 -142.81648 1958.0 1
401.24637 -142.81648 1958.0 1
-108.2013 -162.30196 1947.0 1
-86.92018 -160.46803 1925.0 1
-66.514336 -159.63443 1915.0 1
-46.04944 -157.88388 1894.0 1
-26.022188 -156.13332 1873.0 1
-6.4708447 -155.29971 1863.0 1
13.011156 -156.13332 1873.0 1
32.3541 -155.29971 1863.0 1
51.210777 -153.6325 1843.0 1
70.41491 -153.6325 1843.0 1
89.61892 -153.6325 1843.0 1
108.23259 -152.79892 1833.0 1
128.02707 -153.6325 1843.0 1
147.23108 -153.6325 1843.0 1
165.53214 -152.79892 1833.0 1
185.63922 -153.6325 1843.0 1
204.84335 -153.6325 1843.0 1
226.4787 -155.29971 1863.0 1
245.89111 -155.29971 1863.0 1
266.7277 -156.13332 1873.0 1
286.24432 -156.13332 1873.0 1
307.39352 -156.96692 1883.0 1
332.57166 -159.63443 1915.0 1
354.3668 -160.46803 1925.0 1
380.8441 -163.21892 1958.0 1
403.50058 -164.13588 1969.0 1
-129.94084 -184.65283 1969.0 1
-108.2013 -182.58968 1947.0 1
-87.41686 -181.55809 1936.0 1
-66.861664 -180.52652 1925.0 1
-46.292572 -178.55713 1904.0 1
-26.022188 -175.64995 1873.0 1
-6.4708447 -174.71216 1863.0 1
12.9416895 -174.71216 1863.0 1
32.18043 -173.77435 1853.0 1
51.210777 -172.83655 1843.0 1
70.41491 -172.83655 1843.0 1
89.61892 -172.83655 1843.0 1
108.82305 -172.83655 1843.0 1
128.02707 -172.83655 1843.0 1
147.23108 -172.83655 1843.0 1
166.43521 -172.83655 1843.0 1
185.63922 -172.83655 1843.0 1
205.95482 -173.77435 1853.0 1
226.4787 -174.71216 1863.0 1
247.21097 -175.64995 1873.0 1
266.7277 -175.64995 1873.0 1
287.77258 -176.58775 1883.0 1
309.18924 -177.61934 1894.0 1
336.21866 -181.55809 1936.0 1
358.4167 -182.58968 1947.0 1
380.8441 -183.62126 1958.0 1
401.24637 -183.62126 1958.0 1
-129.21492 -204.02359 1958.0 1
-108.2013 -202.8774 1947.0 1
-87.91355 -202.8774 1947.0 1
-67.24373 -201.7312 1936.0 1
-46.56002 -199.543 1915.0 1
-26.313948 -197.3548 1894.0 1
-6.4708447 -194.1246 1863.0 1
12.9416895 -194.1246 1863.0 1
32.18043 -193.0826 1853.0 1
51.488644 -193.0826 1853.0 1
70.41491 -192.0406 1843.0 1
89.61892 -192.0406 1843.0 1
108.82305 -192.0406 1843.0 1
127.3324 -190.9986 1833.0 1
146.4322 -190.9986 1833.0 1
166.43521 -192.0406 1843.0 1
186.64648 -193.0826 1853.0 1
204.84335 -192.0406 1843.0 1
225.26303 -193.0826 1853.0 1
247.21097 -195.1666 1873.0 1
266.7277 -195.1666 1873.0 1
287.77258 -196.2086 1883.0 1
312.6174 -199.543 1915.0 1
336.21866 -201.7312 1936.0 1
358.4167 -202.8774 1947.0 1
380.8441 -204.02359 1958.0 1
401.24637 -204.02359 1958.0 1
-129.94084 -225.68675 1969.0 1
-108.81261 -224.42593 1958.0 1
-87.91355 -223.16512 1947.0 1
-67.6258 -223.16512 1947.0 1
-47.60549 -224.42593 1958.0 1
-26.605707 -219.49728 1915.0 1
-6.505578 -214.68324 1873.0 1
12.9416895 -213.53703 1863.0 1
32.006767 -211.24464 1843.0 1
51.210777 -211.24464 1843.0 1
70.41491 -211.24464 1843.0 1
89.61892 -211.24464 1843.0 1
108.82305 -211.24464 1843.0 1
128.02707 -211.24464 1843.0 1
147.23108 -211.24464 1843.0 1
166.43521 -211.24464 1843.0 1
186.64648 -212.39084 1853.0 1
204.84335 -211.24464 1843.0 1
226.4787 -213.53703 1863.0 1
245.89111 -213.53703 1863.0 1
266.7277 -214.68324 1873.0 1
287.77258 -215.82944 1883.0 1
316.0456 -221.9043 1936.0 1
340.03934 -224.42593 1958.0 1
358.4167 -223.16512 1947.0 1
380.8441 -224.42593 1958.0 1
403.50058 -225.68675 1969.0 1
-132.97653 -251.95555 2015.0 1
-110.035225 -247.57916 1980.0 1
-88.90692 -246.20372 1969.0 1
-68.38993 -246.20372 1969.0 1
-48.140385 -247.57916 1980.0 1
-26.74464 -240.70195 1925.0 1
-6.5403113 -235.45027 1883.0 1
13.011156 -234.19987 1873.0 1
32.18043 -231.69908 1853.0 1
51.210777 -230.44868 1843.0 1
70.41491 -230.44868 1843.0 1
89.61892 -230.44868 1843.0 1
108.82305 -230.44868 1843.0 1
128.02707 -230.44868 1843.0 1
148.02994 -231.69908 1853.0 1
167.33827 -231.69908 1853.0 1
185.63922 -230.44868 1843.0 1
205.95482 -231.69908 1853.0 1
225.26303 -231.69908 1853.0 1
245.89111 -232.94948 1863.0 1
266.7277 -234.19987 1873.0 1
289.45367 -236.82571 1894.0 1
319.63702 -244.82828 1958.0 1
340.03934 -244.82828 1958.0 1
358.4167 -243.45284 1947.0 1
382.98364 -246.20372 1969.0 1
408.2139 -249.07964 1992.0 1
-133.76846 -274.57745 2027.0 1
-110.7021 -269.83636 1992.0 1
-89.94545 -269.83636 1992.0 1
-69.1888 -269.83636 1992.0 1
-48.699593 -271.32642 2003.0 1
-27.050293 -263.74066 1947.0 1
-6.6132517 -257.91586 1904.0 1
13.080623 -255.07121 1883.0 1
32.3541 -252.36201 1863.0 1
51.488644 -251.00742 1853.0 1
70.41491 -249.65282 1843.0 1
89.61892 -249.65282 1843.0 1
108.82305 -249.65282 1843.0 1
128.02707 -249.65282 1843.0 1
148.02994 -251.00742 1853.0 1
167.33827 -251.00742 1853.0 1
187.65375 -252.36201 1863.0 1
207.06628 -252.36201 1863.0 1
226.4787 -252.36201 1863.0 1
247.21097 -253.71661 1873.0 1
266.7277 -253.71661 1873.0 1
297.5535 -263.74066 1947.0 1
321.43274 -266.72076 1969.0 1
340.03934 -265.2307 1958.0 1
360.44162 -265.2307 1958.0 1
382.98364 -266.72076 1969.0 1
403.50058 -266.72076 1969.0 1
-156.72372 -299.1999 2051.0 1
-133.76846 -295.69876 2027.0 1
-111.31341 -292.19766 2003.0 1
-90.44214 -292.19766 2003.0 1
-69.98766 -293.9482 2015.0 1
-48.699593 -292.19766 2003.0 1
-27.355947 -287.23773 1969.0 1
-6.6514587 -279.3602 1915.0 1
13.226503 -277.75552 1904.0 1
32.70143 -274.69205 1883.0 1
52.044376 -273.23325 1873.0 1
70.796974 -270.31564 1853.0 1
90.10519 -270.31564 1853.0 1
109.41352 -270.31564 1853.0 1
128.02707 -268.85684 1843.0 1
148.02994 -270.31564 1853.0 1
168.24135 -271.77444 1863.0 1
188.66103 -273.23325 1873.0 1
208.17775 -273.23325 1873.0 1
228.91003 -274.69205 1883.0 1
248.53084 -274.69205 1883.0 1
269.71826 -276.29672 1894.0 1
297.5535 -284.02838 1947.0 1
325.1874 -290.593 1992.0 1
341.94965 -287.23773 1969.0 1
360.44162 -285.63306 1958.0 1
380.8441 -285.63306 1958.0 1
401.24637 -285.63306 1958.0 1
-156.72372 -320.5713 2051.0 1
-134.56038 -318.6957 2039.0 1
-111.98029 -314.9445 2015.0 1
-92.06766 -318.6957 2039.0 1
-70.821266 -318.6957 2039.0 1
-27.508774 -309.474 1980.0 1
-6.724399 -302.5968 1936.0 1
13.3029175 -299.31448 1915.0 1
32.892467 -296.0322 1894.0 1
52.044376 -292.7499 1873.0 1
71.56111 -292.7499 1873.0 1
90.59145 -291.1869 1863.0 1
110.00399 -291.1869 1863.0 1
130.11107 -292.7499 1873.0 1
148.02994 -289.6239 1853.0 1
169.14441 -292.7499 1873.0 1
188.66103 -292.7499 1873.0 1
209.28922 -294.3129 1883.0 1
230.24727 -296.0322 1894.0 1
254.07428 -300.8775 1925.0 1
274.13284 -300.8775 1925.0 1
341.94965 -307.7547 1969.0 1
360.44162 -306.0354 1958.0 1
382.98364 -307.7547 1969.0 1
403.50058 -307.7547 1969.0 1
-155.80676 -339.94205 2039.0 1
-134.56038 -339.94205 2039.0 1
-113.31405 -339.94205 2039.0 1
-92.06766 -339.94205 2039.0 1
-48.699593 -333.94012 2003.0 1
-27.355947 -328.27167 1969.0 1
-6.724399 -322.7699 1936.0 1
13.372384 -320.93597 1925.0 1
33.257168 -319.26877 1915.0 1
52.322243 -313.93375 1883.0 1
71.56111 -312.26654 1873.0 1
91.07772 -312.26654 1873.0 1
110.59445 -312.26654 1873.0 1
130.11107 -312.26654 1873.0 1
149.62767 -312.26654 1873.0 1
169.14441 -312.26654 1873.0 1
189.66829 -313.93375 1883.0 1
209.28922 -313.93375 1883.0 1
232.80016 -319.26877 1915.0 1
255.52612 -322.7699 1936.0 1
278.83228 -326.43774 1958.0 1
345.944 -332.1062 1992.0 1
362.46658 -328.27167 1969.0 1
382.98364 -328.27167 1969.0 1
403.50058 -328.27167 1969.0 1
-178.09517 -363.3141 2051.0 1
-155.80676 -361.18842 2039.0 1
-134.56038 -361.18842 2039.0 1
-113.31405 -361.18842 2039.0 1
-92.6095 -363.3141 2051.0 1
-48.991352 -356.93704 2015.0 1
-27.508774 -350.73715 1980.0 1
-6.7626057 -344.89154 1947.0 1
13.525211 -344.89154 1947.0 1
33.430832 -340.99445 1925.0 1
52.627895 -335.5031 1894.0 1
71.94318 -333.55457 1883.0 1
91.07772 -331.78317 1873.0 1
110.59445 -331.78317 1873.0 1
130.11107 -331.78317 1873.0 1
149.62767 -331.78317 1873.0 1
169.14441 -331.78317 1873.0 1
189.66829 -333.55457 1883.0 1
210.51183 -335.5031 1894.0 1
232.80016 -339.22305 1915.0 1
258.42984 -346.8401 1958.0 1
281.9652 -350.73715 1980.0 1
347.85434 -354.81137 2003.0 1
364.49155 -350.73715 1980.0 1
382.98364 -348.7886 1969.0 1
403.50058 -348.7886 1969.0 1
421.6488 -346.8401 1958.0 1
-177.05316 -382.43488 2039.0 1
-155.80676 -382.43488 2039.0 1
-134.56038 -382.43488 2039.0 1
-113.31405 -382.43488 2039.0 1
-92.6095 -384.6856 2051.0 1
-48.991352 -377.93344 2015.0 1
-27.355947 -369.30566 1969.0 1
-6.7626057 -365.17935 1947.0 1
13.525211 -365.17935 1947.0 1
33.430832 -361.05304 1925.0 1
53.211414 -359.17743 1915.0 1
72.36345 -355.23868 1894.0 1
91.07772 -351.2999 1873.0 1
110.59445 -351.2999 1873.0 1
130.11107 -351.2999 1873.0 1
149.62767 -351.2999 1873.0 1
170.04747 -353.1755 1883.0 1
189.66829 -353.1755 1883.0 1
211.6233 -357.11426 1904.0 1
232.80016 -359.17743 1915.0 1
259.88168 -369.30566 1969.0 1
285.24057 -375.6827 2003.0 1
347.85434 -375.6827 2003.0 1
364.49155 -371.36884 1980.0 1
382.98364 -369.30566 1969.0 1
401.24637 -367.24252 1958.0 1
421.6488 -367.24252 1958.0 1
-176.01117 -401.30548 2027.0 1
-154.88982 -401.30548 2027.0 1
-133.76846 -401.30548 2027.0 1
-113.31405 -403.68124 2039.0 1
-70.821266 -403.68124 2039.0 1
-48.699593 -396.55396 2003.0 1
-27.508774 -392.00043 1980.0 1
-6.8008127 -387.64487 1958.0 1
13.448798 -383.2893 1936.0 1
33.430832 -381.1115 1925.0 1
53.211414 -379.1317 1915.0 1
72.36345 -374.97412 1894.0 1
91.56399 -372.79636 1883.0 1
111.18492 -372.79636 1883.0 1
130.80573 -372.79636 1883.0 1
150.42654 -372.79636 1883.0 1
170.04747 -372.79636 1883.0 1
190.77628 -374.97412 1894.0 1
212.84592 -379.1317 1915.0 1
234.01582 -381.1115 1925.0 1
261.33356 -392.00043 1980.0 1
286.94946 -398.92972 2015.0 1
341.94965 -389.82263 1969.0 1
364.49155 -392.00043 1980.0 1
382.98364 -389.82263 1969.0 1
401.24637 -387.64487 1958.0 1
421.6488 -387.64487 1958.0 1
-177.05316 -424.92758 2039.0 1
-154.88982 -422.4268 2027.0 1
-134.56038 -424.92758 2039.0 1
-113.980934 -427.4284 2051.0 1
-71.23807 -427.4284 2051.0 1
-48.991352 -419.926 2015.0 1
-27.508774 -412.632 1980.0 1
-6.8008127 -408.04718 1958.0 1
13.525211 -405.7548 1947.0 1
33.430832 -401.16998 1925.0 1
53.211414 -399.086 1915.0 1
72.36345 -394.7096 1894.0 1
92.09888 -394.7096 1894.0 1
111.18492 -392.4172 1883.0 1
130.80573 -392.4172 1883.0 1
151.3053 -394.7096 1894.0 1
170.04747 -392.4172 1883.0 1
192.89154 -399.086 1915.0 1
213.95738 -401.16998 1925.0 1
238.02753 -408.04718 1958.0 1
262.9174 -415.13278 1992.0 1
290.36722 -424.92758 2039.0 1
362.46658 -410.3396 1969.0 1
380.8441 -408.04718 1958.0 1
398.9922 -405.7548 1947.0 1
421.6488 -408.04718 1958.0 1
-200.63364 -451.42563 2063.0 1
-177.05316 -446.17395 2039.0 1
-154.88982 -443.54813 2027.0 1
-134.56038 -446.17395 2039.0 1
-113.31405 -446.17395 2039.0 1
-71.23807 -448.7998 2051.0 1
-48.991352 -440.92227 2015.0 1
-27.355947 -430.85657 1969.0 1
-6.8008127 -428.44952 1958.0 1
13.601625 -428.44952 1958.0 1
33.621864 -423.6355 1936.0 1
53.211414 -419.04028 1915.0 1
72.745514 -416.63324 1904.0 1
92.09888 -414.44507 1894.0 1
111.18492 -412.03802 1883.0 1
130.80573 -412.03802 1883.0 1
151.3053 -414.44507 1894.0 1
171.04085 -414.44507 1894.0 1
191.78354 -416.63324 1904.0 1
213.95738 -421.2285 1925.0 1
238.02753 -428.44952 1958.0 1
265.95306 -440.92227 2015.0 1
362.46658 -430.85657 1969.0 1
376.5649 -423.6355 1936.0 1
394.4838 -421.2285 1925.0 1
414.5424 -421.2285 1925.0 1
-199.4666 -470.1712 2051.0 1
-176.01117 -464.66943 2027.0 1
-155.80676 -467.42032 2039.0 1
-135.3523 -470.1712 2051.0 1
-70.821266 -467.42032 2039.0 1
-48.991352 -461.91855 2015.0 1
-27.508774 -453.89514 1980.0 1
-6.8008127 -448.85187 1958.0 1
13.601625 -448.85187 1958.0 1
33.621864 -443.8086 1936.0 1
53.211414 -438.99457 1915.0 1
73.165794 -438.99457 1915.0 1
92.585144 -436.4729 1904.0 1
111.834435 -434.1805 1894.0 1
133.02867 -438.99457 1915.0 1
152.98291 -438.99457 1915.0 1
172.93729 -438.99457 1915.0 1
193.8988 -441.28696 1925.0 1
215.18 -443.8086 1936.0 1
239.36476 -451.3735 1969.0 1
264.36923 -459.16766 2003.0 1
293.78497 -472.92206 2063.0 1
360.44162 -448.85187 1958.0 1
378.7045 -446.33023 1947.0 1
394.4838 -441.28696 1925.0 1
414.5424 -441.28696 1925.0 1
-198.29956 -488.66678 2039.0 1
-176.01117 -485.79086 2027.0 1
-155.80676 -488.66678 2039.0 1
-134.56038 -488.66678 2039.0 1
-70.821266 -488.66678 2039.0 1
-48.699593 -480.039 2003.0 1
-27.675493 -477.40274 1992.0 1
-6.8390193 -471.89056 1969.0 1
13.678039 -471.89056 1969.0 1
34.003933 -469.2543 1958.0 1
53.48928 -461.34552 1925.0 1
73.54786 -461.34552 1925.0 1
93.12004 -458.94894 1915.0 1
113.07442 -458.94894 1915.0 1
133.72333 -461.34552 1925.0 1
152.98291 -458.94894 1915.0 1
173.84036 -461.34552 1925.0 1
193.8988 -461.34552 1925.0 1
216.4026 -466.61804 1947.0 1
240.702 -474.52682 1980.0 1
264.36923 -480.039 2003.0 1
297.34515 -500.41013 2088.0 1
360.44162 -469.2543 1958.0 1
374.42535 -461.34552 1925.0 1
394.4838 -461.34552 1925.0 1
412.38892 -458.94894 1915.0 1
-198.29956 -509.91312 2039.0 1
-176.01117 -506.91217 2027.0 1
-154.88982 -506.91217 2027.0 1
-132.97653 -503.91122 2015.0 1
-71.23807 -512.91406 2051.0 1
-48.699593 -500.91025 2003.0 1
-27.675493 -498.15936 1992.0 1
-6.877226 -495.15842 1980.0 1
13.754452 -495.15842 1980.0 1
34.003933 -489.65665 1958.0 1
53.794933 -484.15488 1936.0 1
73.96813 -484.15488 1936.0 1
93.60631 -481.40402 1925.0 1
113.07442 -478.9032 1915.0 1
133.72333 -481.40402 1925.0 1
153.78178 -481.40402 1925.0 1
174.83372 -484.15488 1936.0 1
196.11479 -486.90576 1947.0 1
218.84784 -492.40753 1969.0 1
243.49803 -500.91025 2003.0 1
267.53693 -506.91217 2027.0 1
356.39172 -484.15488 1936.0 1
374.42535 -481.40402 1925.0 1
392.43454 -478.9032 1915.0 1
410.0201 -476.15234 1904.0 1
-197.13252 -528.0335 2027.0 1
-174.96916 -524.9075 2015.0 1
-154.88982 -528.0335 2027.0 1
-70.821266 -531.1595 2039.0 1
-48.699593 -521.7815 2003.0 1
-27.675493 -518.916 1992.0 1
-6.918906 -518.916 1992.0 1
13.754452 -515.79 1980.0 1
34.194965 -512.9245 1969.0 1
54.40624 -510.059 1958.0 1
74.388405 -507.19348 1947.0 1
94.1412 -504.328 1936.0 1
113.66488 -501.4625 1925.0 1
134.48746 -504.328 1936.0 1
154.66054 -504.328 1936.0 1
176.82048 -510.059 1958.0 1
198.33078 -512.9245 1969.0 1
221.4042 -518.916 1992.0 1
244.95683 -524.9075 2015.0 1
270.7046 -534.28546 2051.0 1
374.42535 -501.4625 1925.0 1
392.43454 -498.85748 1915.0 1
410.0201 -495.992 1904.0 1
427.60205 -493.387 1894.0 1
-195.96547 -545.90375 2015.0 1
-174.96916 -545.90375 2015.0 1
-93.15134 -558.90796 2063.0 1
-70.821266 -552.4058 2039.0 1
-48.699593 -542.6527 2003.0 1
-27.675493 -539.6726 1992.0 1
-6.918906 -539.6726 1992.0 1
13.914227 -542.6527 2003.0 1
34.385998 -536.4216 1980.0 1
54.711895 -533.44147 1969.0 1
74.80868 -530.4613 1958.0 1
95.21098 -530.4613 1958.0 1
115.61343 -530.4613 1958.0 1
136.01573 -530.4613 1958.0 1
157.2968 -533.44147 1969.0 1
177.81384 -533.44147 1969.0 1
200.64749 -539.6726 1992.0 1
222.62682 -542.6527 2003.0 1
244.95683 -545.90375 2015.0 1
272.28842 -558.90796 2063.0 1
372.4803 -518.81177 1915.0 1
388.13107 -513.12244 1894.0 1
407.86664 -513.12244 1894.0 1
-220.83803 -577.02826 2051.0 1
-195.96547 -566.9 2015.0 1
-173.92717 -563.524 2003.0 1
-92.6095 -577.02826 2051.0 1
-70.821266 -573.6522 2039.0 1
-48.699593 -563.524 2003.0 1
-27.675493 -560.42926 1992.0 1
-6.918906 -560.42926 1992.0 1
13.837812 -560.42926 1992.0 1
34.385998 -557.05316 1980.0 1
55.017548 -557.05316 1980.0 1
75.22895 -553.95844 1969.0 1
95.74588 -553.95844 1969.0 1
116.26294 -553.95844 1969.0 1
136.77986 -553.95844 1969.0 1
158.17554 -557.05316 1980.0 1
179.8909 -560.42926 1992.0 1
201.75548 -563.524 2003.0 1
225.29434 -570.2761 2027.0 1
247.87444 -573.6522 2039.0 1
272.28842 -580.40436 2063.0 1
368.39563 -532.8579 1894.0 1
385.8769 -529.7632 1883.0 1
405.4978 -529.7632 1883.0 1
425.11862 -529.7632 1883.0 1
-218.25388 -591.3975 2027.0 1
-194.79843 -584.3953 2003.0 1
-173.92717 -584.3953 2003.0 1
-92.6095 -598.3998 2051.0 1
-69.98766 -587.8964 2015.0 1
-48.432144 -581.186 1992.0 1
-27.508774 -577.6848 1980.0 1
-6.8390193 -574.47546 1969.0 1
13.678039 -574.47546 1969.0 1
34.5944 -581.186 1992.0 1
55.350986 -581.186 1992.0 1
76.107704 -581.186 1992.0 1
96.28077 -577.6848 1980.0 1
116.26294 -574.47546 1969.0 1
136.77986 -574.47546 1969.0 1
159.13419 -581.186 1992.0 1
180.88428 -584.3953 2003.0 1
202.9642 -587.8964 2015.0 1
225.29434 -591.3975 2027.0 1
249.33322 -598.3998 2051.0 1
274.00427 -605.6938 2076.0 1
292.07608 -598.3998 2051.0 1
368.39563 -552.59344 1894.0 1
383.8276 -546.4665 1873.0 1
401.1909 -543.5489 1863.0 1
422.86096 -546.4665 1873.0 1
-218.25388 -612.51886 2027.0 1
-194.79843 -605.26654 2003.0 1
-173.92717 -605.26654 2003.0 1
-92.06766 -616.145 2039.0 1
-69.57086 -605.26654 2003.0 1
-48.432144 -601.94257 1992.0 1
-27.508774 -598.3164 1980.0 1
-6.8390193 -594.99243 1969.0 1
13.678039 -594.99243 1969.0 1
34.194965 -594.99243 1969.0 1
55.017548 -598.3164 1980.0 1
75.64922 -598.3164 1980.0 1
96.28077 -598.3164 1980.0 1
116.91245 -598.3164 1980.0 1
137.54399 -598.3164 1980.0 1
160.01294 -605.26654 2003.0 1
180.88428 -605.26654 2003.0 1
201.75548 -605.26654 2003.0 1
223.96059 -608.8927 2015.0 1
249.33322 -619.7712 2051.0 1
270.7046 -619.7712 2051.0 1
366.25607 -569.00494 1883.0 1
383.8276 -565.98315 1873.0 1
399.0374 -559.9396 1853.0 1
422.86096 -565.98315 1873.0 1
-218.25388 -633.6402 2027.0 1
-194.79843 -626.1378 2003.0 1
-173.92717 -626.1378 2003.0 1
-153.0559 -626.1378 2003.0 1
-92.06766 -637.3914 2039.0 1
-69.57086 -626.1378 2003.0 1
-48.432144 -622.6992 1992.0 1
-27.355947 -615.5094 1969.0 1
-6.8390193 -615.5094 1969.0 1
13.754452 -618.948 1980.0 1
34.194965 -615.5094 1969.0 1
55.017548 -618.948 1980.0 1
76.107704 -622.6992 1992.0 1
96.86429 -622.6992 1992.0 1
117.62101 -622.6992 1992.0 1
138.3776 -622.6992 1992.0 1
160.01294 -626.1378 2003.0 1
180.88428 -626.1378 2003.0 1
202.9642 -629.889 2015.0 1
225.29434 -633.6402 2027.0 1
249.33322 -641.1426 2051.0 1
272.28842 -644.8938 2063.0 1
364.311 -585.4998 1873.0 1
381.77835 -582.3738 1863.0 1
399.0374 -579.2478 1853.0 1
418.3456 -579.2478 1853.0 1
-216.96179 -650.88525 2015.0 1
-193.72865 -643.4558 1992.0 1
-173.92717 -647.00903 2003.0 1
-153.97285 -650.88525 2015.0 1
-91.52582 -654.76154 2027.0 1
-69.57086 -647.00903 2003.0 1
-48.432144 -643.4558 1992.0 1
-27.508774 -639.5796 1980.0 1
-6.8008127 -632.47314 1958.0 1
13.754452 -639.5796 1980.0 1
34.385998 -639.5796 1980.0 1
55.350986 -643.4558 1992.0 1
76.52798 -647.00903 2003.0 1
97.399185 -647.00903 2003.0 1
117.62101 -643.4558 1992.0 1
139.14172 -647.00903 2003.0 1
160.01294 -647.00903 2003.0 1
181.96796 -650.88525 2015.0 1
204.17293 -654.76154 2027.0 1
226.6281 -658.63776 2039.0 1
249.33322 -662.514 2051.0 1
275.5881 -674.4657 2088.0 1
362.36594 -601.78625 1863.0 1
377.6798 -595.3258 1843.0 1
394.73047 -592.09564 1833.0 1
416.08795 -595.3258 1843.0 1
-215.66971 -667.88025 2003.0 1
-192.56161 -660.2111 1980.0 1
-172.972 -664.2124 1992.0 1
-153.0559 -667.88025 2003.0 1
-92.06766 -679.8841 2039.0 1
-69.57086 -667.88025 2003.0 1
-48.140385 -660.2111 1980.0 1
-27.508774 -660.2111 1980.0 1
-6.8008127 -652.8755 1958.0 1
13.754452 -660.2111 1980.0 1
34.385998 -660.2111 1980.0 1
55.65664 -667.88025 2003.0 1
76.52798 -667.88025 2003.0 1
97.399185 -667.88025 2003.0 1
118.27052 -667.88025 2003.0 1
139.97533 -671.88153 2015.0 1
162.88885 -679.8841 2039.0 1
183.05164 -675.8828 2027.0 1
205.38164 -679.8841 2039.0 1
227.96187 -683.8854 2051.0 1
250.79202 -687.88666 2063.0 1
358.4758 -614.52985 1843.0 1
375.63055 -611.1955 1833.0 1
394.73047 -611.1955 1833.0 1
413.8303 -611.1955 1833.0 1
-215.66971 -688.7516 2003.0 1
-193.72865 -684.9692 1992.0 1
-173.92717 -688.7516 2003.0 1
-153.0559 -688.7516 2003.0 1
-92.06766 -701.13055 2039.0 1
-69.57086 -688.7516 2003.0 1
-48.432144 -684.9692 1992.0 1
-27.508774 -680.84283 1980.0 1
-6.8390193 -677.06036 1969.0 1
13.837812 -684.9692 1992.0 1
34.5944 -684.9692 1992.0 1
55.990078 -692.8779 2015.0 1
77.44494 -697.0043 2027.0 1
99.14974 -701.13055 2039.0 1
120.3962 -701.13055 2039.0 1
143.30974 -709.3832 2063.0 1
163.84749 -705.2569 2051.0 1
184.13531 -701.13055 2039.0 1
206.59036 -705.2569 2051.0 1
229.29562 -709.3832 2063.0 1
252.37239 -713.8534 2076.0 1
354.78018 -627.2007 1824.0 1
369.68768 -620.3235 1804.0 1
390.6389 -623.7621 1814.0 1
411.7984 -627.2007 1824.0 1
437.65384 -637.1726 1853.0 1
-215.66971 -709.62286 2003.0 1
-193.72865 -705.72577 1992.0 1
-176.01117 -718.12555 2027.0 1
-153.97285 -713.8742 2015.0 1
-91.52582 -718.12555 2027.0 1
-69.57086 -709.62286 2003.0 1
-48.432144 -705.72577 1992.0 1
-27.355947 -697.57733 1969.0 1
-6.8390193 -697.57733 1969.0 1
13.754452 -701.4744 1980.0 1
34.78543 -709.62286 2003.0 1
55.990078 -713.8742 2015.0 1
78.82038 -730.87964 2063.0 1
102.1646 -744.3423 2101.0 1
124.0571 -744.3423 2101.0 1
144.2128 -735.4853 2076.0 1
164.80614 -730.87964 2063.0 1
186.30267 -730.87964 2063.0 1
206.59036 -726.6283 2051.0 1
229.29562 -730.87964 2063.0 1
253.83119 -739.73663 2088.0 1
337.43082 -649.39526 1833.0 1
350.89005 -639.12115 1804.0 1
369.68768 -639.12115 1804.0 1
388.4854 -639.12115 1804.0 1
407.28305 -639.12115 1804.0 1
430.8044 -646.2067 1824.0 1
-194.79843 -730.4941 2003.0 1
-172.972 -726.48236 1992.0 1
-153.0559 -730.4941 2003.0 1
-92.06766 -743.6233 2039.0 1
-69.57086 -730.4941 2003.0 1
-48.432144 -726.48236 1992.0 1
-27.355947 -718.0943 1969.0 1
-6.8390193 -718.0943 1969.0 1
13.754452 -722.10596 1980.0 1
34.78543 -730.4941 2003.0 1
56.323517 -739.2469 2027.0 1
78.82038 -752.3761 2063.0 1
104.061035 -780.458 2140.0 1
124.82471 -770.97577 2114.0 1
145.0464 -761.4936 2088.0 1
165.84467 -757.1172 2076.0 1
186.30267 -752.3761 2063.0 1
207.79909 -752.3761 2063.0 1
232.0743 -761.4936 2088.0 1
256.99194 -770.97577 2114.0 1
341.11255 -675.78906 1853.0 1
352.8351 -661.5658 1814.0 1
369.68768 -657.91876 1804.0 1
388.4854 -657.91876 1804.0 1
407.28305 -657.91876 1804.0 1
428.44257 -661.5658 1814.0 1
-91.52582 -760.3682 2027.0 1
-69.57086 -751.36536 2003.0 1
-48.432144 -747.239 1992.0 1
-27.508774 -742.73755 1980.0 1
-6.8390193 -738.61127 1969.0 1
13.914227 -751.36536 2003.0 1
34.99383 -755.86676 2015.0 1
56.323517 -760.3682 2027.0 1
77.44494 -760.3682 2027.0 1
104.693184 -807.6333 2153.0 1
124.82471 -793.00366 2114.0 1
146.85252 -793.00366 2114.0 1
167.84183 -788.1271 2101.0 1
187.47667 -778.7491 2076.0 1
210.31725 -783.25055 2088.0 1
234.96411 -793.00366 2114.0 1
339.27167 -691.3461 1843.0 1
350.89005 -676.71643 1804.0 1
369.68768 -676.71643 1804.0 1
386.5473 -673.3404 1795.0 1
407.28305 -676.71643 1804.0 1
-91.52582 -781.4895 2027.0 1
-69.57086 -772.2366 2003.0 1
-48.140385 -763.36914 1980.0 1
-27.508774 -763.36914 1980.0 1
-6.877226 -763.36914 1980.0 1
13.914227 -772.2366 2003.0 1
34.99383 -776.86304 2015.0 1
56.323517 -781.4895 2027.0 1
84.360344 -851.2723 2208.0 1
105.373955 -835.46515 2167.0 1
125.592316 -820.0435 2127.0 1
146.85252 -815.0315 2114.0 1
168.88036 -815.0315 2114.0 1
190.90833 -815.0315 2114.0 1
212.93614 -815.0315 2114.0 1
234.96411 -815.0315 2114.0 1
339.27167 -710.5502 1843.0 1
350.89005 -695.5141 1804.0 1
367.84332 -692.04425 1795.0 1
386.5473 -692.04425 1795.0 1
403.21927 -688.5744 1786.0 1
-92.06766 -807.3625 2039.0 1
-69.57086 -793.1079 2003.0 1
-48.432144 -788.7523 1992.0 1
-27.675493 -788.7523 1992.0 1
-6.918906 -788.7523 1992.0 1
13.914227 -793.1079 2003.0 1
34.99383 -797.85944 2015.0 1
56.323517 -802.61096 2027.0 1
84.93345 -880.2191 2223.0 1
106.054726 -863.5888 2181.0 1
127.127525 -852.5019 2153.0 1
147.7556 -842.207 2127.0 1
168.88036 -837.05945 2114.0 1
190.90833 -837.05945 2114.0 1
215.55504 -847.35443 2140.0 1
239.29883 -852.5019 2153.0 1
352.8351 -718.2715 1814.0 1
369.68768 -714.3119 1804.0 1
388.4854 -714.3119 1804.0 1
403.21927 -707.1846 1786.0 1
-116.7596 -853.8044 2101.0 1
-92.06766 -828.6088 2039.0 1
-69.57086 -813.9791 2003.0 1
-48.432144 -809.509 1992.0 1
-27.675493 -809.509 1992.0 1
-6.918906 -809.509 1992.0 1
13.914227 -813.9791 2003.0 1
34.99383 -818.8557 2015.0 1
56.9904 -833.4854 2051.0 1
84.93345 -903.38275 2223.0 1
106.686874 -891.5977 2194.0 1
127.954185 -880.6255 2167.0 1
149.56174 -874.93616 2153.0 1
170.95741 -869.6532 2140.0 1
192.0823 -864.37024 2127.0 1
218.27466 -880.6255 2167.0 1
