ply
format ascii 1.0
comment : created from Kinect user tracker
element vertex 1051
property float x
property float y
property float z
property int userId
end_header
124.06395 178.00484 1553.0 1
92.93949 164.0108 1574.0 1
108.368 162.552 1560.0 1
123.504745 161.0932 1546.0 1
139.61412 161.0932 1546.0 1
156.4285 161.8226 1553.0 1
76.19797 146.95328 1567.0 1
92.11284 146.29681 1560.0 1
106.42293 143.67097 1532.0 1
121.3478 142.45183 1519.0 1
137.17584 142.45183 1519.0 1
153.00378 142.45183 1519.0 1
171.05476 144.32744 1539.0 1
187.94206 144.98389 1546.0 1
61.245308 133.62607 1603.0 1
75.1768 128.87456 1546.0 1
89.691925 126.62383 1519.0 1
105.51987 126.62383 1519.0 1
120.30928 125.54015 1506.0 1
134.73756 124.37311 1492.0 1
150.28416 124.37311 1492.0 1
167.38692 125.54015 1506.0 1
184.65976 126.62383 1519.0 1
202.20352 127.70751 1532.0 1
220.16072 128.87456 1546.0 1
236.27 128.87456 1546.0 1
73.863884 110.79587 1519.0 1
88.097664 108.826485 1492.0 1
103.644264 108.826485 1492.0 1
118.71155 108.38885 1486.0 1
133.65388 107.9512 1480.0 1
148.37036 107.44063 1473.0 1
165.16399 108.38885 1486.0 1
181.37746 108.826485 1492.0 1
196.92406 108.826485 1492.0 1
216.31575 110.79587 1519.0 1
236.27 112.76524 1546.0 1
42.0134 94.53022 1512.0 1
57.768497 94.53022 1512.0 1
72.550964 93.27982 1492.0 1
87.38911 92.52959 1480.0 1
102.81066 92.52959 1480.0 1
117.67302 92.09194 1473.0 1
132.4799 91.71683 1467.0 1
147.76599 91.71683 1467.0 1
163.71907 92.09194 1473.0 1
179.91867 92.52959 1480.0 1
194.41632 92.09194 1473.0 1
213.4676 93.71746 1499.0 1
235.20021 96.21826 1539.0 1
252.37938 96.6559 1546.0 1
42.763638 80.1819 1539.0 1
58.035946 79.1399 1519.0 1
72.550964 77.7332 1492.0 1
87.38911 77.108 1480.0 1
101.9076 76.4307 1467.0 1
116.71438 76.118095 1461.0 1
131.93805 76.118095 1461.0 1
147.76599 76.4307 1467.0 1
163.71907 76.7433 1473.0 1
179.91867 77.108 1480.0 1
194.41632 76.7433 1473.0 1
211.61632 77.4206 1486.0 1
230.15694 78.4626 1506.0 1
251.23665 80.1819 1539.0 1
27.092 65.02081 1560.0 1
42.763638 64.14553 1539.0 1
57.768497 63.020172 1512.0 1
72.25921 61.936493 1486.0 1
86.97578 61.394653 1473.0 1
101.9076 61.144573 1467.0 1
117.1937 61.144573 1467.0 1
133.02174 61.394653 1473.0 1
148.37036 61.394653 1473.0 1
164.4971 61.686413 1480.0 1
179.91867 61.686413 1480.0 1
195.34023 61.686413 1480.0 1
210.76189 61.686413 1480.0 1
226.18344 61.686413 1480.0 1
244.70679 62.478333 1499.0 1
263.79965 63.311935 1519.0 1
-5.595561 50.35985 1611.0 1
11.086922 49.89095 1596.0 1
26.727299 48.10913 1539.0 1
42.207905 47.483932 1519.0 1
57.271812 46.85873 1499.0 1
71.967445 46.264793 1480.0 1
87.38911 46.264793 1480.0 1
103.644264 46.63991 1492.0 1
118.71155 46.45235 1486.0 1
134.19572 46.45235 1486.0 1
148.37036 46.04597 1473.0 1
163.71907 46.04597 1473.0 1
179.91867 46.264793 1480.0 1
196.92406 46.63991 1492.0 1
212.47076 46.63991 1492.0 1
227.1004 46.45235 1486.0 1
243.56406 46.63991 1492.0 1
10.836842 32.510406 1560.0 1
26.727299 32.072765 1539.0 1
42.207905 31.655968 1519.0 1
57.768497 31.510086 1512.0 1
72.89135 31.239166 1499.0 1
88.510994 31.239166 1499.0 1
104.13053 31.239166 1499.0 1
119.190865 31.093287 1492.0 1
134.73756 31.093287 1492.0 1
149.67981 30.968246 1486.0 1
165.16399 30.968246 1486.0 1
180.64806 30.968246 1486.0 1
196.92406 31.093287 1492.0 1
214.46446 31.385046 1506.0 1
227.1004 30.968246 1486.0 1
10.885468 16.328125 1567.0 1
26.848866 16.109304 1546.0 1
42.207905 15.827965 1519.0 1
58.035946 15.827965 1519.0 1
73.5235 15.755025 1512.0 1
89.278595 15.755025 1512.0 1
105.0336 15.755025 1512.0 1
119.75007 15.619565 1499.0 1
134.19572 15.484105 1486.0 1
149.67981 15.484105 1486.0 1
165.16399 15.484105 1486.0 1
180.64806 15.484105 1486.0 1
197.84798 15.619565 1499.0 1
214.46446 15.692505 1506.0 1
27.092 0.0 1560.0 1
42.374626 0.0 1525.0 1
58.035946 0.0 1519.0 1
73.5235 0.0 1512.0 1
89.278595 0.0 1512.0 1
105.0336 0.0 1512.0 1
120.7886 0.0 1512.0 1
134.73756 0.0 1492.0 1
149.67981 0.0 1486.0 1
166.60889 0.0 1499.0 1
182.22842 0.0 1499.0 1
199.5638 0.0 1512.0 1
220.16072 0.0 1546.0 1
10.934094 -16.401064 1574.0 1
27.335133 -16.401064 1574.0 1
42.569134 -15.963425 1532.0 1
58.035946 -15.827965 1519.0 1
73.863884 -15.827965 1519.0 1
90.872856 -16.036364 1539.0 1
105.51987 -15.827965 1519.0 1
120.7886 -15.755025 1512.0 1
136.5437 -15.755025 1512.0 1
152.29869 -15.755025 1512.0 1
168.83182 -15.827965 1519.0 1
183.80879 -15.755025 1512.0 1
199.5638 -15.755025 1512.0 1
220.16072 -16.109304 1546.0 1
27.595633 -33.114727 1589.0 1
43.930676 -32.94801 1581.0 1
59.067528 -32.21861 1546.0 1
76.87874 -32.94801 1581.0 1
91.28619 -32.21861 1546.0 1
106.42293 -31.92685 1532.0 1
121.3478 -31.65593 1519.0 1
136.5437 -31.51005 1512.0 1
152.29869 -31.51005 1512.0 1
168.83182 -31.65593 1519.0 1
183.80879 -31.51005 1512.0 1
199.5638 -31.51005 1512.0 1
261.03143 -38.199684 1833.0 1
27.9777 -50.35989 1611.0 1
44.764275 -50.35989 1611.0 1
61.55096 -50.35989 1611.0 1
78.33754 -50.35989 1611.0 1
92.93949 -49.20327 1574.0 1
107.39546 -48.32799 1546.0 1
121.827126 -47.671528 1525.0 1
137.17584 -47.48397 1519.0 1
153.00378 -47.48397 1519.0 1
169.4987 -47.671528 1525.0 1
183.80879 -47.26515 1512.0 1
199.5638 -47.26515 1512.0 1
256.90164 -56.393074 1804.0 1
275.69928 -56.393074 1804.0 1
11.621818 -69.73065 1673.0 1
28.915499 -69.39722 1665.0 1
46.04246 -69.063774 1657.0 1
63.002815 -68.73033 1649.0 1
79.45595 -68.10513 1634.0 1
94.23852 -66.52129 1596.0 1
107.88173 -64.72906 1553.0 1
123.504745 -64.437294 1546.0 1
138.34984 -63.853775 1532.0 1
154.31323 -63.853775 1532.0 1
170.27673 -63.853775 1532.0 1
186.24013 -63.853775 1532.0 1
236.91602 -74.81561 1795.0 1
255.61998 -74.81561 1795.0 1
275.69928 -75.190735 1804.0 1
-5.7553353 -86.3297 1657.0 1
11.510671 -86.3297 1657.0 1
28.776566 -86.3297 1657.0 1
45.820168 -85.912895 1649.0 1
62.69716 -85.4961 1641.0 1
79.45595 -85.1314 1634.0 1
95.537544 -84.2978 1618.0 1
110.8688 -83.151596 1596.0 1
124.06395 -80.9113 1553.0 1
139.61412 -80.5466 1546.0 1
155.7234 -80.5466 1546.0 1
171.05476 -80.1819 1539.0 1
187.0911 -80.1819 1539.0 1
236.91602 -93.5195 1795.0 1
254.33833 -93.0506 1786.0 1
274.32385 -93.5195 1795.0 1
-22.910084 -103.09546 1649.0 1
-5.7275486 -103.09546 1649.0 1
11.455097 -103.09546 1649.0 1
28.4987 -102.5953 1641.0 1
45.597878 -102.5953 1641.0 1
62.69716 -102.5953 1641.0 1
80.18535 -103.09546 1649.0 1
96.00992 -101.6575 1626.0 1
112.397064 -101.15734 1618.0 1
129.89568 -101.6575 1626.0 1
141.51056 -97.96883 1567.0 1
156.4285 -97.093544 1553.0 1
173.38884 -97.53118 1560.0 1
189.644 -97.53118 1560.0 1
232.16449 -109.972664 1759.0 1
253.05667 -111.09802 1777.0 1
275.69928 -112.78606 1804.0 1
297.76196 -114.03646 1824.0 1
-58.108864 -122.02859 1673.0 1
-39.898167 -119.6945 1641.0 1
-22.590538 -118.6004 1626.0 1
-5.647661 -118.6004 1626.0 1
11.350897 -119.18392 1634.0 1
28.377132 -119.18392 1634.0 1
45.40337 -119.18392 1634.0 1
62.69716 -119.6945 1641.0 1
79.79633 -119.6945 1641.0 1
96.48229 -119.18392 1634.0 1
113.9948 -119.6945 1641.0 1
131.09398 -119.6945 1641.0 1
149.63817 -120.86154 1657.0 1
169.3215 -122.61211 1681.0 1
188.72708 -123.85208 1698.0 1
209.45937 -125.67558 1723.0 1
230.97662 -127.644966 1750.0 1
251.77501 -128.95789 1768.0 1
274.32385 -130.92726 1795.0 1
293.0278 -130.92726 1795.0 1
-73.780556 -136.21027 1634.0 1
-56.198532 -134.87651 1618.0 1
-39.16877 -134.29298 1611.0 1
-22.382137 -134.29298 1611.0 1
-5.595561 -134.29298 1611.0 1
11.295322 -135.5434 1626.0 1
28.377132 -136.21027 1634.0 1
45.40337 -136.21027 1634.0 1
62.429714 -136.21027 1634.0 1
79.45595 -136.21027 1634.0 1
96.89562 -136.7938 1641.0 1
114.55053 -137.46066 1649.0 1
133.01126 -138.79443 1665.0 1
150.36063 -138.79443 1665.0 1
169.3215 -140.12819 1681.0 1
187.8379 -140.87843 1690.0 1
208.48683 -142.96243 1715.0 1
229.78874 -145.12979 1741.0 1
251.77501 -147.38051 1768.0 1
274.32385 -149.63123 1795.0 1
294.49704 -150.38147 1804.0 1
-91.19586 -153.89299 1641.0 1
-73.058105 -151.73605 1618.0 1
-55.4344 -149.6729 1596.0 1
-38.80407 -149.6729 1596.0 1
-22.173738 -149.6729 1596.0 1
-5.5677743 -150.32935 1603.0 1
11.239749 -151.73605 1618.0 1
28.099266 -151.73605 1618.0 1
45.181076 -152.4863 1626.0 1
62.12406 -152.4863 1626.0 1
79.06694 -152.4863 1626.0 1
96.48229 -153.23653 1634.0 1
113.9948 -153.89299 1641.0 1
131.73306 -154.64323 1649.0 1
150.36063 -156.1437 1665.0 1
168.51569 -156.89395 1673.0 1
187.8379 -158.48822 1690.0 1
207.39273 -159.9887 1706.0 1
229.78874 -163.271 1741.0 1
250.49335 -164.95903 1759.0 1
272.9484 -167.49109 1786.0 1
302.49612 -173.77435 1853.0 1
-109.35093 -172.6594 1657.0 1
-90.36226 -169.4292 1626.0 1
-72.380806 -167.0326 1603.0 1
-55.4344 -166.30319 1596.0 1
-38.633877 -165.57379 1589.0 1
-22.173738 -166.30319 1596.0 1
-5.543461 -166.30319 1596.0 1
11.135549 -167.0326 1603.0 1
27.9777 -167.8662 1611.0 1
44.958782 -168.5956 1618.0 1
62.12406 -169.4292 1626.0 1
79.06694 -169.4292 1626.0 1
96.48229 -170.2628 1634.0 1
113.50853 -170.2628 1634.0 1
130.53477 -170.2628 1634.0 1
149.63817 -172.6594 1657.0 1
167.70987 -173.493 1665.0 1
187.8379 -176.09799 1690.0 1
206.4202 -176.9316 1698.0 1
228.60086 -180.4744 1732.0 1
249.21169 -182.34999 1750.0 1
270.1975 -184.2256 1768.0 1
310.8217 -198.39679 1904.0 1
-108.82298 -189.00836 1649.0 1
-89.528656 -184.6528 1611.0 1
-72.06473 -182.9335 1596.0 1
-55.191265 -182.13116 1589.0 1
-38.43937 -181.2142 1581.0 1
-22.076485 -182.13116 1589.0 1
-5.5191474 -182.13116 1589.0 1
11.135549 -183.73584 1603.0 1
27.9777 -184.6528 1611.0 1
44.764275 -184.6528 1611.0 1
62.12406 -186.3721 1626.0 1
79.06694 -186.3721 1626.0 1
96.48229 -187.28906 1634.0 1
113.50853 -187.28906 1634.0 1
131.73306 -189.00836 1649.0 1
149.63817 -189.92532 1657.0 1
166.90407 -189.92532 1657.0 1
187.8379 -193.70778 1690.0 1
206.4202 -194.62474 1698.0 1
227.41298 -197.49023 1723.0 1
249.21169 -200.58498 1750.0 1
270.1975 -202.64813 1768.0 1
309.18924 -217.09026 1894.0 1
-126.61688 -207.19124 1657.0 1
-108.29504 -205.1906 1641.0 1
-89.528656 -201.4394 1611.0 1
-71.74866 -198.68852 1589.0 1
-55.191265 -198.68852 1589.0 1
-38.43937 -197.6882 1581.0 1
-22.076485 -198.68852 1589.0 1
-5.5191474 -198.68852 1589.0 1
11.135549 -200.43909 1603.0 1
27.838766 -200.43909 1603.0 1
44.764275 -201.4394 1611.0 1
62.12406 -203.315 1626.0 1
79.06694 -203.315 1626.0 1
96.48229 -204.31532 1634.0 1
113.9948 -205.1906 1641.0 1
131.73306 -206.19092 1649.0 1
149.63817 -207.19124 1657.0 1
167.70987 -208.19156 1665.0 1
187.8379 -211.31757 1690.0 1
206.4202 -212.31789 1698.0 1
226.35709 -214.44356 1715.0 1
247.93002 -217.6946 1741.0 1
268.82208 -219.94533 1759.0 1
-127.22819 -225.54092 1665.0 1
-107.30514 -220.258 1626.0 1
-89.528656 -218.22609 1611.0 1
-72.06473 -216.19418 1596.0 1
-55.191265 -215.24597 1589.0 1
-38.633877 -215.24597 1589.0 1
-22.076485 -215.24597 1589.0 1
-5.5191474 -215.24597 1589.0 1
11.135549 -217.14241 1603.0 1
27.838766 -217.14241 1603.0 1
44.764275 -218.22609 1611.0 1
62.12406 -220.258 1626.0 1
79.06694 -220.258 1626.0 1
96.48229 -221.34167 1634.0 1
113.50853 -221.34167 1634.0 1
131.09398 -222.28989 1641.0 1
149.63817 -224.45724 1657.0 1
168.51569 -226.6246 1673.0 1
187.8379 -228.92743 1690.0 1
206.4202 -230.01111 1698.0 1
227.41298 -233.39761 1723.0 1
246.64836 -234.61674 1732.0 1
264.69577 -234.61674 1732.0 1
316.0456 -262.25058 1936.0 1
-126.61688 -241.72318 1657.0 1
-107.30514 -237.2009 1626.0 1
-89.528656 -235.0127 1611.0 1
-72.06473 -232.8245 1596.0 1
-55.4344 -232.8245 1596.0 1
-38.80407 -232.8245 1596.0 1
-22.173738 -232.8245 1596.0 1
-5.543461 -232.8245 1596.0 1
11.191122 -235.0127 1611.0 1
28.099266 -236.03386 1618.0 1
44.958782 -236.03386 1618.0 1
62.12406 -237.2009 1626.0 1
79.06694 -237.2009 1626.0 1
96.00992 -237.2009 1626.0 1
113.50853 -238.36794 1634.0 1
131.73306 -240.55614 1649.0 1
149.63817 -241.72318 1657.0 1
169.3215 -245.22429 1681.0 1
187.8379 -246.53722 1690.0 1
207.39273 -248.87129 1706.0 1
227.41298 -251.35126 1723.0 1
247.93002 -253.9771 1741.0 1
266.0712 -253.9771 1741.0 1
-145.96683 -262.7403 1681.0 1
-126.61688 -258.9891 1657.0 1
-107.30514 -254.1438 1626.0 1
-89.91767 -252.8934 1618.0 1
-72.380806 -250.54889 1603.0 1
-55.677532 -250.54889 1603.0 1
-38.80407 -249.45479 1596.0 1
-22.173738 -249.45479 1596.0 1
-5.5677743 -250.54889 1603.0 1
11.191122 -251.7993 1611.0 1
28.099266 -252.8934 1618.0 1
44.958782 -252.8934 1618.0 1
62.12406 -254.1438 1626.0 1
79.06694 -254.1438 1626.0 1
96.48229 -255.3942 1634.0 1
113.50853 -255.3942 1634.0 1
132.37216 -258.9891 1657.0 1
149.63817 -258.9891 1657.0 1
170.22804 -264.147 1690.0 1
187.8379 -264.147 1690.0 1
208.48683 -268.0545 1715.0 1
227.41298 -269.3049 1723.0 1
247.93002 -272.1183 1741.0 1
268.82208 -274.9317 1759.0 1
321.43274 -307.7547 1969.0 1
-145.96683 -280.2563 1681.0 1
-126.61688 -276.255 1657.0 1
-107.833084 -272.42047 1634.0 1
-89.91767 -269.75293 1618.0 1
-72.380806 -267.25214 1603.0 1
-55.677532 -267.25214 1603.0 1
-38.974262 -267.25214 1603.0 1
-22.270992 -267.25214 1603.0 1
-5.595561 -268.5859 1611.0 1
11.191122 -268.5859 1611.0 1
28.099266 -269.75293 1618.0 1
44.958782 -269.75293 1618.0 1
62.12406 -271.0867 1626.0 1
79.45595 -272.42047 1634.0 1
96.48229 -272.42047 1634.0 1
113.9948 -273.5875 1641.0 1
132.37216 -276.255 1657.0 1
149.63817 -276.255 1657.0 1
169.3215 -280.2563 1681.0 1
188.72708 -283.09055 1698.0 1
208.48683 -285.92477 1715.0 1
228.60086 -288.759 1732.0 1
249.21169 -291.75998 1750.0 1
304.4307 -332.1062 1992.0 1
326.98312 -333.94012 2003.0 1
-146.74834 -299.36655 1690.0 1
-126.61688 -293.52094 1657.0 1
-107.30514 -288.0296 1626.0 1
-89.91767 -286.6125 1618.0 1
-73.41933 -288.0296 1626.0 1
-56.198532 -286.6125 1618.0 1
-39.338963 -286.6125 1618.0 1
-22.479391 -286.6125 1618.0 1
-5.6198745 -286.6125 1618.0 1
11.239749 -286.6125 1618.0 1
28.2382 -288.0296 1626.0 1
45.181076 -288.0296 1626.0 1
62.12406 -288.0296 1626.0 1
79.06694 -288.0296 1626.0 1
96.48229 -289.44672 1634.0 1
113.9948 -290.6867 1641.0 1
131.73306 -292.10382 1649.0 1
150.36063 -294.93805 1665.0 1
170.22804 -299.36655 1690.0 1
189.61626 -302.2008 1706.0 1
209.45937 -305.2122 1723.0 1
229.78874 -308.4007 1741.0 1
250.49335 -311.58923 1759.0 1
302.59677 -350.73715 1980.0 1
325.1874 -352.86282 1992.0 1
-145.96683 -315.2884 1681.0 1
-126.00558 -309.28647 1649.0 1
-107.833084 -306.47305 1634.0 1
-90.36226 -304.9726 1626.0 1
-73.058105 -303.4721 1618.0 1
-56.4764 -304.9726 1626.0 1
-39.53347 -304.9726 1626.0 1
-22.701685 -306.47305 1634.0 1
-5.6754484 -306.47305 1634.0 1
11.399524 -307.78598 1641.0 1
28.377132 -306.47305 1634.0 1
45.40337 -306.47305 1634.0 1
62.429714 -306.47305 1634.0 1
79.45595 -306.47305 1634.0 1
96.48229 -306.47305 1634.0 1
113.9948 -307.78598 1641.0 1
131.73306 -309.28647 1649.0 1
150.36063 -312.2874 1665.0 1
171.03386 -318.4769 1698.0 1
190.61658 -321.66544 1715.0 1
210.55347 -324.85394 1732.0 1
232.16449 -329.91806 1759.0 1
285.24057 -375.6827 2003.0 1
304.4307 -373.61957 1992.0 1
326.98312 -375.6827 2003.0 1
341.94965 -369.30566 1969.0 1
-146.74834 -334.5862 1690.0 1
-126.00558 -326.46902 1649.0 1
-108.29504 -324.8852 1641.0 1
-90.36226 -321.9155 1626.0 1
-73.41933 -321.9155 1626.0 1
-56.754265 -323.49933 1634.0 1
-40.092674 -326.46902 1649.0 1
-23.354671 -332.80438 1681.0 1
-5.783122 -329.63672 1665.0 1
11.510671 -328.05286 1657.0 1
28.637632 -326.46902 1649.0 1
45.820168 -326.46902 1649.0 1
62.429714 -323.49933 1634.0 1
79.45595 -323.49933 1634.0 1
96.89562 -324.8852 1641.0 1
114.55053 -326.46902 1649.0 1
133.01126 -329.63672 1665.0 1
151.08307 -331.22055 1673.0 1
171.03386 -336.17004 1698.0 1
191.50575 -341.11954 1723.0 1
210.55347 -342.90137 1732.0 1
233.35237 -350.02866 1768.0 1
285.24057 -396.55396 2003.0 1
306.1118 -396.55396 2003.0 1
326.98312 -396.55396 2003.0 1
347.85434 -396.55396 2003.0 1
-165.9142 -355.5304 1706.0 1
-146.74834 -352.19598 1690.0 1
-127.83949 -348.6532 1673.0 1
-108.29504 -341.9844 1641.0 1
-90.80685 -340.5256 1634.0 1
-74.09663 -341.9844 1641.0 1
-56.9974 -341.9844 1641.0 1
-41.89186 -359.07318 1723.0 1
-23.702003 -355.5304 1706.0 1
-5.8386955 -350.3204 1681.0 1
11.677391 -350.3204 1681.0 1
28.915499 -346.986 1665.0 1
46.264755 -346.986 1665.0 1
63.308468 -345.3188 1657.0 1
80.18535 -343.65158 1649.0 1
97.368 -343.65158 1649.0 1
115.10626 -345.3188 1657.0 1
133.65034 -348.6532 1673.0 1
152.61829 -352.19598 1690.0 1
171.83966 -355.5304 1706.0 1
192.50607 -360.9488 1732.0 1
213.83577 -366.5756 1759.0 1
234.54025 -370.32678 1777.0 1
286.94946 -419.926 2015.0 1
306.1118 -417.4252 2003.0 1
326.98312 -417.4252 2003.0 1
347.85434 -417.4252 2003.0 1
-166.78947 -375.27628 1715.0 1
-146.74834 -369.8058 1690.0 1
-128.4508 -367.8364 1681.0 1
-109.878876 -364.33527 1665.0 1
-92.08504 -362.58472 1657.0 1
-74.457855 -360.83417 1649.0 1
-61.095932 -384.90436 1759.0 1
-42.329502 -380.9656 1741.0 1
-23.827044 -375.27628 1715.0 1
-5.8977423 -371.55634 1698.0 1
11.795485 -371.55634 1698.0 1
29.349667 -369.8058 1690.0 1
46.709343 -367.8364 1681.0 1
63.61412 -364.33527 1665.0 1
80.96338 -364.33527 1665.0 1
98.312744 -364.33527 1665.0 1
116.21773 -366.08585 1673.0 1
135.00842 -369.8058 1690.0 1
153.34074 -371.55634 1698.0 1
172.7462 -375.27628 1715.0 1
192.50607 -378.99622 1732.0 1
213.83577 -384.90436 1759.0 1
233.35237 -386.87375 1768.0 1
286.94946 -440.92227 2015.0 1
307.9457 -440.92227 2015.0 1
326.98312 -438.29642 2003.0 1
347.85434 -438.29642 2003.0 1
-166.78947 -393.14655 1715.0 1
-146.74834 -387.41556 1690.0 1
-128.4508 -385.3524 1681.0 1
-110.93477 -385.3524 1681.0 1
-93.91895 -387.41556 1690.0 1
-76.30914 -387.41556 1690.0 1
-62.65893 -413.54892 1804.0 1
-42.329502 -399.1068 1741.0 1
-23.93819 -394.98047 1723.0 1
-5.9567895 -393.14655 1715.0 1
11.913579 -393.14655 1715.0 1
29.627533 -391.0834 1706.0 1
47.181713 -389.24948 1698.0 1
64.56929 -387.41556 1690.0 1
81.7414 -385.3524 1681.0 1
99.25749 -385.3524 1681.0 1
117.9544 -389.24948 1698.0 1
135.6475 -389.24948 1698.0 1
153.34074 -389.24948 1698.0 1
172.7462 -393.14655 1715.0 1
193.5064 -399.1068 1741.0 1
214.92986 -405.29626 1768.0 1
288.65833 -464.66943 2027.0 1
309.77963 -464.66943 2027.0 1
328.94208 -461.91855 2015.0 1
349.93832 -461.91855 2015.0 1
-166.78947 -411.01694 1715.0 1
-147.443 -406.94272 1698.0 1
-129.13852 -405.02542 1690.0 1
-111.52871 -405.02542 1690.0 1
-93.91895 -405.02542 1690.0 1
-82.35969 -437.13986 1824.0 1
-62.65893 -432.34668 1804.0 1
-42.76714 -421.56198 1759.0 1
-23.93819 -412.9342 1723.0 1
-5.984576 -412.9342 1723.0 1
11.969152 -412.9342 1723.0 1
29.783833 -411.01694 1715.0 1
47.404007 -408.86 1706.0 1
64.87494 -406.94272 1698.0 1
82.568054 -406.94272 1698.0 1
100.261284 -406.94272 1698.0 1
117.9544 -406.94272 1698.0 1
136.2866 -408.86 1706.0 1
154.87595 -411.01694 1715.0 1
173.55202 -412.9342 1723.0 1
194.50671 -419.40503 1750.0 1
216.02396 -425.87585 1777.0 1
313.44745 -491.5427 2051.0 1
330.90103 -485.79086 2027.0 1
352.02234 -485.79086 2027.0 1
377.5617 -491.5427 2051.0 1
-185.52118 -430.88785 1723.0 1
-166.78947 -428.8872 1715.0 1
-148.13766 -426.63647 1706.0 1
-129.74983 -424.63586 1698.0 1
-112.056656 -424.63586 1698.0 1
-94.36354 -424.63586 1698.0 1
-82.76607 -458.39664 1833.0 1
-62.346333 -448.89362 1795.0 1
-42.76714 -439.89072 1759.0 1
-24.18827 -435.38928 1741.0 1
-6.0158362 -433.13858 1732.0 1
11.969152 -430.88785 1723.0 1
29.922766 -430.88785 1723.0 1
47.654087 -428.8872 1715.0 1
65.83011 -430.88785 1723.0 1
83.39471 -428.8872 1715.0 1
100.73366 -426.63647 1706.0 1
119.69106 -430.88785 1723.0 1
137.64468 -430.88785 1723.0 1
155.5984 -430.88785 1723.0 1
175.3651 -435.38928 1741.0 1
195.50703 -439.89072 1759.0 1
218.21216 -448.89362 1795.0 1
241.9315 -458.39664 1833.0 1
313.44745 -512.91406 2051.0 1
332.86002 -509.91312 2039.0 1
354.10632 -509.91312 2039.0 1
375.35266 -509.91312 2039.0 1
-186.49023 -451.186 1732.0 1
-166.78947 -446.75748 1715.0 1
-148.13766 -444.413 1706.0 1
-131.04886 -446.75748 1715.0 1
-113.70649 -448.8415 1723.0 1
-103.53314 -485.3115 1863.0 1
-82.76607 -477.4965 1833.0 1
-62.346333 -467.5975 1795.0 1
-42.76714 -458.21948 1759.0 1
-24.31331 -455.875 1750.0 1
-6.0470963 -453.5305 1741.0 1
12.0316725 -451.186 1732.0 1
29.922766 -448.8415 1723.0 1
47.87638 -448.8415 1723.0 1
65.83011 -448.8415 1723.0 1
83.78372 -448.8415 1723.0 1
101.73745 -448.8415 1723.0 1
119.69106 -448.8415 1723.0 1
137.64468 -448.8415 1723.0 1
156.41116 -451.186 1732.0 1
176.27164 -455.875 1750.0 1
196.50735 -460.564 1768.0 1
219.30626 -469.942 1804.0 1
334.81897 -534.28546 2051.0 1
354.10632 -531.1595 2039.0 1
373.14362 -528.0335 2027.0 1
-185.52118 -466.79514 1723.0 1
-166.78947 -464.62778 1715.0 1
-148.91916 -464.62778 1715.0 1
-131.66016 -466.79514 1723.0 1
-114.30043 -469.23343 1732.0 1
-103.53314 -504.72394 1863.0 1
-82.76607 -496.59634 1833.0 1
-62.346333 -486.30136 1795.0 1
-43.20478 -481.4248 1777.0 1
-24.31331 -474.11 1750.0 1
-6.0783563 -474.11 1750.0 1
12.156713 -474.11 1750.0 1
30.079065 -469.23343 1732.0 1
47.87638 -466.79514 1723.0 1
66.173965 -469.23343 1732.0 1
84.22136 -469.23343 1732.0 1
102.26887 -469.23343 1732.0 1
120.31626 -469.23343 1732.0 1
138.36366 -469.23343 1732.0 1
158.03668 -474.11 1750.0 1
177.17818 -476.54825 1759.0 1
197.50768 -481.4248 1777.0 1
220.52193 -491.44885 1814.0 1
336.77792 -558.90796 2063.0 1
358.27432 -558.90796 2063.0 1
375.35266 -552.4058 2039.0 1
396.59912 -552.4058 2039.0 1
-185.52118 -484.74878 1723.0 1
-166.78947 -482.49805 1715.0 1
-148.91916 -482.49805 1715.0 1
-132.34789 -487.28082 1732.0 1
-114.30043 -487.28082 1732.0 1
-104.088875 -526.94977 1873.0 1
-82.76607 -515.69617 1833.0 1
-62.346333 -505.00525 1795.0 1
-43.4236 -502.4732 1786.0 1
-24.563389 -497.4091 1768.0 1
-6.1096168 -494.877 1759.0 1
12.2192335 -494.877 1759.0 1
30.235367 -489.8129 1741.0 1
48.37654 -489.8129 1741.0 1
66.51783 -489.8129 1741.0 1
84.659004 -489.8129 1741.0 1
102.80029 -489.8129 1741.0 1
120.31626 -487.28082 1732.0 1
139.08264 -489.8129 1741.0 1
158.84944 -494.877 1759.0 1
178.08472 -497.4091 1768.0 1
200.50864 -507.53732 1804.0 1
239.36476 -553.95844 1969.0 1
358.27432 -580.40436 2063.0 1
377.5617 -577.02826 2051.0 1
398.9332 -577.02826 2051.0 1
-185.52118 -502.7025 1723.0 1
-166.78947 -500.36844 1715.0 1
-148.91916 -500.36844 1715.0 1
-132.34789 -505.32834 1732.0 1
-82.76607 -534.7961 1833.0 1
-62.65893 -526.3351 1804.0 1
-43.4236 -521.0834 1786.0 1
-24.813469 -521.0834 1786.0 1
-6.140877 -515.8317 1768.0 1
12.281754 -515.8317 1768.0 1
30.704266 -515.8317 1768.0 1
48.876698 -513.2059 1759.0 1
67.20555 -513.2059 1759.0 1
85.09664 -510.58002 1750.0 1
102.80029 -507.9542 1741.0 1
120.94147 -507.9542 1741.0 1
140.5206 -513.2059 1759.0 1
159.6622 -515.8317 1768.0 1
180.80434 -523.7092 1795.0 1
201.6201 -529.2527 1814.0 1
236.69029 -568.05676 1947.0 1
340.8591 -609.1949 2088.0 1
358.27432 -601.90094 2063.0 1
377.5617 -598.3998 2051.0 1
401.26727 -601.90094 2063.0 1
-204.53763 -523.3758 1732.0 1
-185.52118 -520.6561 1723.0 1
-167.5675 -520.6561 1723.0 1
-149.61383 -520.6561 1723.0 1
-132.34789 -523.3758 1732.0 1
-82.35969 -551.17633 1824.0 1
-62.65893 -545.13275 1804.0 1
-43.64242 -542.4131 1795.0 1
-24.813469 -539.6935 1786.0 1
-6.203397 -539.6935 1786.0 1
12.344274 -536.9739 1777.0 1
30.704266 -534.2543 1768.0 1
49.126778 -534.2543 1768.0 1
67.20555 -531.5346 1759.0 1
85.53428 -531.5346 1759.0 1
103.86313 -531.5346 1759.0 1
122.191864 -531.5346 1759.0 1
141.23958 -534.2543 1768.0 1
161.28773 -539.6935 1786.0 1
181.71088 -545.13275 1804.0 1
212.84592 -578.6747 1915.0 1
236.69029 -588.3445 1947.0 1
259.88168 -594.99243 1969.0 1
338.90012 -627.3257 2076.0 1
358.27432 -623.39734 2063.0 1
379.77072 -623.39734 2063.0 1
401.26727 -623.39734 2063.0 1
-205.60046 -544.2366 1741.0 1
-185.52118 -538.6098 1723.0 1
-167.5675 -538.6098 1723.0 1
-149.61383 -538.6098 1723.0 1
-132.34789 -541.4232 1732.0 1
-84.120674 -582.3738 1863.0 1
-63.3536 -570.1824 1824.0 1
-43.64242 -561.117 1795.0 1
-24.813469 -558.3036 1786.0 1
-6.203397 -558.3036 1786.0 1
12.406794 -558.3036 1786.0 1
31.016867 -558.3036 1786.0 1
49.376858 -555.4902 1777.0 1
67.89327 -555.4902 1777.0 1
85.971924 -552.6768 1768.0 1
104.394554 -552.6768 1768.0 1
123.44226 -555.4902 1777.0 1
141.95856 -555.4902 1777.0 1
162.91325 -563.9304 1804.0 1
187.65375 -582.3738 1863.0 1
213.95738 -601.755 1925.0 1
236.69029 -608.6322 1947.0 1
258.42984 -612.0708 1958.0 1
345.10352 -660.83636 2114.0 1
360.53198 -648.9576 2076.0 1
379.77072 -644.8938 2063.0 1
401.26727 -644.8938 2063.0 1
420.30457 -641.1426 2051.0 1
-205.60046 -562.3778 1741.0 1
-185.52118 -556.5634 1723.0 1
-167.5675 -556.5634 1723.0 1
-150.39532 -559.47064 1732.0 1
-132.34789 -559.47064 1732.0 1
-105.25591 -611.79987 1894.0 1
-84.120674 -601.78625 1863.0 1
-63.6662 -592.09564 1833.0 1
-44.104374 -585.95825 1814.0 1
-24.938509 -579.82086 1795.0 1
-6.203397 -576.9137 1786.0 1
12.469314 -579.82086 1795.0 1
31.016867 -576.9137 1786.0 1
49.877018 -579.82086 1795.0 1
68.580986 -579.82086 1795.0 1
87.28484 -579.82086 1795.0 1
105.45739 -576.9137 1786.0 1
125.31786 -582.728 1804.0 1
145.71323 -589.1885 1824.0 1
166.43521 -595.3258 1843.0 1
189.66829 -608.24664 1883.0 1
213.95738 -621.8135 1925.0 1
235.35306 -625.3667 1936.0 1
259.88168 -636.02637 1969.0 1
281.9652 -639.5796 1980.0 1
360.53198 -670.5895 2076.0 1
382.16385 -670.5895 2076.0 1
403.79587 -670.5895 2076.0 1
420.30457 -662.514 2051.0 1
-206.6633 -583.51996 1750.0 1
-186.49023 -577.518 1732.0 1
-167.5675 -574.5171 1723.0 1
-150.39532 -577.518 1732.0 1
-133.0356 -580.519 1741.0 1
-84.572205 -624.5331 1873.0 1
-63.6662 -611.1955 1833.0 1
-44.104374 -604.8601 1814.0 1
-25.202482 -604.8601 1814.0 1
-6.234657 -598.5248 1795.0 1
12.531835 -601.5257 1804.0 1
31.329466 -601.5257 1804.0 1
50.127098 -601.5257 1804.0 1
68.92485 -601.5257 1804.0 1
87.72248 -601.5257 1804.0 1
107.1107 -604.8601 1814.0 1
127.3324 -611.1955 1833.0 1
147.23108 -614.52985 1843.0 1
168.24135 -621.19867 1863.0 1
190.77628 -631.53534 1894.0 1
212.84592 -638.53754 1915.0 1
236.69029 -649.20764 1947.0 1
259.88168 -656.54333 1969.0 1
285.24057 -667.88025 2003.0 1
347.2257 -709.2268 2127.0 1
362.616 -696.22266 2088.0 1
386.76602 -700.5574 2101.0 1
406.12994 -696.22266 2088.0 1
-207.72615 -604.8498 1759.0 1
-187.45929 -598.6603 1741.0 1
-168.44278 -595.56555 1732.0 1
-150.39532 -595.56555 1732.0 1
-131.66016 -592.4708 1723.0 1
-85.023735 -647.4884 1883.0 1
-63.6662 -630.2954 1833.0 1
-44.347507 -627.2007 1824.0 1
-25.202482 -623.7621 1814.0 1
-6.2659173 -620.3235 1804.0 1
12.531835 -620.3235 1804.0 1
31.503132 -623.7621 1814.0 1
50.404964 -623.7621 1814.0 1
69.68898 -627.2007 1824.0 1
89.13265 -630.2954 1833.0 1
108.82305 -633.734 1843.0 1
129.4164 -640.6112 1863.0 1
149.62767 -644.0498 1873.0 1
170.04747 -647.4884 1883.0 1
191.78354 -654.7095 1904.0 1
213.95738 -661.93054 1925.0 1
236.69029 -669.4954 1947.0 1
259.88168 -677.06036 1969.0 1
286.94946 -692.8779 2015.0 1
367.13132 -726.92004 2114.0 1
386.76602 -722.4499 2101.0 1
403.79587 -713.8534 2076.0 1
-187.45929 -616.8015 1741.0 1
-168.44278 -613.613 1732.0 1
-150.39532 -613.613 1732.0 1
-84.572205 -663.56647 1873.0 1
-63.6662 -649.39526 1833.0 1
-44.347507 -646.2067 1824.0 1
-25.063549 -639.12115 1804.0 1
-6.234657 -635.9326 1795.0 1
12.531835 -639.12115 1804.0 1
31.503132 -642.66394 1814.0 1
50.68283 -646.2067 1824.0 1
70.032845 -649.39526 1833.0 1
89.61892 -652.93805 1843.0 1
108.82305 -652.93805 1843.0 1
130.11107 -663.56647 1873.0 1
149.62767 -663.56647 1873.0 1
170.04747 -667.10925 1883.0 1
192.89154 -678.4462 1915.0 1
213.95738 -681.989 1925.0 1
236.69029 -689.78314 1947.0 1
259.88168 -697.57733 1969.0 1
285.24057 -709.62286 2003.0 1
-206.6633 -638.225 1750.0 1
-187.45929 -634.9427 1741.0 1
-169.31805 -634.9427 1741.0 1
-151.17683 -634.9427 1741.0 1
-84.572205 -683.08307 1873.0 1
-64.013535 -672.1421 1843.0 1
-44.347507 -665.21277 1824.0 1
-25.202482 -661.5658 1814.0 1
-6.2659173 -657.91876 1804.0 1
12.531835 -657.91876 1804.0 1
31.503132 -661.5658 1814.0 1
50.404964 -661.5658 1814.0 1
70.032845 -668.4951 1833.0 1
89.13265 -668.4951 1833.0 1
110.00399 -679.4361 1863.0 1
130.11107 -683.08307 1873.0 1
150.42654 -686.7301 1883.0 1
170.04747 -686.7301 1883.0 1
192.89154 -698.4005 1915.0 1
213.95738 -702.0475 1925.0 1
238.02753 -714.0826 1958.0 1
261.33356 -722.10596 1980.0 1
285.24057 -730.4941 2003.0 1
-206.6633 -656.45996 1750.0 1
-186.49023 -649.7078 1732.0 1
-169.31805 -653.08386 1741.0 1
-150.39532 -649.7078 1732.0 1
-84.120674 -698.8485 1863.0 1
-64.013535 -691.3461 1843.0 1
-44.347507 -684.2189 1824.0 1
-25.202482 -680.46765 1814.0 1
-6.2659173 -676.71643 1804.0 1
12.601301 -680.46765 1814.0 1
31.503132 -680.46765 1814.0 1
50.68283 -684.2189 1824.0 1
70.032845 -687.5949 1833.0 1
89.61892 -691.3461 1843.0 1
110.00399 -698.8485 1863.0 1
130.80573 -706.35095 1883.0 1
150.42654 -706.35095 1883.0 1
171.94391 -714.22845 1904.0 1
193.8988 -722.10596 1925.0 1
216.4026 -730.3586 1947.0 1
239.36476 -738.61127 1969.0 1
259.88168 -738.61127 1969.0 1
285.24057 -751.36536 2003.0 1
-208.78899 -681.63464 1768.0 1
-188.42836 -674.69495 1750.0 1
-170.19334 -674.69495 1750.0 1
-151.17683 -671.2251 1741.0 1
-84.572205 -722.1164 1873.0 1
-64.013535 -710.5502 1843.0 1
-44.347507 -703.2249 1824.0 1
-25.202482 -699.3695 1814.0 1
-6.2659173 -695.5141 1804.0 1
12.670768 -703.2249 1824.0 1
31.8331 -706.69476 1833.0 1
50.93291 -706.69476 1833.0 1
70.032845 -706.69476 1833.0 1
89.61892 -710.5502 1843.0 1
110.59445 -722.1164 1873.0 1
130.80573 -725.97174 1883.0 1
152.98291 -738.309 1915.0 1
175.8271 -750.6463 1947.0 1
196.11479 -750.6463 1947.0 1
218.84784 -759.12823 1969.0 1
239.36476 -759.12823 1969.0 1
259.88168 -759.12823 1969.0 1
285.24057 -772.2366 2003.0 1
-206.6633 -692.93 1750.0 1
-187.45929 -689.3664 1741.0 1
-169.31805 -689.3664 1741.0 1
-150.39532 -685.80273 1732.0 1
-85.520424 -749.94824 1894.0 1
-64.013535 -729.75433 1843.0 1
-44.347507 -722.2311 1824.0 1
-25.341415 -722.2311 1824.0 1
-6.3006506 -718.2715 1814.0 1
12.670768 -722.2311 1824.0 1
31.8331 -725.7947 1833.0 1
50.93291 -725.7947 1833.0 1
70.41491 -729.75433 1843.0 1
90.10519 -733.7139 1853.0 1
110.59445 -741.6331 1873.0 1
133.02867 -758.2634 1915.0 1
157.2968 -779.64526 1969.0 1
177.81384 -779.64526 1969.0 1
198.33078 -779.64526 1969.0 1
221.4042 -788.7523 1992.0 1
239.36476 -779.64526 1969.0 1
262.9174 -788.7523 1992.0 1
286.94946 -797.85944 2015.0 1
-230.68141 -729.4521 1795.0 1
-208.78899 -718.47986 1768.0 1
-188.42836 -711.165 1750.0 1
-169.31805 -707.50757 1741.0 1
-151.17683 -707.50757 1741.0 1
-85.023735 -765.21356 1883.0 1
-64.36086 -753.02216 1853.0 1
-44.566326 -744.89453 1833.0 1
-25.466455 -744.89453 1833.0 1
-6.335384 -741.2371 1824.0 1
12.733289 -744.89453 1833.0 1
31.8331 -744.89453 1833.0 1
51.210777 -748.9584 1843.0 1
70.796974 -753.02216 1853.0 1
91.07772 -761.1497 1873.0 1
110.59445 -761.1497 1873.0 1
139.97533 -818.8557 2015.0 1
160.01294 -813.9791 2003.0 1
179.8909 -809.509 1992.0 1
201.75548 -813.9791 2003.0 1
222.62682 -813.9791 2003.0 1
243.49803 -813.9791 2003.0 1
264.36923 -813.9791 2003.0 1
293.78497 -838.36194 2063.0 1
