ply
format ascii 1.0
comment : created from Kinect user tracker
element vertex 1004
property float x
property float y
property float z
property int userId
end_header
123.504745 161.0932 1546.0 1
138.98198 160.3638 1539.0 1
155.01831 160.3638 1539.0 1
171.83278 161.0932 1546.0 1
106.909195 144.32744 1539.0 1
121.827126 143.01451 1525.0 1
137.17584 142.45183 1519.0 1
152.29869 141.79538 1512.0 1
170.27673 143.67097 1532.0 1
184.65976 142.45183 1519.0 1
90.872856 128.29103 1539.0 1
105.51987 126.62383 1519.0 1
120.7886 126.04031 1512.0 1
135.3697 124.95663 1499.0 1
150.98926 124.95663 1499.0 1
166.60889 124.95663 1499.0 1
183.07939 125.54015 1506.0 1
198.77188 125.54015 1506.0 1
216.31575 126.62383 1519.0 1
236.27 128.87456 1546.0 1
251.23665 128.29103 1539.0 1
60.97786 116.41225 1596.0 1
75.857574 113.78641 1560.0 1
89.691925 110.79587 1519.0 1
103.22746 108.38885 1486.0 1
117.67302 107.44063 1473.0 1
134.19572 108.38885 1486.0 1
149.07544 107.9512 1480.0 1
163.71907 107.44063 1473.0 1
178.3383 107.00298 1467.0 1
196.13214 108.38885 1486.0 1
212.47076 108.826485 1492.0 1
229.08714 109.33707 1499.0 1
251.23665 112.25467 1539.0 1
263.79965 110.79587 1519.0 1
73.863884 94.967865 1519.0 1
88.510994 93.71746 1499.0 1
102.3244 92.09194 1473.0 1
116.71438 91.341705 1461.0 1
132.4799 91.71683 1467.0 1
147.16164 91.341705 1461.0 1
161.05156 90.59146 1449.0 1
177.6089 91.341705 1461.0 1
194.41632 92.09194 1473.0 1
209.76503 92.09194 1473.0 1
226.18344 92.52959 1480.0 1
247.97173 94.967865 1519.0 1
266.05734 95.780624 1532.0 1
59.869865 81.6407 1567.0 1
72.89135 78.0979 1499.0 1
87.743385 77.4206 1486.0 1
102.3244 76.7433 1473.0 1
116.71438 76.118095 1461.0 1
131.93805 76.118095 1461.0 1
145.95291 75.4929 1449.0 1
161.05156 75.4929 1449.0 1
176.8795 75.8055 1455.0 1
192.83247 76.118095 1461.0 1
208.9106 76.4307 1467.0 1
224.1967 76.4307 1467.0 1
242.58458 77.4206 1486.0 1
266.05734 79.8172 1532.0 1
283.30933 80.1819 1539.0 1
43.541664 65.31258 1567.0 1
58.53263 63.853775 1532.0 1
73.231735 62.770092 1506.0 1
87.38911 61.686413 1480.0 1
101.4908 60.894493 1461.0 1
116.71438 60.894493 1461.0 1
130.85437 60.394333 1449.0 1
144.7442 59.894173 1437.0 1
162.38531 60.894493 1461.0 1
177.6089 60.894493 1461.0 1
192.83247 60.894493 1461.0 1
208.9106 61.144573 1467.0 1
224.1967 61.144573 1467.0 1
242.58458 61.936493 1486.0 1
259.11066 62.186573 1492.0 1
275.94586 62.478333 1499.0 1
27.335133 49.20323 1574.0 1
43.152653 48.546772 1553.0 1
58.035946 47.483932 1519.0 1
72.550964 46.63991 1492.0 1
86.97578 46.04597 1473.0 1
101.4908 45.670853 1461.0 1
117.1937 45.858414 1467.0 1
133.02174 46.04597 1473.0 1
147.76599 45.858414 1467.0 1
163.0522 45.858414 1467.0 1
178.3383 45.858414 1467.0 1
193.6244 45.858414 1467.0 1
209.76503 46.04597 1473.0 1
226.18344 46.264793 1480.0 1
239.4829 45.858414 1467.0 1
254.769 45.858414 1467.0 1
272.4482 46.264793 1480.0 1
26.727299 32.072765 1539.0 1
42.569134 31.926888 1532.0 1
57.539257 31.385046 1506.0 1
72.550964 31.093287 1492.0 1
86.97578 30.697327 1473.0 1
101.9076 30.572287 1467.0 1
118.23222 30.843206 1480.0 1
134.19572 30.968246 1486.0 1
149.07544 30.843206 1480.0 1
163.0522 30.572287 1467.0 1
178.3383 30.572287 1467.0 1
193.6244 30.572287 1467.0 1
209.76503 30.697327 1473.0 1
227.1004 30.968246 1486.0 1
242.58458 30.968246 1486.0 1
254.769 30.572287 1467.0 1
275.94586 31.239166 1499.0 1
26.727299 16.036364 1539.0 1
42.569134 15.963425 1532.0 1
57.539257 15.692505 1506.0 1
72.89135 15.619565 1499.0 1
88.097664 15.546625 1492.0 1
103.22746 15.484105 1486.0 1
119.190865 15.546625 1492.0 1
134.19572 15.484105 1486.0 1
149.07544 15.421585 1480.0 1
163.71907 15.348645 1473.0 1
178.3383 15.286125 1467.0 1
194.41632 15.348645 1473.0 1
210.76189 15.421585 1480.0 1
228.01736 15.546625 1492.0 1
245.84952 15.692505 1506.0 1
27.213566 0.0 1567.0 1
43.152653 0.0 1553.0 1
57.539257 0.0 1506.0 1
72.550964 0.0 1492.0 1
88.510994 0.0 1499.0 1
103.22746 0.0 1486.0 1
120.30928 0.0 1506.0 1
134.73756 0.0 1492.0 1
149.07544 0.0 1480.0 1
164.4971 0.0 1480.0 1
179.91867 0.0 1480.0 1
196.13214 0.0 1486.0 1
211.61632 0.0 1486.0 1
229.08714 0.0 1499.0 1
26.970432 -16.182243 1553.0 1
42.958145 -16.109304 1546.0 1
58.265186 -15.890485 1525.0 1
73.5235 -15.755025 1512.0 1
88.097664 -15.546625 1492.0 1
104.6168 -15.692505 1506.0 1
120.7886 -15.755025 1512.0 1
135.3697 -15.619565 1499.0 1
150.28416 -15.546625 1492.0 1
165.83086 -15.546625 1492.0 1
182.22842 -15.619565 1499.0 1
197.84798 -15.619565 1499.0 1
213.4676 -15.619565 1499.0 1
233.06064 -15.890485 1525.0 1
42.958145 -32.21861 1546.0 1
59.067528 -32.21861 1546.0 1
74.15565 -31.78097 1525.0 1
88.510994 -31.23913 1499.0 1
105.93667 -31.78097 1525.0 1
120.7886 -31.51005 1512.0 1
136.00186 -31.38501 1506.0 1
151.69434 -31.38501 1506.0 1
167.38692 -31.38501 1506.0 1
183.07939 -31.38501 1506.0 1
198.77188 -31.38501 1506.0 1
213.4676 -31.23913 1499.0 1
229.08714 -31.23913 1499.0 1
44.347477 -49.89099 1596.0 1
60.137314 -49.20327 1574.0 1
76.19797 -48.98445 1567.0 1
93.825195 -49.672173 1589.0 1
107.39546 -48.32799 1546.0 1
121.827126 -47.671528 1525.0 1
136.5437 -47.26515 1512.0 1
152.29869 -47.26515 1512.0 1
168.0538 -47.26515 1512.0 1
183.80879 -47.26515 1512.0 1
199.5638 -47.26515 1512.0 1
213.4676 -46.85877 1499.0 1
228.01736 -46.63995 1492.0 1
28.915499 -69.39722 1665.0 1
45.597878 -68.3969 1641.0 1
62.12406 -67.7717 1626.0 1
79.06694 -67.7717 1626.0 1
94.65185 -66.81306 1603.0 1
108.85426 -65.31258 1567.0 1
123.504745 -64.437294 1546.0 1
137.71768 -63.562016 1525.0 1
153.00378 -63.311935 1519.0 1
168.83182 -63.311935 1519.0 1
184.65976 -63.311935 1519.0 1
200.4877 -63.311935 1519.0 1
215.3189 -63.020172 1512.0 1
11.510671 -86.3297 1657.0 1
28.4987 -85.4961 1641.0 1
45.40337 -85.1314 1634.0 1
62.12406 -84.7146 1626.0 1
79.06694 -84.7146 1626.0 1
95.12422 -83.9331 1611.0 1
110.8688 -83.151596 1596.0 1
125.182365 -81.6407 1567.0 1
138.98198 -80.1819 1539.0 1
155.01831 -80.1819 1539.0 1
169.4987 -79.4525 1525.0 1
185.38916 -79.4525 1525.0 1
201.27962 -79.4525 1525.0 1
218.16702 -79.8172 1532.0 1
277.22754 -94.5094 1814.0 1
-5.699762 -102.5953 1641.0 1
11.295322 -101.6575 1626.0 1
28.2382 -101.6575 1626.0 1
44.958782 -101.15734 1618.0 1
62.12406 -101.6575 1626.0 1
79.06694 -101.6575 1626.0 1
95.12422 -100.7197 1611.0 1
111.355064 -100.21954 1603.0 1
128.05829 -100.21954 1603.0 1
144.12946 -99.7819 1596.0 1
155.7234 -96.6559 1546.0 1
171.05476 -96.21826 1539.0 1
187.94206 -96.6559 1546.0 1
204.05135 -96.6559 1546.0 1
255.61998 -112.22338 1795.0 1
275.69928 -112.78606 1804.0 1
-40.092674 -120.27802 1649.0 1
-22.590538 -118.6004 1626.0 1
-5.595561 -117.50631 1611.0 1
11.191122 -117.50631 1611.0 1
28.099266 -118.016884 1618.0 1
44.958782 -118.016884 1618.0 1
61.818405 -118.016884 1618.0 1
79.06694 -118.6004 1626.0 1
95.537544 -118.016884 1618.0 1
112.9528 -118.6004 1626.0 1
129.89568 -118.6004 1626.0 1
146.11621 -118.016884 1618.0 1
161.46483 -116.92278 1603.0 1
187.8379 -123.26856 1690.0 1
206.4202 -123.85208 1698.0 1
230.97662 -127.644966 1750.0 1
253.05667 -129.61435 1777.0 1
275.69928 -131.58372 1804.0 1
-39.338963 -134.87651 1618.0 1
-22.173738 -133.04259 1596.0 1
-5.5191474 -132.45908 1589.0 1
11.086922 -133.04259 1596.0 1
27.838766 -133.62611 1603.0 1
44.541985 -133.62611 1603.0 1
61.245308 -133.62611 1603.0 1
78.33754 -134.29298 1611.0 1
96.00992 -135.5434 1626.0 1
112.9528 -135.5434 1626.0 1
130.53477 -136.21027 1634.0 1
147.56111 -136.21027 1634.0 1
167.70987 -138.79443 1665.0 1
186.83759 -140.12819 1681.0 1
206.4202 -141.54532 1698.0 1
228.60086 -144.37955 1732.0 1
251.77501 -147.38051 1768.0 1
274.32385 -149.63123 1795.0 1
-55.677532 -150.32935 1603.0 1
-38.43937 -148.26619 1581.0 1
-21.868086 -147.60973 1574.0 1
-5.467047 -147.60973 1574.0 1
11.038295 -149.01643 1589.0 1
27.7172 -149.6729 1596.0 1
44.541985 -150.32935 1603.0 1
60.97786 -149.6729 1596.0 1
77.948524 -150.32935 1603.0 1
94.65185 -150.32935 1603.0 1
112.397064 -151.73605 1618.0 1
130.53477 -153.23653 1634.0 1
147.56111 -153.23653 1634.0 1
166.90407 -155.39348 1657.0 1
185.94841 -156.89395 1673.0 1
205.44766 -158.48822 1690.0 1
228.60086 -162.42697 1732.0 1
250.49335 -164.95903 1759.0 1
274.32385 -168.33511 1795.0 1
-72.380806 -167.0326 1603.0 1
-54.9134 -164.7402 1581.0 1
-38.098984 -163.2814 1567.0 1
-21.770832 -163.2814 1567.0 1
-5.442734 -163.2814 1567.0 1
10.934094 -164.0108 1574.0 1
27.4567 -164.7402 1581.0 1
44.347477 -166.30319 1596.0 1
60.97786 -166.30319 1596.0 1
77.948524 -167.0326 1603.0 1
95.12422 -167.8662 1611.0 1
112.397064 -168.5956 1618.0 1
129.25658 -168.5956 1618.0 1
147.56111 -170.2628 1634.0 1
166.09825 -171.82579 1649.0 1
185.94841 -174.3266 1673.0 1
204.35356 -175.1602 1681.0 1
226.35709 -178.703 1715.0 1
249.21169 -182.34999 1750.0 1
268.82208 -183.2878 1759.0 1
-89.528656 -184.6528 1611.0 1
-71.38743 -181.2142 1581.0 1
-54.42713 -179.60953 1567.0 1
-37.758595 -178.00484 1553.0 1
-21.673578 -178.80717 1560.0 1
-5.418421 -178.80717 1560.0 1
10.885468 -179.60953 1567.0 1
27.335133 -180.41187 1574.0 1
43.930676 -181.2142 1581.0 1
60.97786 -182.9335 1596.0 1
77.948524 -183.73584 1603.0 1
95.537544 -185.45514 1618.0 1
112.397064 -185.45514 1618.0 1
129.89568 -186.3721 1626.0 1
147.56111 -187.28906 1634.0 1
165.29243 -188.0914 1641.0 1
185.05923 -190.84229 1665.0 1
205.44766 -193.70778 1690.0 1
225.1692 -195.5417 1706.0 1
247.93002 -199.5534 1741.0 1
268.82208 -201.61656 1759.0 1
-102.94958 -195.06236 1560.0 1
-89.084076 -200.43909 1603.0 1
-70.75528 -195.93765 1567.0 1
-54.184 -195.06236 1560.0 1
-37.758595 -194.18709 1553.0 1
-21.576326 -194.18709 1553.0 1
-5.3941073 -194.18709 1553.0 1
10.885468 -195.93765 1567.0 1
27.335133 -196.81293 1574.0 1
43.73617 -196.81293 1574.0 1
60.97786 -199.5638 1596.0 1
77.60814 -199.5638 1596.0 1
95.12422 -201.4394 1611.0 1
112.397064 -202.31468 1618.0 1
129.89568 -203.315 1626.0 1
147.56111 -204.31532 1634.0 1
165.29243 -205.1906 1641.0 1
185.05923 -208.19156 1665.0 1
205.44766 -211.31757 1690.0 1
224.11331 -212.31789 1698.0 1
246.64836 -216.56924 1732.0 1
267.44662 -218.81996 1750.0 1
-106.77719 -219.1743 1618.0 1
-88.69506 -216.19418 1596.0 1
-70.75528 -212.26585 1567.0 1
-54.184 -211.31763 1560.0 1
-37.928787 -211.31763 1560.0 1
-21.576326 -210.3694 1553.0 1
-5.418421 -211.31763 1560.0 1
10.885468 -212.26585 1567.0 1
27.335133 -213.21407 1574.0 1
43.73617 -213.21407 1574.0 1
60.710415 -215.24597 1589.0 1
77.60814 -216.19418 1596.0 1
94.65185 -217.14241 1603.0 1
111.9108 -218.22609 1611.0 1
129.89568 -220.258 1626.0 1
148.19325 -222.28989 1641.0 1
166.90407 -224.45724 1657.0 1
185.05923 -225.54092 1665.0 1
204.35356 -227.70828 1681.0 1
225.1692 -231.09479 1706.0 1
246.64836 -234.61674 1732.0 1
266.0712 -235.83589 1741.0 1
-123.63676 -236.03386 1618.0 1
-106.77719 -236.03386 1618.0 1
-88.306046 -231.80333 1589.0 1
-70.75528 -228.59398 1567.0 1
-54.184 -227.57281 1560.0 1
-37.928787 -227.57281 1560.0 1
-21.673578 -227.57281 1560.0 1
-5.418421 -227.57281 1560.0 1
10.934094 -229.61513 1574.0 1
27.335133 -229.61513 1574.0 1
43.930676 -230.63629 1581.0 1
60.97786 -232.8245 1596.0 1
77.60814 -232.8245 1596.0 1
94.65185 -233.84566 1603.0 1
111.9108 -235.0127 1611.0 1
129.89568 -237.2009 1626.0 1
147.56111 -238.36794 1634.0 1
166.90407 -241.72318 1657.0 1
185.05923 -242.89021 1665.0 1
205.44766 -246.53722 1690.0 1
225.1692 -248.87129 1706.0 1
245.3667 -251.35126 1723.0 1
267.44662 -255.29001 1750.0 1
-125.394264 -256.48828 1641.0 1
-106.77719 -252.8934 1618.0 1
-88.306046 -248.3607 1589.0 1
-71.07136 -246.01619 1574.0 1
-54.42713 -244.92209 1567.0 1
-38.098984 -244.92209 1567.0 1
-21.770832 -244.92209 1567.0 1
-5.442734 -244.92209 1567.0 1
10.934094 -246.01619 1574.0 1
27.4567 -247.11029 1581.0 1
44.15297 -248.3607 1589.0 1
60.97786 -249.45479 1596.0 1
77.948524 -250.54889 1603.0 1
94.65185 -250.54889 1603.0 1
112.397064 -252.8934 1618.0 1
129.89568 -254.1438 1626.0 1
147.56111 -255.3942 1634.0 1
166.90407 -258.9891 1657.0 1
185.05923 -260.2395 1665.0 1
205.44766 -264.147 1690.0 1
226.35709 -268.0545 1715.0 1
246.64836 -270.7116 1732.0 1
268.82208 -274.9317 1759.0 1
-125.394264 -273.5875 1641.0 1
-106.31524 -268.5859 1611.0 1
-88.306046 -264.91806 1589.0 1
-70.75528 -261.2502 1567.0 1
-54.42713 -261.2502 1567.0 1
-37.928787 -260.0832 1560.0 1
-21.770832 -261.2502 1567.0 1
-5.467047 -262.41727 1574.0 1
10.934094 -262.41727 1574.0 1
27.4567 -263.5843 1581.0 1
44.347477 -266.0851 1596.0 1
60.97786 -266.0851 1596.0 1
77.948524 -267.25214 1603.0 1
94.65185 -267.25214 1603.0 1
112.9528 -271.0867 1626.0 1
129.89568 -271.0867 1626.0 1
147.56111 -272.42047 1634.0 1
166.09825 -274.92126 1649.0 1
185.94841 -278.92255 1673.0 1
206.4202 -283.09055 1698.0 1
227.41298 -287.25854 1723.0 1
246.64836 -288.759 1732.0 1
-124.859375 -289.44672 1634.0 1
-105.78729 -283.95538 1603.0 1
-88.306046 -281.47543 1589.0 1
-71.74866 -281.47543 1589.0 1
-54.670265 -278.81833 1574.0 1
-38.269176 -278.81833 1574.0 1
-21.868086 -278.81833 1574.0 1
-5.4913607 -280.0583 1581.0 1
11.038295 -281.47543 1589.0 1
27.7172 -282.7154 1596.0 1
44.347477 -282.7154 1596.0 1
60.97786 -282.7154 1596.0 1
77.948524 -283.95538 1603.0 1
95.12422 -285.3725 1611.0 1
112.397064 -286.6125 1618.0 1
129.89568 -288.0296 1626.0 1
147.56111 -289.44672 1634.0 1
166.90407 -293.52094 1657.0 1
186.83759 -297.7723 1681.0 1
206.4202 -300.7837 1698.0 1
228.60086 -306.80643 1732.0 1
247.93002 -308.4007 1741.0 1
307.9457 -356.93704 2015.0 1
-143.88283 -310.78696 1657.0 1
-124.24807 -304.9726 1626.0 1
-105.78729 -300.6587 1603.0 1
-88.306046 -298.03287 1589.0 1
-71.38743 -296.53238 1581.0 1
-54.9134 -296.53238 1581.0 1
-38.43937 -296.53238 1581.0 1
-21.965338 -296.53238 1581.0 1
-5.5191474 -298.03287 1589.0 1
11.086922 -299.3458 1596.0 1
27.838766 -300.6587 1603.0 1
44.541985 -300.6587 1603.0 1
61.245308 -300.6587 1603.0 1
77.948524 -300.6587 1603.0 1
95.12422 -302.15918 1611.0 1
112.9528 -304.9726 1626.0 1
129.89568 -304.9726 1626.0 1
147.56111 -306.47305 1634.0 1
166.90407 -310.78696 1657.0 1
187.8379 -316.97644 1690.0 1
207.39273 -319.9774 1706.0 1
230.97662 -328.23004 1750.0 1
286.94946 -377.93344 2015.0 1
307.9457 -377.93344 2015.0 1
-143.88283 -328.05286 1657.0 1
-123.63676 -320.33167 1618.0 1
-105.78729 -317.36194 1603.0 1
-88.306046 -314.59024 1589.0 1
-71.74866 -314.59024 1589.0 1
-54.9134 -313.00638 1581.0 1
-38.633877 -314.59024 1589.0 1
-22.076485 -314.59024 1589.0 1
-5.5677743 -317.36194 1603.0 1
11.239749 -320.33167 1618.0 1
28.2382 -321.9155 1626.0 1
45.181076 -321.9155 1626.0 1
61.55096 -318.9458 1611.0 1
78.677925 -320.33167 1618.0 1
95.537544 -320.33167 1618.0 1
112.9528 -321.9155 1626.0 1
130.53477 -323.49933 1634.0 1
148.19325 -324.8852 1641.0 1
166.90407 -328.05286 1657.0 1
187.8379 -334.5862 1690.0 1
208.48683 -339.5357 1715.0 1
232.16449 -348.24683 1759.0 1
290.36722 -403.68124 2039.0 1
309.77963 -401.30548 2027.0 1
-143.18817 -343.65158 1649.0 1
-124.24807 -338.8584 1626.0 1
-105.78729 -334.0652 1603.0 1
-88.306046 -331.14758 1589.0 1
-71.74866 -331.14758 1589.0 1
-55.191265 -331.14758 1589.0 1
-38.80407 -332.60638 1596.0 1
-22.270992 -334.0652 1603.0 1
-5.7275486 -343.65158 1649.0 1
11.510671 -345.3188 1657.0 1
28.4987 -341.9844 1641.0 1
45.40337 -340.5256 1634.0 1
62.429714 -340.5256 1634.0 1
79.06694 -338.8584 1626.0 1
96.00992 -338.8584 1626.0 1
112.9528 -338.8584 1626.0 1
130.53477 -340.5256 1634.0 1
149.63817 -345.3188 1657.0 1
169.3215 -350.3204 1681.0 1
188.72708 -353.8632 1698.0 1
210.55347 -360.9488 1732.0 1
232.16449 -366.5756 1759.0 1
292.07608 -427.4284 2051.0 1
313.44745 -427.4284 2051.0 1
-143.18817 -360.83417 1649.0 1
-124.859375 -357.55185 1634.0 1
-106.77719 -354.05075 1618.0 1
-89.084076 -350.76843 1603.0 1
-71.74866 -347.70496 1589.0 1
-55.4344 -349.2367 1596.0 1
-38.80407 -349.2367 1596.0 1
-23.47971 -369.8058 1690.0 1
-5.8386955 -367.8364 1681.0 1
11.621818 -366.08585 1673.0 1
28.915499 -364.33527 1665.0 1
46.04246 -362.58472 1657.0 1
63.002815 -360.83417 1649.0 1
79.79633 -359.0836 1641.0 1
96.89562 -359.0836 1641.0 1
113.50853 -357.55185 1634.0 1
131.09398 -359.0836 1641.0 1
151.08307 -366.08585 1673.0 1
170.22804 -369.8058 1690.0 1
190.61658 -375.27628 1715.0 1
210.55347 -378.99622 1732.0 1
232.16449 -384.90436 1759.0 1
293.78497 -451.42563 2063.0 1
315.28137 -451.42563 2063.0 1
-163.48286 -385.3524 1681.0 1
-143.88283 -379.85065 1657.0 1
-124.859375 -374.57812 1634.0 1
-107.30514 -372.7442 1626.0 1
-90.36226 -372.7442 1626.0 1
-73.058105 -370.91028 1618.0 1
-55.9554 -369.3056 1611.0 1
-42.11068 -397.04364 1732.0 1
-23.827044 -393.14655 1715.0 1
-5.8699555 -387.41556 1690.0 1
11.739911 -387.41556 1690.0 1
29.193367 -385.3524 1681.0 1
46.48705 -383.5185 1673.0 1
63.61412 -381.68457 1665.0 1
80.96338 -381.68457 1665.0 1
97.84037 -379.85065 1657.0 1
115.661995 -381.68457 1665.0 1
133.65034 -383.5185 1673.0 1
152.61829 -387.41556 1690.0 1
170.22804 -387.41556 1690.0 1
191.50575 -394.98047 1723.0 1
211.64757 -399.1068 1741.0 1
233.35237 -405.29626 1768.0 1
295.63626 -475.9022 2076.0 1
317.26813 -475.9022 2076.0 1
-163.48286 -402.8685 1681.0 1
-143.18817 -395.19937 1649.0 1
-125.394264 -393.28207 1641.0 1
-107.833084 -391.60446 1634.0 1
-90.80685 -391.60446 1634.0 1
-73.780556 -391.60446 1634.0 1
-62.346333 -430.18973 1795.0 1
-42.329502 -417.24808 1741.0 1
-23.827044 -411.01694 1715.0 1
-5.925529 -408.86 1706.0 1
11.795485 -406.94272 1698.0 1
29.4886 -406.94272 1698.0 1
46.95942 -405.02542 1690.0 1
64.225426 -402.8685 1681.0 1
81.7414 -402.8685 1681.0 1
98.78512 -400.9512 1673.0 1
116.77347 -402.8685 1681.0 1
135.00842 -405.02542 1690.0 1
153.34074 -406.94272 1698.0 1
172.7462 -411.01694 1715.0 1
191.50575 -412.9342 1723.0 1
212.74167 -419.40503 1750.0 1
232.16449 -421.56198 1759.0 1
297.34515 -500.41013 2088.0 1
319.10205 -500.41013 2088.0 1
342.9813 -503.5257 2101.0 1
-163.48286 -420.3845 1681.0 1
-143.88283 -414.38257 1657.0 1
-125.394264 -410.3813 1641.0 1
-108.29504 -410.3813 1641.0 1
-91.19586 -410.3813 1641.0 1
-74.09663 -410.3813 1641.0 1
-62.346333 -448.89362 1795.0 1
-42.76714 -439.89072 1759.0 1
-23.93819 -430.88785 1723.0 1
-5.9567895 -428.8872 1715.0 1
11.795485 -424.63586 1698.0 1
29.349667 -422.63522 1690.0 1
46.95942 -422.63522 1690.0 1
64.56929 -422.63522 1690.0 1
81.7414 -420.3845 1681.0 1
99.25749 -420.3845 1681.0 1
117.39867 -422.63522 1690.0 1
135.6475 -424.63586 1698.0 1
154.06319 -426.63647 1706.0 1
173.55202 -430.88785 1723.0 1
192.50607 -433.13858 1732.0 1
213.83577 -439.89072 1759.0 1
238.1039 -451.14432 1804.0 1
301.04773 -528.6691 2114.0 1
321.0888 -525.4181 2101.0 1
340.8591 -522.16705 2088.0 1
-163.48286 -437.90048 1681.0 1
-143.88283 -431.6485 1657.0 1
-126.00558 -429.56448 1649.0 1
-108.82298 -429.56448 1649.0 1
-91.64045 -429.56448 1649.0 1
-83.217606 -480.1015 1843.0 1
-62.033733 -465.253 1786.0 1
-42.54832 -455.875 1750.0 1
-24.06323 -451.186 1732.0 1
-5.984576 -448.8415 1723.0 1
11.913579 -446.75748 1715.0 1
29.4886 -442.32898 1698.0 1
47.181713 -442.32898 1698.0 1
64.56929 -440.245 1690.0 1
82.17904 -440.245 1690.0 1
100.261284 -442.32898 1698.0 1
117.9544 -442.32898 1698.0 1
137.00558 -446.75748 1715.0 1
155.5984 -448.8415 1723.0 1
174.45856 -451.186 1732.0 1
194.50671 -455.875 1750.0 1
216.02396 -462.90848 1777.0 1
236.91602 -467.5975 1795.0 1
301.04773 -550.69696 2114.0 1
323.07553 -550.69696 2114.0 1
342.9813 -547.3105 2101.0 1
369.389 -554.0835 2127.0 1
-181.96796 -457.85477 1690.0 1
-161.9268 -451.0818 1665.0 1
-143.88283 -448.91443 1657.0 1
-126.00558 -446.74707 1649.0 1
-108.82298 -446.74707 1649.0 1
-92.08504 -448.91443 1657.0 1
-82.76607 -496.59634 1833.0 1
-62.033733 -483.8631 1786.0 1
-42.76714 -476.54825 1759.0 1
-24.18827 -471.6717 1741.0 1
-5.984576 -466.79514 1723.0 1
12.0316725 -469.23343 1732.0 1
29.922766 -466.79514 1723.0 1
47.404007 -462.18948 1706.0 1
64.87494 -460.02213 1698.0 1
82.95707 -462.18948 1706.0 1
101.265076 -464.62778 1715.0 1
119.69106 -466.79514 1723.0 1
137.64468 -466.79514 1723.0 1
156.41116 -469.23343 1732.0 1
175.3651 -471.6717 1741.0 1
195.50703 -476.54825 1759.0 1
218.21216 -486.30136 1795.0 1
238.1039 -488.73965 1804.0 1
306.60156 -583.2907 2153.0 1
323.07553 -572.72485 2114.0 1
345.10352 -572.72485 2114.0 1
-181.96796 -475.46457 1690.0 1
-161.14879 -466.18033 1657.0 1
-143.88283 -466.18033 1657.0 1
-126.61688 -466.18033 1657.0 1
-109.35093 -466.18033 1657.0 1
-104.088875 -526.94977 1873.0 1
-82.76607 -515.69617 1833.0 1
-62.033733 -502.4732 1786.0 1
-42.985962 -497.4091 1768.0 1
-24.31331 -492.34497 1750.0 1
-6.0470963 -489.8129 1741.0 1
12.0316725 -487.28082 1732.0 1
30.079065 -487.28082 1732.0 1
47.87638 -484.74878 1723.0 1
65.83011 -484.74878 1723.0 1
83.78372 -484.74878 1723.0 1
101.73745 -484.74878 1723.0 1
119.69106 -484.74878 1723.0 1
137.64468 -484.74878 1723.0 1
156.41116 -487.28082 1732.0 1
176.27164 -492.34497 1750.0 1
196.50735 -497.4091 1768.0 1
218.21216 -505.00525 1795.0 1
284.16724 -605.725 2153.0 1
306.60156 -605.725 2153.0 1
325.0623 -598.41016 2127.0 1
347.2257 -598.41016 2127.0 1
-180.99889 -490.44858 1681.0 1
-161.14879 -483.44635 1657.0 1
-143.18817 -481.11227 1649.0 1
-126.61688 -483.44635 1657.0 1
-110.40682 -488.1145 1673.0 1
-82.35969 -532.1703 1824.0 1
-62.346333 -523.7092 1795.0 1
-42.985962 -515.8317 1768.0 1
-24.438349 -513.2059 1759.0 1
-6.0783563 -510.58002 1750.0 1
12.0941925 -507.9542 1741.0 1
30.235367 -507.9542 1741.0 1
48.12646 -505.32834 1732.0 1
66.173965 -505.32834 1732.0 1
84.22136 -505.32834 1732.0 1
101.73745 -502.7025 1723.0 1
120.31626 -505.32834 1732.0 1
138.36366 -505.32834 1732.0 1
158.03668 -510.58002 1750.0 1
178.08472 -515.8317 1768.0 1
199.50832 -523.7092 1795.0 1
239.36476 -574.47546 1969.0 1
259.88168 -574.47546 1969.0 1
304.75027 -624.36646 2140.0 1
327.04904 -624.36646 2140.0 1
347.2257 -620.57355 2127.0 1
-180.99889 -507.9646 1681.0 1
-161.14879 -500.71228 1657.0 1
-143.88283 -500.71228 1657.0 1
-126.61688 -500.71228 1657.0 1
-109.878876 -503.1297 1665.0 1
-81.90816 -548.15454 1814.0 1
-62.346333 -542.4131 1795.0 1
-43.4236 -539.6935 1786.0 1
-24.563389 -534.2543 1768.0 1
-6.1096168 -531.5346 1759.0 1
12.2192335 -531.5346 1759.0 1
30.391666 -528.815 1750.0 1
48.62662 -528.815 1750.0 1
66.51783 -526.0954 1741.0 1
84.659004 -526.0954 1741.0 1
102.80029 -526.0954 1741.0 1
120.94147 -526.0954 1741.0 1
139.80162 -528.815 1750.0 1
158.84944 -531.5346 1759.0 1
178.99126 -536.9739 1777.0 1
200.50864 -545.13275 1804.0 1
236.69029 -588.3445 1947.0 1
259.88168 -594.99243 1969.0 1
308.59528 -654.8241 2167.0 1
329.03577 -650.59357 2153.0 1
349.34793 -646.6652 2140.0 1
376.33566 -654.8241 2167.0 1
-180.99889 -525.4806 1681.0 1
-161.14879 -517.9782 1657.0 1
-143.88283 -517.9782 1657.0 1
-126.61688 -517.9782 1657.0 1
-110.40682 -522.9798 1673.0 1
-83.217606 -576.12177 1843.0 1
-62.346333 -561.117 1795.0 1
-43.4236 -558.3036 1786.0 1
-24.688429 -555.4902 1777.0 1
-6.140877 -552.6768 1768.0 1
12.281754 -552.6768 1768.0 1
30.547966 -549.8634 1759.0 1
48.876698 -549.8634 1759.0 1
67.20555 -549.8634 1759.0 1
85.09664 -547.05 1750.0 1
103.86313 -549.8634 1759.0 1
122.191864 -549.8634 1759.0 1
140.5206 -549.8634 1759.0 1
160.47496 -555.4902 1777.0 1
181.71088 -563.9304 1804.0 1
211.6233 -595.19037 1904.0 1
235.35306 -605.1936 1936.0 1
256.978 -608.6322 1947.0 1
312.44025 -685.84436 2194.0 1
333.3149 -681.7806 2181.0 1
351.47012 -673.0278 2153.0 1
-180.99889 -542.9966 1681.0 1
-161.14879 -535.24414 1657.0 1
-143.88283 -535.24414 1657.0 1
-126.61688 -535.24414 1657.0 1
-110.40682 -540.4124 1673.0 1
-84.120674 -601.78625 1863.0 1
-63.006264 -585.95825 1814.0 1
-43.64242 -579.82086 1795.0 1
-24.688429 -574.00653 1777.0 1
-6.140877 -571.0993 1768.0 1
12.344274 -574.00653 1777.0 1
30.704266 -571.0993 1768.0 1
49.126778 -571.0993 1768.0 1
67.54941 -571.0993 1768.0 1
86.40956 -574.00653 1777.0 1
104.394554 -571.0993 1768.0 1
123.44226 -574.00653 1777.0 1
142.67754 -576.9137 1786.0 1
162.91325 -582.728 1804.0 1
187.65375 -601.78625 1863.0 1
212.84592 -618.58325 1915.0 1
235.35306 -625.3667 1936.0 1
259.88168 -636.02637 1969.0 1
285.24057 -647.00903 2003.0 1
331.17535 -699.9843 2167.0 1
353.75558 -699.9843 2167.0 1
-180.99889 -560.5126 1681.0 1
-161.14879 -552.51 1657.0 1
-143.88283 -552.51 1657.0 1
-127.83949 -557.8451 1673.0 1
-84.572205 -624.5331 1873.0 1
-63.6662 -611.1955 1833.0 1
-43.86124 -601.5257 1804.0 1
-24.938509 -598.5248 1795.0 1
-6.172137 -592.5228 1777.0 1
12.406794 -595.5238 1786.0 1
30.860565 -592.5228 1777.0 1
49.376858 -592.5228 1777.0 1
67.89327 -592.5228 1777.0 1
87.28484 -598.5248 1795.0 1
105.988815 -598.5248 1795.0 1
125.31786 -601.5257 1804.0 1
144.91437 -604.8601 1814.0 1
165.53214 -611.1955 1833.0 1
189.66829 -627.8675 1883.0 1
212.84592 -638.53754 1915.0 1
236.69029 -649.20764 1947.0 1
259.88168 -656.54333 1969.0 1
283.6741 -664.2124 1992.0 1
-180.99889 -578.0287 1681.0 1
-161.9268 -572.5269 1665.0 1
-143.88283 -569.77606 1657.0 1
-127.22819 -572.5269 1665.0 1
-110.40682 -575.27783 1673.0 1
-84.572205 -644.0498 1873.0 1
-63.6662 -630.2954 1833.0 1
-43.86124 -620.3235 1804.0 1
-24.938509 -617.2287 1795.0 1
-6.203397 -614.134 1786.0 1
12.469314 -617.2287 1795.0 1
31.173166 -617.2287 1795.0 1
49.877018 -617.2287 1795.0 1
68.580986 -617.2287 1795.0 1
87.72248 -620.3235 1804.0 1
106.52023 -620.3235 1804.0 1
127.3324 -630.2954 1833.0 1
147.23108 -633.734 1843.0 1
168.24135 -640.6112 1863.0 1
189.66829 -647.4884 1883.0 1
215.18 -665.713 1936.0 1
238.02753 -673.2779 1958.0 1
259.88168 -677.06036 1969.0 1
285.24057 -688.7516 2003.0 1
-180.99889 -595.5447 1681.0 1
-161.9268 -589.8762 1665.0 1
-143.88283 -587.042 1657.0 1
-127.83949 -592.71045 1673.0 1
-109.878876 -589.8762 1665.0 1
-84.120674 -660.0236 1863.0 1
-63.6662 -649.39526 1833.0 1
-44.347507 -646.2067 1824.0 1
-24.938509 -635.9326 1795.0 1
-6.203397 -632.7441 1786.0 1
12.469314 -635.9326 1795.0 1
31.173166 -635.9326 1795.0 1
49.877018 -635.9326 1795.0 1
68.92485 -639.12115 1804.0 1
88.20875 -642.66394 1814.0 1
108.23259 -649.39526 1833.0 1
128.02707 -652.93805 1843.0 1
148.02994 -656.48083 1853.0 1
169.14441 -663.56647 1873.0 1
189.66829 -667.10925 1883.0 1
215.18 -685.8861 1936.0 1
238.02753 -693.68024 1958.0 1
259.88168 -697.57733 1969.0 1
285.24057 -709.62286 2003.0 1
-180.13751 -610.14307 1673.0 1
-161.9268 -607.22546 1665.0 1
-144.5775 -607.22546 1665.0 1
-127.83949 -610.14307 1673.0 1
-84.572205 -683.08307 1873.0 1
-64.013535 -672.1421 1843.0 1
-44.347507 -665.21277 1824.0 1
-25.063549 -657.91876 1804.0 1
-6.234657 -654.6365 1795.0 1
12.469314 -654.6365 1795.0 1
31.173166 -654.6365 1795.0 1
49.877018 -654.6365 1795.0 1
68.92485 -657.91876 1804.0 1
88.20875 -661.5658 1814.0 1
108.23259 -668.4951 1833.0 1
128.02707 -672.1421 1843.0 1
149.62767 -683.08307 1873.0 1
170.04747 -686.7301 1883.0 1
190.77628 -690.74176 1894.0 1
213.95738 -702.0475 1925.0 1
238.02753 -714.0826 1958.0 1
259.88168 -718.0943 1969.0 1
283.6741 -726.48236 1992.0 1
-180.99889 -630.5767 1681.0 1
-161.9268 -624.57477 1665.0 1
-144.5775 -624.57477 1665.0 1
-127.83949 -627.57574 1673.0 1
-85.023735 -706.35095 1883.0 1
-64.36086 -695.09735 1853.0 1
-44.347507 -684.2189 1824.0 1
-24.938509 -673.3404 1795.0 1
-6.234657 -673.3404 1795.0 1
12.469314 -673.3404 1795.0 1
31.329466 -676.71643 1804.0 1
49.877018 -673.3404 1795.0 1
68.92485 -676.71643 1804.0 1
88.20875 -680.46765 1814.0 1
108.23259 -687.5949 1833.0 1
128.72173 -695.09735 1853.0 1
149.62767 -702.59973 1873.0 1
170.04747 -706.35095 1883.0 1
192.89154 -718.3548 1915.0 1
215.18 -726.2323 1936.0 1
239.36476 -738.61127 1969.0 1
259.88168 -738.61127 1969.0 1
285.24057 -751.36536 2003.0 1
313.44745 -769.3711 2051.0 1
-180.99889 -648.0927 1681.0 1
-161.9268 -641.9241 1665.0 1
-144.5775 -641.9241 1665.0 1
-127.22819 -641.9241 1665.0 1
-85.023735 -725.97174 1883.0 1
-64.36086 -714.4056 1853.0 1
-44.104374 -699.3695 1814.0 1
-24.938509 -692.04425 1795.0 1
-6.234657 -692.04425 1795.0 1
12.469314 -692.04425 1795.0 1
31.329466 -695.5141 1804.0 1
50.127098 -695.5141 1804.0 1
68.92485 -695.5141 1804.0 1
88.20875 -699.3695 1814.0 1
108.23259 -706.69476 1833.0 1
128.72173 -714.4056 1853.0 1
150.42654 -725.97174 1883.0 1
172.93729 -738.309 1915.0 1
195.00679 -746.4054 1936.0 1
217.62521 -754.88727 1958.0 1
240.702 -763.36914 1980.0 1
261.33356 -763.36914 1980.0 1
286.94946 -776.86304 2015.0 1
315.28137 -795.36896 2063.0 1
-181.96796 -669.1724 1690.0 1
-162.70483 -662.4411 1673.0 1
-143.88283 -656.1057 1657.0 1
-127.22819 -659.27344 1665.0 1
-85.520424 -749.94824 1894.0 1
-64.36086 -733.7139 1853.0 1
-44.347507 -722.2311 1824.0 1
-24.938509 -710.7482 1795.0 1
-6.234657 -710.7482 1795.0 1
12.531835 -714.3119 1804.0 1
31.329466 -714.3119 1804.0 1
50.127098 -714.3119 1804.0 1
69.306915 -718.2715 1814.0 1
89.13265 -725.7947 1833.0 1
108.82305 -729.75433 1843.0 1
130.11107 -741.6331 1873.0 1
152.10416 -753.90784 1904.0 1
176.82048 -775.28973 1958.0 1
199.43877 -784.00085 1980.0 1
221.4042 -788.7523 1992.0 1
240.702 -784.00085 1980.0 1
264.36923 -793.1079 2003.0 1
290.36722 -807.3625 2039.0 1
-181.96796 -686.7822 1690.0 1
-162.70483 -679.8737 1673.0 1
-144.5775 -676.6227 1665.0 1
-127.22819 -676.6227 1665.0 1
-86.46864 -778.2177 1915.0 1
-64.7082 -757.08594 1863.0 1
-44.347507 -741.2371 1824.0 1
-25.341415 -741.2371 1824.0 1
-6.2659173 -733.1095 1804.0 1
12.531835 -733.1095 1804.0 1
31.329466 -733.1095 1804.0 1
50.404964 -737.17334 1814.0 1
70.032845 -744.89453 1833.0 1
89.61892 -748.9584 1843.0 1
109.41352 -753.02216 1853.0 1
130.11107 -761.1497 1873.0 1
160.97157 -818.8557 2015.0 1
180.88428 -813.9791 2003.0 1
202.9642 -818.8557 2015.0 1
222.62682 -813.9791 2003.0 1
244.95683 -818.8557 2015.0 1
267.53693 -823.73224 2027.0 1
292.07608 -833.4854 2051.0 1
