ply
format ascii 1.0
comment : created from Kinect user tracker
element vertex 491
property float x
property float y
property float z
property int userId
end_header
1303.2642 214.23518 2570.0 1
1317.7549 208.06654 2496.0 1
1260.5178 193.21806 2649.0 1
1288.1204 193.21806 2649.0 1
1295.8555 190.30048 2609.0 1
1303.2642 187.45581 2570.0 1
1301.062 183.37117 2514.0 1
1317.7549 182.05824 2496.0 1
1334.0726 180.74533 2478.0 1
1251.9977 168.17877 2690.0 1
1260.5178 165.61545 2649.0 1
1268.6697 163.11465 2609.0 1
1276.4846 160.67638 2570.0 1
1283.9941 158.30061 2532.0 1
1291.7465 156.0499 2496.0 1
1298.7489 153.79918 2460.0 1
1315.2297 152.73633 2443.0 1
1261.7716 141.2431 2711.0 1
1260.5178 138.0129 2649.0 1
1258.9443 134.8869 2589.0 1
1257.6106 131.91719 2532.0 1
1274.8662 130.9794 2514.0 1
1282.431 129.10379 2478.0 1
1289.7738 127.2803 2443.0 1
1306.0775 126.3946 2426.0 1
1253.0884 114.78674 2754.0 1
1251.9977 112.119225 2690.0 1
1251.001 109.576744 2629.0 1
1249.7053 107.11762 2570.0 1
1267.0476 106.32571 2551.0 1
1265.7383 104.0333 2496.0 1
1273.1156 102.53282 2460.0 1
1280.7987 101.1157 2426.0 1
1296.9253 100.40714 2409.0 1
1243.5332 85.43356 2733.0 1
1242.2238 83.43292 2669.0 1
1231.967 80.93213 2589.0 1
1249.7053 80.33819 2570.0 1
1257.6106 79.15031 2532.0 1
1265.7383 78.02495 2496.0 1
1273.1156 76.89959 2460.0 1
1271.8236 75.30533 2409.0 1
1279.1592 74.27375 2376.0 1
1234.6171 57.872692 2777.0 1
1253.0884 57.39337 2754.0 1
1242.2238 55.62197 2669.0 1
1241.484 54.37157 2609.0 1
1240.4662 53.162853 2551.0 1
1248.6702 52.391773 2514.0 1
1256.6104 51.641533 2478.0 1
1255.5197 50.55785 2426.0 1
1280.7987 50.55785 2426.0 1
1270.007 49.16157 2359.0 1
1234.6171 28.936312 2777.0 1
1243.5332 28.477833 2733.0 1
1232.9152 27.602552 2649.0 1
1231.967 26.977354 2589.0 1
1240.4662 26.581394 2551.0 1
1248.6702 26.195854 2514.0 1
1247.4824 25.633175 2460.0 1
1255.5197 25.278896 2426.0 1
1262.8485 24.924616 2392.0 1
1270.007 24.580755 2359.0 1
1234.6171 0.0 2777.0 1
1243.5332 0.0 2733.0 1
1232.9152 0.0 2649.0 1
1231.967 0.0 2589.0 1
1240.4662 0.0 2551.0 1
1230.7894 0.0 2478.0 1
1238.8616 0.0 2443.0 1
1255.5197 0.0 2426.0 1
1254.4014 0.0 2376.0 1
1270.007 0.0 2359.0 1
1225.2183 -29.40521 2822.0 1
1234.6171 -28.936312 2777.0 1
1253.0884 -28.696651 2754.0 1
1223.6067 -27.394154 2629.0 1
1231.967 -26.977354 2589.0 1
1240.4662 -26.581394 2551.0 1
1230.7894 -25.820734 2478.0 1
1238.8616 -25.456036 2443.0 1
1255.5197 -25.278896 2426.0 1
1254.4014 -24.757896 2376.0 1
1270.007 -24.580755 2359.0 1
1205.5593 -59.28974 2845.0 1
1225.2183 -58.81042 2822.0 1
1254.6235 -58.81042 2822.0 1
1223.9679 -56.059544 2690.0 1
1223.6067 -54.788307 2629.0 1
1231.967 -53.95471 2589.0 1
1231.2272 -52.76683 2532.0 1
1239.7299 -52.01659 2496.0 1
1238.8616 -50.91207 2443.0 1
1246.7217 -50.20351 2409.0 1
1254.4014 -49.515793 2376.0 1
1261.3931 -48.82807 2343.0 1
1195.8131 -88.215775 2822.0 1
1225.2183 -88.215775 2822.0 1
1254.6235 -88.215775 2822.0 1
1205.3126 -82.80779 2649.0 1
1223.6067 -82.182594 2629.0 1
1222.926 -80.33825 2570.0 1
1222.4744 -78.58769 2514.0 1
1239.7299 -78.02501 2496.0 1
1238.8616 -76.368225 2443.0 1
1246.7217 -75.30539 2409.0 1
1254.4014 -74.2738 2376.0 1
1270.007 -73.742386 2359.0 1
1195.8131 -117.62099 2822.0 1
1235.2041 -118.57963 2845.0 1
1254.6235 -117.62099 2822.0 1
1205.3126 -110.41035 2649.0 1
1214.2981 -108.74314 2609.0 1
1231.967 -107.909546 2589.0 1
1231.2272 -105.53378 2532.0 1
1239.7299 -104.0333 2496.0 1
1238.8616 -101.824265 2443.0 1
1255.5197 -101.1157 2426.0 1
1262.8485 -99.698586 2392.0 1
1270.007 -98.32314 2359.0 1
1236.0691 -151.9757 2917.0 1
1245.6241 -149.4749 2869.0 1
1254.6235 -147.0262 2822.0 1
1214.4128 -139.0549 2669.0 1
1214.2981 -135.9289 2609.0 1
1213.8849 -132.9071 2551.0 1
1222.4744 -130.9794 2514.0 1
1239.7299 -130.0416 2496.0 1
1238.8616 -127.2803 2443.0 1
1255.5197 -126.3946 2426.0 1
1280.7987 -126.3946 2426.0 1
1279.1592 -123.7896 2376.0 1
1215.7292 -179.36984 2869.0 1
1266.4641 -182.3708 2917.0 1
1254.6235 -176.43141 2822.0 1
1205.3126 -165.61545 2649.0 1
1214.2981 -163.11465 2609.0 1
1213.8849 -159.4885 2551.0 1
1222.4744 -157.17525 2514.0 1
1239.7299 -156.0499 2496.0 1
1247.4824 -153.79918 2460.0 1
1264.3176 -152.73633 2443.0 1
1280.7987 -151.6735 2426.0 1
1279.1592 -148.5475 2376.0 1
1266.4641 -212.76591 2917.0 1
1234.6171 -202.55432 2777.0 1
1196.2125 -191.7592 2629.0 1
1214.2981 -190.3004 2609.0 1
1204.8438 -184.68402 2532.0 1
1222.4744 -183.37111 2514.0 1
1239.7299 -182.05818 2496.0 1
1247.4824 -179.43234 2460.0 1
1264.3176 -178.19237 2443.0 1
1280.7987 -176.9524 2426.0 1
1279.1592 -173.30539 2376.0 1
1245.6241 -239.1599 2869.0 1
1205.2744 -225.98901 2711.0 1
1205.3126 -220.8207 2649.0 1
1214.2981 -217.48628 2609.0 1
1222.926 -214.23524 2570.0 1
1222.4744 -209.5671 2514.0 1
1239.7299 -208.0666 2496.0 1
1256.6104 -206.56613 2478.0 1
1264.3176 -203.64853 2443.0 1
1280.7987 -202.2314 2426.0 1
1279.1592 -198.0634 2376.0 1
1195.938 -252.26822 2690.0 1
1205.3126 -248.42325 2649.0 1
1204.9896 -242.79645 2589.0 1
1213.8849 -239.2328 2551.0 1
1222.4744 -235.76294 2514.0 1
1239.7299 -234.0749 2496.0 1
1256.6104 -232.38686 2478.0 1
1264.3176 -229.10455 2443.0 1
1280.7987 -227.5103 2426.0 1
1279.1592 -222.8213 2376.0 1
1186.5775 -284.7786 2733.0 1
1177.71 -276.0258 2649.0 1
1205.3126 -276.0258 2649.0 1
1204.9896 -269.7738 2589.0 1
1204.8438 -263.83438 2532.0 1
1213.7216 -260.0832 2496.0 1
1230.7894 -258.20758 2478.0 1
1247.4824 -256.332 2460.0 1
1264.3176 -254.5606 2443.0 1
1289.7738 -254.5606 2443.0 1
1270.007 -245.8078 2359.0 1
1195.695 -315.66345 2754.0 1
1186.6017 -305.92075 2669.0 1
1196.2125 -301.33594 2629.0 1
1204.9896 -296.75116 2589.0 1
1213.8849 -292.3956 2551.0 1
1222.4744 -288.15466 2514.0 1
1230.7894 -284.02832 2478.0 1
1256.6104 -284.02832 2478.0 1
1264.3176 -280.01663 2443.0 1
1289.7738 -280.01663 2443.0 1
1287.7731 -274.17102 2392.0 1
1186.5775 -341.73425 2733.0 1
1177.71 -331.2309 2649.0 1
1196.2125 -328.7301 2629.0 1
1204.9896 -323.72852 2589.0 1
1213.8849 -318.977 2551.0 1
1222.4744 -314.3505 2514.0 1
1239.7299 -312.0998 2496.0 1
1238.8616 -305.47266 2443.0 1
1264.3176 -305.47266 2443.0 1
1280.7987 -303.347 2426.0 1
1296.9253 -301.2213 2409.0 1
1148.7772 -367.23212 2711.0 1
1177.0258 -367.23212 2711.0 1
1177.71 -358.8336 2649.0 1
1187.1124 -353.4152 2609.0 1
1196.1465 -348.13223 2570.0 1
1213.8849 -345.5585 2551.0 1
1222.4744 -340.54648 2514.0 1
1230.7894 -335.66992 2478.0 1
1238.8616 -330.92883 2443.0 1
1264.3176 -330.92883 2443.0 1
1280.7987 -328.626 2426.0 1
1287.7731 -324.02036 2392.0 1
1167.9083 -392.4172 2690.0 1
1177.71 -386.43613 2649.0 1
1187.1124 -380.60095 2609.0 1
1196.1465 -374.91162 2570.0 1
1204.8438 -369.36816 2532.0 1
1222.4744 -366.74234 2514.0 1
1239.7299 -364.1165 2496.0 1
1256.6104 -361.49066 2478.0 1
1264.3176 -356.38486 2443.0 1
1289.7738 -356.38486 2443.0 1
1315.2297 -356.38486 2443.0 1
1177.0258 -423.72928 2711.0 1
1186.6017 -417.1647 2669.0 1
1196.2125 -410.9127 2629.0 1
1196.1465 -401.69098 2570.0 1
1213.8849 -398.72128 2551.0 1
1231.2272 -395.7516 2532.0 1
1239.7299 -390.1248 2496.0 1
1247.4824 -384.498 2460.0 1
1273.1156 -384.498 2460.0 1
1289.7738 -381.84088 2443.0 1
1315.2297 -381.84088 2443.0 1
1186.5775 -455.64572 2733.0 1
1215.0553 -455.64572 2733.0 1
1196.2125 -438.30685 2629.0 1
1204.9896 -431.63806 2589.0 1
1222.926 -428.47037 2570.0 1
1231.2272 -422.135 2532.0 1
1248.6702 -419.13403 2514.0 1
1265.7383 -416.1331 2496.0 1
1282.431 -413.13214 2478.0 1
1289.7738 -407.29694 2443.0 1
1324.382 -410.13116 2460.0 1
1225.2183 -499.889 2822.0 1
1234.6171 -491.91772 2777.0 1
1214.4128 -472.7866 2669.0 1
1204.9896 -458.6154 2589.0 1
1222.926 -455.24973 2570.0 1
1231.2272 -448.51843 2532.0 1
1248.6702 -445.3299 2514.0 1
1274.8662 -445.3299 2514.0 1
1291.7465 -442.1414 2496.0 1
1308.2518 -438.95285 2478.0 1
1324.382 -435.76434 2460.0 1
1235.2041 -533.6083 2845.0 1
1254.6235 -529.2944 2822.0 1
1243.5332 -512.6015 2733.0 1
1223.6067 -493.09528 2629.0 1
1222.926 -482.02924 2570.0 1
1231.2272 -474.90195 2532.0 1
1248.6702 -471.52588 2514.0 1
1265.7383 -468.1498 2496.0 1
1291.7465 -468.1498 2496.0 1
1308.2518 -464.7737 2478.0 1
1334.0726 -464.7737 2478.0 1
1235.2041 -563.2531 2845.0 1
1254.6235 -558.6996 2822.0 1
1263.5535 -549.79047 2777.0 1
1261.7716 -536.7238 2711.0 1
1251.001 -520.48944 2629.0 1
1249.7053 -508.80862 2570.0 1
1257.6106 -501.28537 2532.0 1
1274.8662 -497.72174 2514.0 1
1291.7465 -494.15808 2496.0 1
1308.2518 -490.59445 2478.0 1
1334.0726 -490.59445 2478.0 1
1235.2041 -592.898 2845.0 1
1275.519 -597.8996 2869.0 1
1273.5637 -583.3116 2799.0 1
1281.785 -573.9336 2754.0 1
1270.0348 -556.2196 2669.0 1
1258.9443 -539.5476 2589.0 1
1267.0476 -531.6284 2551.0 1
1274.8662 -523.9176 2514.0 1
1291.7465 -520.1664 2496.0 1
1317.7549 -520.1664 2496.0 1
1343.7632 -520.1664 2496.0 1
1256.0442 -633.0462 2893.0 1
1264.849 -622.54285 2845.0 1
1284.0288 -617.51 2822.0 1
1292.4897 -607.6631 2777.0 1
1300.489 -598.03503 2733.0 1
1278.395 -575.2778 2629.0 1
1285.9216 -566.52496 2589.0 1
1293.6292 -558.2098 2551.0 1
1301.062 -550.11346 2514.0 1
1327.2579 -550.11346 2514.0 1
1343.7632 -546.1747 2496.0 1
1277.3184 -674.424 2942.0 1
1275.519 -657.6895 2869.0 1
1284.0288 -646.9152 2822.0 1
1302.7291 -641.6427 2799.0 1
1321.4263 -636.5994 2777.0 1
1318.2689 -621.4696 2711.0 1
1285.9216 -593.5023 2589.0 1
1303.2642 -589.1467 2570.0 1
1320.2104 -584.7912 2551.0 1
1336.761 -580.4356 2532.0 1
1353.4537 -576.3093 2514.0 1
1288.1725 -711.0713 2967.0 1
1275.519 -687.5846 2869.0 1
1294.494 -681.83276 2845.0 1
1313.434 -676.32056 2822.0 1
1331.8949 -670.8084 2799.0 1
1339.1783 -660.0237 2754.0 1
1285.9216 -620.4798 2589.0 1
1312.8992 -620.4798 2589.0 1
1330.0435 -615.9263 2570.0 1
1346.792 -611.3727 2551.0 1
1353.4537 -602.50525 2514.0 1
1277.3184 -735.73535 2942.0 1
1286.1891 -723.48145 2893.0 1
1294.494 -711.4776 2845.0 1
1313.434 -705.72577 2822.0 1
1353.7838 -711.4776 2845.0 1
1372.2445 -705.72577 2822.0 1
1333.1835 -657.4603 2629.0 1
1339.8765 -647.45715 2589.0 1
1356.823 -642.7056 2570.0 1
1363.1444 -633.2026 2532.0 1
1237.0867 -779.6765 2993.0 1
1268.2738 -779.6765 2993.0 1
1266.4641 -759.8785 2917.0 1
1275.519 -747.3745 2869.0 1
1294.494 -741.1225 2845.0 1
1324.1388 -741.1225 2845.0 1
1353.7838 -741.1225 2845.0 1
1360.5775 -684.8545 2629.0 1
1356.823 -669.485 2570.0 1
1383.6023 -669.485 2570.0 1
1268.2738 -810.8635 2993.0 1
1266.4641 -790.2736 2917.0 1
1296.8593 -790.2736 2917.0 1
1305.4142 -777.2694 2869.0 1
1335.3091 -777.2694 2869.0 1
1370.9281 -717.66705 2649.0 1
1377.4128 -706.83026 2609.0 1
1373.3733 -691.1169 2551.0 1
1236.0691 -820.6687 2917.0 1
1277.3184 -827.7022 2942.0 1
1286.1891 -813.91656 2893.0 1
1316.3344 -813.91656 2893.0 1
1335.3091 -807.16437 2869.0 1
1331.8949 -787.4706 2799.0 1
1392.1467 -756.8045 2690.0 1
1398.5308 -745.2696 2649.0 1
1393.8313 -728.3892 2589.0 1
1236.0691 -851.06396 2917.0 1
1266.4641 -851.06396 2917.0 1
1296.8593 -851.06396 2917.0 1
1327.2545 -851.06396 2917.0 1
1324.1388 -830.05725 2845.0 1
1381.2786 -778.70746 2669.0 1
1398.5308 -772.87225 2649.0 1
1404.5986 -761.2019 2609.0 1
1237.0867 -904.42474 2993.0 1
1236.0691 -881.45905 2917.0 1
1266.4641 -881.45905 2917.0 1
1296.8593 -881.45905 2917.0 1
1316.3344 -874.2067 2893.0 1
1343.3256 -800.47485 2649.0 1
1370.9281 -800.47485 2649.0 1
1387.9718 -794.4312 2629.0 1
1404.5986 -788.38763 2609.0 1
1226.3402 -927.4842 2967.0 1
1246.6627 -919.6692 2942.0 1
1266.4641 -911.8542 2917.0 1
1296.8593 -911.8542 2917.0 1
1316.3344 -904.3518 2893.0 1
1325.6566 -834.3294 2669.0 1
1333.1835 -821.8254 2629.0 1
1360.5775 -821.8254 2629.0 1
1387.9718 -821.8254 2629.0 1
1404.5986 -815.57336 2609.0 1
1237.0867 -966.7988 2993.0 1
1236.0691 -942.24927 2917.0 1
1266.4641 -942.24927 2917.0 1
1296.8593 -942.24927 2917.0 1
1316.3344 -934.4968 2893.0 1
1297.8457 -862.1403 2669.0 1
1315.7229 -855.67993 2649.0 1
1323.0413 -842.75916 2609.0 1
1350.227 -842.75916 2609.0 1
1366.854 -836.29877 2589.0 1
1393.8313 -836.29877 2589.0 1
1307.8351 -1082.3462 3246.0 1
1237.0867 -997.98584 2993.0 1
1236.0691 -972.6444 2917.0 1
1277.3184 -980.9804 2942.0 1
1296.8593 -972.6444 2917.0 1
1327.2545 -972.6444 2917.0 1
1270.0348 -889.9513 2669.0 1
1288.1204 -883.2825 2649.0 1
1315.7229 -883.2825 2649.0 1
1333.1835 -876.6137 2629.0 1
1360.5775 -876.6137 2629.0 1
1377.4128 -869.9449 2609.0 1
1393.8313 -863.2761 2589.0 1
1205.8997 -1029.173 2993.0 1
1226.3402 -1020.23267 2967.0 1
1246.6627 -1011.63617 2942.0 1
1277.3184 -1011.63617 2942.0 1
1286.1891 -994.78705 2893.0 1
1253.0884 -946.9905 2754.0 1
1251.9977 -924.98346 2690.0 1
1260.5178 -910.8852 2649.0 1
1288.1204 -910.8852 2649.0 1
1305.7892 -904.008 2629.0 1
1333.1835 -904.008 2629.0 1
1350.227 -897.1308 2609.0 1
1387.9718 -904.008 2629.0 1
1404.5986 -897.1308 2609.0 1
1205.8997 -1060.3601 2993.0 1
1226.3402 -1051.1488 2967.0 1
1236.0691 -1033.4348 2917.0 1
1266.4641 -1033.4348 2917.0 1
1234.6171 -983.8356 2777.0 1
1243.5332 -968.24725 2733.0 1
1251.9977 -953.0132 2690.0 1
1270.0348 -945.5733 2669.0 1
1288.1204 -938.48773 2649.0 1
1315.7229 -938.48773 2649.0 1
1333.1835 -931.4021 2629.0 1
1350.227 -924.3165 2609.0 1
1366.854 -917.23096 2589.0 1
1237.0867 -1091.5471 2993.0 1
1236.0691 -1063.8298 2917.0 1
1245.6241 -1046.3243 2869.0 1
1224.3916 -1004.3838 2754.0 1
1233.5231 -988.70166 2711.0 1
1242.2238 -973.3843 2669.0 1
1260.5178 -966.0903 2649.0 1
1278.395 -958.79626 2629.0 1
1315.7229 -966.0903 2649.0 1
1333.1835 -958.79626 2629.0 1
1227.2538 -1142.6155 3046.0 1
1226.3402 -1112.981 2967.0 1
1186.067 -1049.9608 2799.0 1
1186.5775 -1025.2029 2733.0 1
1205.2744 -1016.95026 2711.0 1
1223.9679 -1009.07275 2690.0 1
1232.9152 -993.6928 2649.0 1
1270.0348 -1001.19525 2669.0 1
1278.395 -986.1904 2629.0 1
1315.7229 -993.6928 2649.0 1
1185.3514 -1134.2585 2942.0 1
1156.9012 -1079.1263 2799.0 1
1158.0997 -1053.6808 2733.0 1
1177.0258 -1045.1989 2711.0 1
1186.6017 -1029.0062 2669.0 1
1214.4128 -1029.0062 2669.0 1
1232.9152 -1021.2954 2649.0 1
1260.5178 -1021.2954 2649.0 1
1288.1204 -1021.2954 2649.0 1
1109.605 -1090.4739 2754.0 1
1138.3016 -1090.4739 2754.0 1
1139.8785 -1065.1324 2690.0 1
1158.7908 -1056.8173 2669.0 1
1195.938 -1065.1324 2690.0 1
1214.4128 -1056.8173 2669.0 1
1232.9152 -1048.8981 2649.0 1
1270.0348 -1056.8173 2669.0 1
1089.9354 -1128.5172 2777.0 1
1101.1439 -1110.6366 2733.0 1
1120.5286 -1101.6962 2711.0 1
1148.7772 -1101.6962 2711.0 1
1167.9083 -1093.1622 2690.0 1
1195.938 -1093.1622 2690.0 1
1223.9679 -1093.1622 2690.0 1
1251.9977 -1093.1622 2690.0 1
