ply
format ascii 1.0
comment : created from Kinect user tracker
element vertex 758
property float x
property float y
property float z
property int userId
end_header
242.94579 195.5417 1706.0 1
254.45638 190.84229 1665.0 1
270.49976 189.92532 1657.0 1
289.155 190.84229 1665.0 1
235.96786 172.6594 1657.0 1
250.78853 170.9922 1641.0 1
266.7451 170.2628 1634.0 1
283.77133 170.2628 1634.0 1
305.03156 172.6594 1657.0 1
322.29758 172.6594 1657.0 1
219.75775 156.1437 1665.0 1
232.6925 153.23653 1634.0 1
248.49614 152.4863 1626.0 1
265.43912 152.4863 1626.0 1
280.99268 151.73605 1618.0 1
297.85217 151.73605 1618.0 1
314.7118 151.73605 1618.0 1
331.57132 151.73605 1618.0 1
348.43094 151.73605 1618.0 1
200.46342 137.46063 1649.0 1
216.59007 136.79375 1641.0 1
232.6925 136.21024 1634.0 1
246.20374 134.29295 1611.0 1
264.13315 134.87646 1618.0 1
278.38766 133.62607 1603.0 1
293.80228 133.04256 1596.0 1
309.0711 132.45903 1589.0 1
327.06293 133.04256 1596.0 1
345.20074 133.62607 1603.0 1
363.71008 134.29295 1611.0 1
385.92896 136.21024 1634.0 1
402.95532 136.21024 1634.0 1
185.05923 121.44511 1665.0 1
201.43596 120.86159 1657.0 1
215.66617 119.18397 1634.0 1
231.55325 118.60045 1626.0 1
244.98112 116.92283 1603.0 1
261.68445 116.92283 1603.0 1
277.172 116.41225 1596.0 1
289.75238 114.80756 1574.0 1
307.51505 115.318146 1581.0 1
325.62845 115.901665 1589.0 1
343.69333 116.41225 1596.0 1
360.3236 116.41225 1596.0 1
376.95386 116.41225 1596.0 1
399.0096 118.01693 1618.0 1
425.89316 120.86159 1657.0 1
443.15915 120.86159 1657.0 1
184.17007 103.59562 1657.0 1
199.49089 102.5953 1641.0 1
215.66617 102.15766 1634.0 1
230.414 101.15734 1618.0 1
244.98112 100.21954 1603.0 1
260.54172 99.7819 1596.0 1
275.95633 99.34426 1589.0 1
291.041 98.8441 1581.0 1
309.0711 99.34426 1589.0 1
323.98904 98.8441 1581.0 1
340.4631 98.8441 1581.0 1
356.9371 98.8441 1581.0 1
373.41107 98.8441 1581.0 1
402.95532 102.15766 1634.0 1
430.00558 104.59594 1673.0 1
445.29874 104.09578 1665.0 1
170.22804 88.048996 1690.0 1
184.17007 86.3297 1657.0 1
200.46342 85.912895 1649.0 1
215.66617 85.1314 1634.0 1
229.41716 83.9331 1611.0 1
244.98112 83.5163 1603.0 1
260.54172 83.151596 1596.0 1
275.95633 82.786896 1589.0 1
291.041 82.3701 1581.0 1
307.51505 82.3701 1581.0 1
323.98904 82.3701 1581.0 1
338.9557 82.0054 1574.0 1
363.71008 83.9331 1611.0 1
387.58228 85.4961 1641.0 1
406.65442 85.912895 1649.0 1
436.43124 88.4658 1698.0 1
169.3215 70.064095 1681.0 1
185.05923 69.39722 1665.0 1
199.49089 68.3969 1641.0 1
215.66617 68.10513 1634.0 1
228.27791 66.81306 1603.0 1
243.91133 66.52129 1596.0 1
260.54172 66.52129 1596.0 1
277.172 66.52129 1596.0 1
292.51367 66.22954 1589.0 1
307.51505 65.896095 1581.0 1
323.98904 65.896095 1581.0 1
343.69333 66.52129 1596.0 1
367.0966 67.7717 1626.0 1
387.58228 68.3969 1641.0 1
410.60013 69.39722 1665.0 1
168.51569 52.29797 1673.0 1
183.2809 51.54773 1649.0 1
197.66739 50.82875 1626.0 1
213.55438 50.57867 1618.0 1
228.27791 50.10977 1603.0 1
244.98112 50.10977 1603.0 1
260.54172 49.89095 1596.0 1
274.567 49.42205 1581.0 1
292.51367 49.67213 1589.0 1
309.0711 49.67213 1589.0 1
327.06293 49.89095 1596.0 1
350.15372 50.82875 1626.0 1
368.90274 51.07883 1634.0 1
389.47177 51.54773 1649.0 1
166.09825 34.365166 1649.0 1
183.2809 34.365166 1649.0 1
197.66739 33.88585 1626.0 1
212.63048 33.573246 1611.0 1
228.27791 33.40653 1603.0 1
244.98112 33.40653 1603.0 1
258.09302 32.948048 1581.0 1
274.567 32.948048 1581.0 1
291.041 32.948048 1581.0 1
309.0711 33.11477 1589.0 1
328.4974 33.40653 1603.0 1
350.15372 33.88585 1626.0 1
372.2892 34.365166 1649.0 1
395.14023 34.865326 1673.0 1
412.57297 34.865326 1673.0 1
167.70987 17.349283 1665.0 1
183.2809 17.182564 1649.0 1
198.63992 17.026264 1634.0 1
213.55438 16.859543 1618.0 1
228.27791 16.703243 1603.0 1
243.91133 16.630304 1596.0 1
261.68445 16.703243 1603.0 1
275.95633 16.557364 1589.0 1
291.041 16.474005 1581.0 1
310.43265 16.630304 1596.0 1
331.57132 16.859543 1618.0 1
351.8765 17.026264 1634.0 1
377.70764 17.432644 1673.0 1
401.04492 17.693142 1698.0 1
420.711 17.776503 1706.0 1
168.51569 0.0 1673.0 1
184.17007 0.0 1657.0 1
200.46342 0.0 1649.0 1
214.61028 0.0 1626.0 1
229.41716 0.0 1611.0 1
244.98112 0.0 1603.0 1
262.99042 0.0 1611.0 1
278.38766 0.0 1603.0 1
295.09088 0.0 1603.0 1
313.35025 0.0 1611.0 1
333.21072 0.0 1626.0 1
351.8765 0.0 1634.0 1
377.70764 0.0 1673.0 1
401.04492 0.0 1698.0 1
418.73813 0.0 1698.0 1
168.51569 -17.432644 1673.0 1
185.05923 -17.349283 1665.0 1
200.46342 -17.182564 1649.0 1
214.61028 -16.942904 1626.0 1
231.55325 -16.942904 1626.0 1
247.27351 -16.859543 1618.0 1
264.13315 -16.859543 1618.0 1
283.77133 -17.026264 1634.0 1
299.32486 -16.942904 1626.0 1
317.8239 -17.026264 1634.0 1
339.56345 -17.265923 1657.0 1
356.82947 -17.265923 1657.0 1
381.54565 -17.609783 1690.0 1
401.04492 -17.693142 1698.0 1
162.1005 -37.407764 1795.0 1
177.17818 -36.657524 1759.0 1
187.8379 -35.219566 1690.0 1
202.4085 -34.698566 1665.0 1
215.66617 -34.05253 1634.0 1
230.414 -33.719086 1618.0 1
248.49614 -33.885807 1626.0 1
269.1938 -34.365128 1649.0 1
289.155 -34.698566 1665.0 1
305.03156 -34.531845 1657.0 1
322.29758 -34.531845 1657.0 1
341.20288 -34.698566 1665.0 1
360.27502 -34.865288 1673.0 1
383.3518 -35.386284 1698.0 1
144.1155 -56.393074 1804.0 1
157.22392 -54.423695 1741.0 1
174.45856 -54.142353 1732.0 1
190.61658 -53.61093 1715.0 1
205.44766 -52.829433 1690.0 1
219.75775 -52.04793 1665.0 1
233.68936 -51.29769 1641.0 1
256.9016 -52.54809 1681.0 1
274.4177 -52.54809 1681.0 1
290.54434 -52.29801 1673.0 1
307.97693 -52.29801 1673.0 1
326.96573 -52.54809 1681.0 1
346.32605 -52.829433 1690.0 1
363.9359 -52.829433 1690.0 1
385.15793 -53.329594 1706.0 1
127.3324 -76.39946 1833.0 1
139.80162 -72.94002 1750.0 1
155.5984 -71.81466 1723.0 1
171.03386 -70.77266 1698.0 1
187.8379 -70.43922 1690.0 1
205.44766 -70.43922 1690.0 1
223.05742 -70.43922 1690.0 1
240.66728 -70.43922 1690.0 1
256.9016 -70.064095 1681.0 1
277.19287 -70.77266 1698.0 1
294.886 -70.77266 1698.0 1
314.0518 -71.106094 1706.0 1
330.27234 -70.77266 1698.0 1
347.96545 -70.77266 1698.0 1
367.38144 -71.106094 1706.0 1
108.82305 -96.0203 1843.0 1
125.31786 -93.988396 1804.0 1
137.64468 -89.768295 1723.0 1
152.61829 -88.048996 1690.0 1
168.51569 -87.1633 1673.0 1
185.05923 -86.7465 1665.0 1
203.38103 -87.1633 1673.0 1
223.05742 -88.048996 1690.0 1
240.66728 -88.048996 1690.0 1
258.27704 -88.048996 1690.0 1
278.49884 -88.8826 1706.0 1
299.22766 -89.768295 1723.0 1
109.41352 -115.84954 1853.0 1
121.566666 -109.40998 1750.0 1
134.28944 -105.0961 1681.0 1
149.63817 -103.59562 1657.0 1
165.29243 -102.5953 1641.0 1
183.2809 -103.09546 1649.0 1
201.43596 -103.59562 1657.0 1
220.81364 -104.59594 1673.0 1
240.66728 -105.65878 1690.0 1
259.49966 -106.15894 1698.0 1
282.74326 -108.28462 1732.0 1
108.23259 -133.69897 1833.0 1
117.39867 -123.26856 1690.0 1
132.37216 -120.86154 1657.0 1
147.56111 -119.18392 1634.0 1
163.78154 -118.6004 1626.0 1
181.6137 -119.18392 1634.0 1
198.63992 -119.18392 1634.0 1
218.70186 -120.86154 1657.0 1
239.38562 -122.61211 1681.0 1
259.49966 -123.85208 1698.0 1
282.74326 -126.33205 1732.0 1
313.29465 -131.58372 1804.0 1
90.59145 -155.29971 1863.0 1
99.78891 -140.87843 1690.0 1
115.661995 -138.79443 1665.0 1
131.09398 -136.7938 1641.0 1
146.11621 -134.87651 1618.0 1
162.27063 -134.29298 1611.0 1
178.16815 -133.62611 1603.0 1
196.69487 -134.87651 1618.0 1
216.59007 -136.7938 1641.0 1
235.96786 -138.12755 1657.0 1
256.9016 -140.12819 1681.0 1
278.49884 -142.21219 1706.0 1
305.47968 -146.63028 1759.0 1
98.312744 -156.1437 1665.0 1
113.50853 -153.23653 1634.0 1
129.25658 -151.73605 1618.0 1
144.12946 -149.6729 1596.0 1
159.24884 -148.26619 1581.0 1
176.61209 -149.01643 1589.0 1
194.0204 -149.6729 1596.0 1
213.55438 -151.73605 1618.0 1
233.68936 -153.89299 1641.0 1
255.67899 -156.89395 1673.0 1
277.19287 -159.23845 1698.0 1
300.79065 -162.42697 1732.0 1
322.1516 -164.11502 1750.0 1
67.20555 -183.2878 1759.0 1
82.568054 -176.9316 1698.0 1
97.84037 -172.6594 1657.0 1
112.9528 -169.4292 1626.0 1
126.939865 -165.57379 1589.0 1
142.14272 -164.0108 1574.0 1
158.54375 -164.0108 1574.0 1
174.94489 -164.0108 1574.0 1
192.1969 -164.7402 1581.0 1
211.57458 -167.0326 1603.0 1
231.55325 -169.4292 1626.0 1
253.23376 -172.6594 1657.0 1
275.8869 -176.09799 1690.0 1
300.79065 -180.4744 1732.0 1
320.49484 -181.4122 1741.0 1
81.7414 -192.6762 1681.0 1
96.89562 -188.0914 1641.0 1
111.9108 -184.6528 1611.0 1
126.939865 -182.13116 1589.0 1
142.14272 -180.41187 1574.0 1
157.83867 -179.60953 1567.0 1
174.94489 -180.41187 1574.0 1
190.49496 -179.60953 1567.0 1
209.72676 -182.13116 1589.0 1
228.27791 -183.73584 1603.0 1
249.71875 -187.28906 1634.0 1
274.4177 -192.6762 1681.0 1
299.22766 -197.49023 1723.0 1
323.80838 -201.61656 1759.0 1
65.180595 -213.3182 1706.0 1
81.35239 -209.19188 1673.0 1
95.537544 -202.31468 1618.0 1
110.8688 -199.5638 1596.0 1
125.74157 -196.81293 1574.0 1
142.14272 -196.81293 1574.0 1
157.83867 -195.93765 1567.0 1
174.16687 -195.93765 1567.0 1
190.49496 -195.93765 1567.0 1
207.74696 -196.81293 1574.0 1
227.28105 -199.5638 1596.0 1
248.49614 -203.315 1626.0 1
273.11172 -209.19188 1673.0 1
296.27533 -213.3182 1706.0 1
323.80838 -219.94533 1759.0 1
64.87494 -230.01111 1698.0 1
79.45595 -221.34167 1634.0 1
95.12422 -218.22609 1611.0 1
110.38253 -215.24597 1589.0 1
125.74157 -213.21407 1574.0 1
142.14272 -213.21407 1574.0 1
157.83867 -212.26585 1567.0 1
173.38884 -211.31763 1560.0 1
190.49496 -212.26585 1567.0 1
207.74696 -213.21407 1574.0 1
227.28105 -216.19418 1596.0 1
248.49614 -220.258 1626.0 1
270.49976 -224.45724 1657.0 1
294.886 -230.01111 1698.0 1
318.83804 -234.61674 1732.0 1
64.87494 -247.70425 1698.0 1
79.45595 -238.36794 1634.0 1
94.65185 -233.84566 1603.0 1
109.8268 -230.63629 1581.0 1
125.182365 -228.59398 1567.0 1
141.51056 -228.59398 1567.0 1
157.83867 -228.59398 1567.0 1
174.16687 -228.59398 1567.0 1
190.49496 -228.59398 1567.0 1
208.67087 -230.63629 1581.0 1
228.27791 -233.84566 1603.0 1
248.49614 -237.2009 1626.0 1
271.80573 -242.89021 1665.0 1
293.49667 -246.53722 1690.0 1
317.18127 -251.35126 1723.0 1
48.12646 -270.7116 1732.0 1
65.180595 -266.6478 1706.0 1
79.79633 -256.48828 1641.0 1
94.23852 -249.45479 1596.0 1
109.8268 -247.11029 1581.0 1
125.74157 -246.01619 1574.0 1
141.51056 -244.92209 1567.0 1
157.13358 -243.828 1560.0 1
174.16687 -244.92209 1567.0 1
191.34593 -246.01619 1574.0 1
210.65068 -249.45479 1596.0 1
229.41716 -251.7993 1611.0 1
249.71875 -255.3942 1634.0 1
271.80573 -260.2395 1665.0 1
293.49667 -264.147 1690.0 1
314.0518 -266.6478 1706.0 1
48.12646 -288.759 1732.0 1
65.52445 -285.92477 1715.0 1
78.33754 -268.5859 1611.0 1
94.23852 -266.0851 1596.0 1
109.34053 -262.41727 1574.0 1
125.182365 -261.2502 1567.0 1
140.87842 -260.0832 1560.0 1
157.13358 -260.0832 1560.0 1
174.94489 -262.41727 1574.0 1
191.34593 -262.41727 1574.0 1
210.65068 -266.0851 1596.0 1
231.55325 -271.0867 1626.0 1
249.71875 -272.42047 1634.0 1
271.80573 -277.58878 1665.0 1
291.93365 -280.2563 1681.0 1
315.7086 -285.92477 1715.0 1
48.12646 -306.80643 1732.0 1
65.83011 -305.2122 1723.0 1
77.60814 -282.7154 1596.0 1
94.23852 -282.7154 1596.0 1
109.34053 -278.81833 1574.0 1
125.182365 -277.57834 1567.0 1
141.51056 -277.57834 1567.0 1
157.83867 -277.57834 1567.0 1
174.94489 -278.81833 1574.0 1
192.1969 -280.0583 1581.0 1
211.57458 -283.95538 1603.0 1
232.6925 -289.44672 1634.0 1
250.78853 -290.6867 1641.0 1
271.80573 -294.93805 1665.0 1
293.49667 -299.36655 1690.0 1
315.7086 -303.79507 1715.0 1
48.62662 -328.23004 1750.0 1
66.51783 -326.542 1741.0 1
77.948524 -300.6587 1603.0 1
94.23852 -299.3458 1596.0 1
109.34053 -295.21945 1574.0 1
125.182365 -293.90656 1567.0 1
141.51056 -293.90656 1567.0 1
157.83867 -293.90656 1567.0 1
174.94489 -295.21945 1574.0 1
193.16943 -298.03287 1589.0 1
214.61028 -304.9726 1626.0 1
235.96786 -310.78696 1657.0 1
254.45638 -312.2874 1665.0 1
274.4177 -315.2884 1681.0 1
293.49667 -316.97644 1690.0 1
314.0518 -319.9774 1706.0 1
48.876698 -348.24683 1759.0 1
66.173965 -342.90137 1732.0 1
77.60814 -315.9761 1596.0 1
94.23852 -315.9761 1596.0 1
109.34053 -311.62054 1574.0 1
125.74157 -311.62054 1574.0 1
141.51056 -310.23468 1567.0 1
158.54375 -311.62054 1574.0 1
175.72292 -313.00638 1581.0 1
193.16943 -314.59024 1589.0 1
219.75775 -329.63672 1665.0 1
238.24637 -331.22055 1673.0 1
256.9016 -332.80438 1681.0 1
275.8869 -334.5862 1690.0 1
297.83832 -339.5357 1715.0 1
323.80838 -348.24683 1759.0 1
49.126778 -368.4512 1768.0 1
67.20555 -366.5756 1759.0 1
77.60814 -332.60638 1596.0 1
93.825195 -331.14758 1589.0 1
109.34053 -328.0216 1574.0 1
125.182365 -326.5628 1567.0 1
141.51056 -326.5628 1567.0 1
157.83867 -326.5628 1567.0 1
174.94489 -328.0216 1574.0 1
205.44766 -352.19598 1690.0 1
221.86954 -350.3204 1681.0 1
240.66728 -352.19598 1690.0 1
259.49966 -353.8632 1698.0 1
279.96808 -357.406 1715.0 1
305.47968 -366.5756 1759.0 1
328.77875 -372.2024 1786.0 1
31.329466 -394.75125 1804.0 1
49.626938 -390.8125 1786.0 1
60.97786 -349.2367 1596.0 1
77.60814 -349.2367 1596.0 1
93.825195 -347.70496 1589.0 1
109.34053 -344.42267 1574.0 1
125.182365 -342.89093 1567.0 1
141.51056 -342.89093 1567.0 1
157.83867 -342.89093 1567.0 1
174.94489 -344.42267 1574.0 1
206.4202 -371.55634 1698.0 1
224.11331 -371.55634 1698.0 1
244.22745 -375.27628 1715.0 1
263.3203 -377.02682 1723.0 1
284.2125 -380.9656 1741.0 1
308.60565 -388.8431 1777.0 1
330.43552 -392.78186 1795.0 1
31.6768 -418.13373 1824.0 1
50.404964 -415.8413 1814.0 1
60.97786 -365.867 1596.0 1
77.60814 -365.867 1596.0 1
93.35282 -362.4284 1581.0 1
110.38253 -364.26233 1589.0 1
126.939865 -364.26233 1589.0 1
142.77486 -362.4284 1581.0 1
158.54375 -360.82373 1574.0 1
173.38884 -357.61435 1560.0 1
207.39273 -391.0834 1706.0 1
227.41298 -394.98047 1723.0 1
245.3667 -394.98047 1723.0 1
264.69577 -397.04364 1732.0 1
288.62015 -405.29626 1768.0 1
310.16867 -409.4226 1786.0 1
332.0923 -413.54892 1804.0 1
34.194965 -471.89056 1969.0 1
52.044376 -448.8832 1873.0 1
61.245308 -384.17502 1603.0 1
77.948524 -384.17502 1603.0 1
93.825195 -380.81976 1589.0 1
110.38253 -380.81976 1589.0 1
127.49908 -382.49738 1596.0 1
144.12946 -382.49738 1596.0 1
175.3651 -417.24808 1741.0 1
191.50575 -412.9342 1723.0 1
209.45937 -412.9342 1723.0 1
228.60086 -415.09116 1732.0 1
246.64836 -415.09116 1732.0 1
267.44662 -419.40503 1750.0 1
291.5586 -428.03278 1786.0 1
313.29465 -432.34668 1804.0 1
335.77402 -437.13986 1824.0 1
34.003933 -489.65665 1958.0 1
52.322243 -470.90067 1883.0 1
61.245308 -400.87823 1603.0 1
77.60814 -399.1277 1596.0 1
94.23852 -399.1277 1596.0 1
110.8688 -399.1277 1596.0 1
127.49908 -399.1277 1596.0 1
144.12946 -399.1277 1596.0 1
173.55202 -430.88785 1723.0 1
192.50607 -433.13858 1732.0 1
210.55347 -433.13858 1732.0 1
229.78874 -435.38928 1741.0 1
250.49335 -439.89072 1759.0 1
270.1975 -442.14145 1768.0 1
291.5586 -446.64288 1786.0 1
315.03134 -453.64514 1814.0 1
13.372384 -501.4625 1925.0 1
33.06613 -495.992 1904.0 1
44.764275 -419.6655 1611.0 1
61.245308 -417.58148 1603.0 1
77.60814 -415.758 1596.0 1
93.825195 -413.93448 1589.0 1
110.8688 -415.758 1596.0 1
127.49908 -415.758 1596.0 1
144.12946 -415.758 1596.0 1
174.45856 -451.186 1732.0 1
192.50607 -451.186 1732.0 1
211.64757 -453.5305 1741.0 1
230.97662 -455.875 1750.0 1
250.49335 -458.21948 1759.0 1
271.57297 -462.90848 1777.0 1
293.0278 -467.5975 1795.0 1
316.768 -475.15198 1824.0 1
13.157037 -513.12244 1894.0 1
32.18043 -502.01474 1853.0 1
50.93291 -496.59634 1833.0 1
61.245308 -434.28473 1603.0 1
77.60814 -432.3883 1596.0 1
93.825195 -430.49185 1589.0 1
110.8688 -432.3883 1596.0 1
127.49908 -432.3883 1596.0 1
157.22392 -471.6717 1741.0 1
174.45856 -469.23343 1732.0 1
193.5064 -471.6717 1741.0 1
212.74167 -474.11 1750.0 1
232.16449 -476.54825 1759.0 1
253.05667 -481.4248 1777.0 1
272.9484 -483.8631 1786.0 1
294.49704 -488.73965 1804.0 1
315.03134 -491.44885 1814.0 1
13.011156 -526.94977 1873.0 1
32.006767 -518.5096 1843.0 1
44.347477 -449.0186 1596.0 1
61.245308 -450.98798 1603.0 1
77.60814 -449.0186 1596.0 1
94.23852 -449.0186 1596.0 1
110.8688 -449.0186 1596.0 1
127.49908 -449.0186 1596.0 1
158.84944 -494.877 1759.0 1
176.27164 -492.34497 1750.0 1
195.50703 -494.877 1759.0 1
214.92986 -497.4091 1768.0 1
233.35237 -497.4091 1768.0 1
254.33833 -502.4732 1786.0 1
274.32385 -505.00525 1795.0 1
296.1295 -510.3507 1814.0 1
318.331 -515.69617 1833.0 1
-6.505578 -546.4665 1873.0 1
12.802755 -537.7137 1843.0 1
31.8331 -534.7961 1833.0 1
44.958782 -472.06772 1618.0 1
61.245308 -467.6913 1603.0 1
77.60814 -465.649 1596.0 1
93.35282 -461.27258 1581.0 1
109.8268 -461.27258 1581.0 1
141.23958 -515.8317 1768.0 1
158.84944 -513.2059 1759.0 1
177.17818 -513.2059 1759.0 1
196.50735 -515.8317 1768.0 1
214.92986 -515.8317 1768.0 1
233.35237 -515.8317 1768.0 1
255.61998 -523.7092 1795.0 1
275.69928 -526.3351 1804.0 1
297.76196 -532.1703 1824.0 1
-6.6132517 -575.3507 1904.0 1
13.080623 -569.00494 1883.0 1
31.6768 -551.17633 1824.0 1
44.541985 -484.39456 1603.0 1
60.97786 -482.2793 1596.0 1
77.26775 -480.16403 1589.0 1
93.35282 -477.74658 1581.0 1
109.8268 -477.74658 1581.0 1
141.23958 -534.2543 1768.0 1
159.6622 -534.2543 1768.0 1
178.08472 -534.2543 1768.0 1
196.50735 -534.2543 1768.0 1
216.02396 -536.9739 1777.0 1
236.91602 -542.4131 1795.0 1
256.90164 -545.13275 1804.0 1
278.7558 -551.17633 1824.0 1
299.23117 -553.89594 1833.0 1
13.080623 -588.6258 1883.0 1
32.006767 -576.12177 1843.0 1
44.541985 -501.09778 1603.0 1
61.245308 -501.09778 1603.0 1
77.26775 -496.7214 1589.0 1
93.35282 -494.22058 1581.0 1
109.8268 -494.22058 1581.0 1
141.23958 -552.6768 1768.0 1
159.6622 -552.6768 1768.0 1
178.08472 -552.6768 1768.0 1
199.50832 -561.117 1795.0 1
218.21216 -561.117 1795.0 1
238.1039 -563.9304 1804.0 1
258.3257 -567.0564 1814.0 1
283.18777 -579.2478 1853.0 1
-27.355947 -636.02637 1969.0 1
-6.5785184 -611.79987 1894.0 1
13.080623 -608.24664 1883.0 1
32.18043 -598.556 1853.0 1
44.541985 -517.801 1603.0 1
60.97786 -515.5399 1596.0 1
77.26775 -513.27875 1589.0 1
92.93949 -508.43344 1574.0 1
109.8268 -510.69458 1581.0 1
126.939865 -513.27875 1589.0 1
162.1005 -579.82086 1795.0 1
180.80434 -579.82086 1795.0 1
199.50832 -579.82086 1795.0 1
218.21216 -579.82086 1795.0 1
239.42377 -585.95825 1814.0 1
262.4555 -595.3258 1843.0 1
286.24432 -605.0164 1873.0 1
-27.20312 -652.8755 1958.0 1
-6.5403113 -627.8675 1883.0 1
13.080623 -627.8675 1883.0 1
32.18043 -617.86426 1853.0 1
50.93291 -611.1955 1833.0 1
60.97786 -532.1702 1596.0 1
77.60814 -532.1702 1596.0 1
93.35282 -527.1686 1581.0 1
109.8268 -527.1686 1581.0 1
126.939865 -529.8361 1589.0 1
162.1005 -598.5248 1795.0 1
180.80434 -598.5248 1795.0 1
199.50832 -598.5248 1795.0 1
219.30626 -601.5257 1804.0 1
241.9315 -611.1955 1833.0 1
268.15176 -627.8675 1883.0 1
321.0888 -700.5574 2101.0 1
-6.6132517 -654.7095 1904.0 1
13.080623 -647.4884 1883.0 1
32.18043 -637.1726 1853.0 1
51.210777 -633.734 1843.0 1
60.97786 -548.8006 1596.0 1
77.60814 -548.8006 1596.0 1
93.35282 -543.6427 1581.0 1
109.34053 -541.23566 1574.0 1
126.30077 -543.6427 1581.0 1
162.1005 -617.2287 1795.0 1
181.71088 -620.3235 1804.0 1
201.6201 -623.7621 1814.0 1
222.8317 -630.2954 1833.0 1
247.21097 -644.0498 1873.0 1
278.83228 -673.2779 1958.0 1
321.0888 -722.4499 2101.0 1
345.10352 -726.92004 2114.0 1
13.011156 -663.56647 1873.0 1
32.18043 -656.48083 1853.0 1
50.93291 -649.39526 1833.0 1
60.97786 -565.4309 1596.0 1
77.26775 -562.9509 1589.0 1
93.35282 -560.1167 1581.0 1
109.8268 -560.1167 1581.0 1
126.939865 -562.9509 1589.0 1
162.91325 -639.12115 1804.0 1
181.71088 -639.12115 1804.0 1
202.73157 -646.2067 1824.0 1
224.04736 -652.93805 1843.0 1
251.30255 -674.54913 1904.0 1
281.9652 -701.4744 1980.0 1
323.07553 -748.94794 2114.0 1
351.47012 -762.76483 2153.0 1
-6.686192 -702.0475 1925.0 1
13.080623 -686.7301 1883.0 1
32.18043 -675.78906 1853.0 1
51.210777 -672.1421 1843.0 1
61.245308 -584.6141 1603.0 1
77.60814 -582.0612 1596.0 1
93.825195 -579.5083 1589.0 1
109.8268 -576.5907 1581.0 1
126.939865 -579.5083 1589.0 1
143.49731 -579.5083 1589.0 1
182.71814 -661.5658 1814.0 1
203.73189 -668.4951 1833.0 1
225.26303 -675.78906 1853.0 1
252.75441 -698.4005 1915.0 1
297.34515 -761.4936 2088.0 1
323.07553 -770.97577 2114.0 1
358.16324 -800.1518 2194.0 1
-5.9567895 -643.33075 1715.0 1
13.080623 -706.35095 1883.0 1
32.3541 -698.8485 1863.0 1
50.93291 -687.5949 1833.0 1
70.032845 -687.5949 1833.0 1
77.26775 -596.0657 1589.0 1
93.825195 -596.0657 1589.0 1
109.8268 -593.0647 1581.0 1
126.939865 -596.0657 1589.0 1
144.76161 -601.3173 1603.0 1
182.71814 -680.46765 1814.0 1
203.73189 -687.5949 1833.0 1
225.26303 -695.09735 1853.0 1
277.30392 -788.1271 2101.0 1
301.04773 -793.00366 2114.0 1
327.04904 -802.7568 2140.0 1
353.75558 -812.885 2167.0 1
13.157037 -730.2127 1894.0 1
32.527767 -722.1164 1873.0 1
51.210777 -710.5502 1843.0 1
70.032845 -706.69476 1833.0 1
77.60814 -615.3218 1596.0 1
93.35282 -609.5387 1581.0 1
109.8268 -609.5387 1581.0 1
126.939865 -612.62305 1589.0 1
144.76161 -618.02057 1603.0 1
184.63196 -706.69476 1833.0 1
204.84335 -710.5502 1843.0 1
227.69437 -722.1164 1873.0 1
279.01974 -815.0315 2114.0 1
306.60156 -830.06757 2153.0 1
331.17535 -835.46515 2167.0 1
13.080623 -745.5927 1883.0 1
32.527767 -741.6331 1873.0 1
51.210777 -729.75433 1843.0 1
70.032845 -725.7947 1833.0 1
77.26775 -629.1805 1589.0 1
93.825195 -629.1805 1589.0 1
109.8268 -626.01276 1581.0 1
126.939865 -629.1805 1589.0 1
143.49731 -629.1805 1589.0 1
184.63196 -725.7947 1833.0 1
207.06628 -737.6735 1863.0 1
256.99194 -837.05945 2114.0 1
282.45142 -847.35443 2140.0 1
306.60156 -852.5019 2153.0 1
331.17535 -858.04535 2167.0 1
362.8974 -880.2191 2223.0 1
13.226503 -773.7475 1904.0 1
32.527767 -761.1497 1873.0 1
51.76651 -757.08594 1863.0 1
70.41491 -748.9584 1843.0 1
89.61892 -748.9584 1843.0 1
93.35282 -642.48676 1581.0 1
110.38253 -645.73785 1589.0 1
126.939865 -645.73785 1589.0 1
144.12946 -648.58246 1596.0 1
184.63196 -744.89453 1833.0 1
207.06628 -757.08594 1863.0 1
260.15265 -869.6532 2140.0 1
284.16724 -874.93616 2153.0 1
306.60156 -874.93616 2153.0 1
335.30167 -891.5977 2194.0 1
369.917 -920.85706 2266.0 1
