ply
format ascii 1.0
comment : created from Kinect user tracker
element vertex 647
property float x
property float y
property float z
property int userId
end_header
762.00073 425.30267 2551.0 1
857.0207 407.29694 2443.0 1
745.57184 390.1248 2496.0 1
755.1964 381.84088 2443.0 1
786.08484 384.498 2460.0 1
806.1086 381.84088 2443.0 1
843.4781 387.3114 2478.0 1
875.61346 390.1248 2496.0 1
735.4192 372.1399 2551.0 1
750.9486 366.74234 2514.0 1
766.0158 361.49066 2478.0 1
791.8367 361.49066 2478.0 1
806.1086 356.38486 2443.0 1
831.5646 356.38486 2443.0 1
869.29895 361.49066 2478.0 1
724.9541 353.41513 2609.0 1
740.89667 348.13217 2570.0 1
756.3253 342.9847 2532.0 1
771.58014 338.10815 2496.0 1
791.8367 335.66986 2478.0 1
811.71796 333.23157 2460.0 1
843.4781 335.66986 2478.0 1
869.29895 335.66986 2478.0 1
888.61755 333.23157 2460.0 1
746.3741 323.72858 2589.0 1
756.3253 316.6013 2532.0 1
771.58014 312.09985 2496.0 1
791.8367 309.84912 2478.0 1
817.6574 309.84912 2478.0 1
849.60504 312.09985 2496.0 1
869.29895 309.84912 2478.0 1
901.6217 312.09985 2496.0 1
920.9405 309.84912 2478.0 1
740.89667 294.57336 2570.0 1
756.3253 290.2178 2532.0 1
777.1444 288.15466 2514.0 1
791.8367 284.02832 2478.0 1
817.6574 284.02832 2478.0 1
843.4781 284.02832 2478.0 1
875.61346 286.0915 2496.0 1
928.3525 294.57336 2570.0 1
746.3741 269.7738 2589.0 1
756.3253 263.83438 2532.0 1
771.58014 260.0832 2496.0 1
791.8367 258.20758 2478.0 1
823.5968 260.0832 2496.0 1
849.60504 260.0832 2496.0 1
888.2425 263.83438 2532.0 1
928.3525 267.794 2570.0 1
762.00073 239.2328 2551.0 1
777.1444 235.76294 2514.0 1
803.3404 235.76294 2514.0 1
829.5362 235.76294 2514.0 1
861.85895 237.45097 2532.0 1
894.90784 239.2328 2551.0 1
790.53064 237.15918 2845.0 1
806.9143 233.32462 2799.0 1
816.36536 227.82286 2733.0 1
782.7087 211.0675 2532.0 1
803.3404 209.56702 2514.0 1
829.5362 209.56702 2514.0 1
874.79364 214.23518 2570.0 1
908.23846 215.81903 2589.0 1
760.8858 207.51431 2845.0 1
777.7488 204.15907 2799.0 1
793.9414 200.87677 2754.0 1
809.7938 197.74036 2711.0 1
806.5114 190.30048 2609.0 1
827.3064 188.84167 2589.0 1
854.2837 188.84167 2589.0 1
881.261 188.84167 2589.0 1
908.23846 188.84167 2589.0 1
935.21576 188.84167 2589.0 1
955.13196 187.45581 2570.0 1
760.8858 177.86937 2845.0 1
771.63574 173.61801 2777.0 1
787.8874 170.86713 2733.0 1
809.7938 169.49168 2711.0 1
818.87646 165.61545 2649.0 1
840.08826 164.36505 2629.0 1
860.883 163.11465 2609.0 1
881.261 161.86426 2589.0 1
901.5732 160.67638 2570.0 1
928.3525 160.67638 2570.0 1
948.0707 159.4885 2551.0 1
974.65204 159.4885 2551.0 1
760.8858 148.2245 2845.0 1
771.63574 144.6817 2777.0 1
787.8874 142.3893 2733.0 1
797.2481 139.0549 2669.0 1
818.87646 138.0129 2649.0 1
840.08826 136.9709 2629.0 1
860.883 135.9289 2609.0 1
874.79364 133.897 2570.0 1
901.5732 133.897 2570.0 1
921.4892 132.9071 2551.0 1
948.0707 132.9071 2551.0 1
967.39276 131.91719 2532.0 1
986.71136 130.9794 2514.0 1
748.58325 116.662346 2799.0 1
771.63574 115.745384 2777.0 1
781.54504 112.99451 2711.0 1
797.2481 111.24394 2669.0 1
818.87646 110.41035 2649.0 1
833.6973 108.74314 2609.0 1
860.883 108.74314 2609.0 1
874.79364 107.11762 2570.0 1
894.90784 106.32571 2551.0 1
921.4892 106.32571 2551.0 1
948.0707 106.32571 2551.0 1
960.51556 104.78355 2514.0 1
979.6466 104.0333 2496.0 1
1012.90735 104.78355 2514.0 1
1024.2234 103.283066 2478.0 1
743.5781 90.435165 2893.0 1
748.58325 87.49673 2799.0 1
765.2448 86.09003 2754.0 1
781.54504 84.74584 2711.0 1
791.274 82.807724 2649.0 1
812.694 82.182526 2629.0 1
840.08826 82.182526 2629.0 1
854.2837 80.93213 2589.0 1
874.79364 80.33819 2570.0 1
894.90784 79.74425 2551.0 1
914.62585 79.15031 2532.0 1
927.6301 78.02495 2496.0 1
953.63837 78.02495 2496.0 1
979.6466 78.02495 2496.0 1
1012.90735 78.58762 2514.0 1
1031.6633 78.02495 2496.0 1
730.9318 56.955734 2733.0 1
759.4096 56.955734 2733.0 1
775.491 56.059612 2690.0 1
791.274 55.205173 2649.0 1
812.694 54.788372 2629.0 1
833.6973 54.37157 2609.0 1
854.2837 53.954773 2589.0 1
874.79364 53.55881 2570.0 1
894.90784 53.162853 2551.0 1
921.4892 53.162853 2551.0 1
941.0094 52.76689 2532.0 1
953.63837 52.01665 2496.0 1
979.6466 52.01665 2496.0 1
1012.90735 52.391773 2514.0 1
1046.5431 52.76689 2532.0 1
736.54816 28.696651 2754.0 1
759.4096 28.477833 2733.0 1
775.491 28.029772 2690.0 1
791.274 27.602552 2649.0 1
812.694 27.394154 2629.0 1
833.6973 27.185753 2609.0 1
848.01434 26.779373 2570.0 1
868.3263 26.581394 2551.0 1
894.90784 26.581394 2551.0 1
914.62585 26.383415 2532.0 1
941.0094 26.383415 2532.0 1
953.63837 26.008295 2496.0 1
986.71136 26.195854 2514.0 1
1005.655 26.008295 2496.0 1
1039.1031 26.195854 2514.0 1
719.4176 0.0 2799.0 1
742.69946 0.0 2777.0 1
759.4096 0.0 2733.0 1
775.491 0.0 2690.0 1
791.274 0.0 2649.0 1
812.694 0.0 2629.0 1
827.3064 0.0 2589.0 1
848.01434 0.0 2570.0 1
868.3263 0.0 2551.0 1
894.90784 0.0 2551.0 1
914.62585 0.0 2532.0 1
941.0094 0.0 2532.0 1
967.39276 0.0 2532.0 1
986.71136 0.0 2514.0 1
1012.90735 0.0 2514.0 1
1039.1031 0.0 2514.0 1
736.54816 -28.696651 2754.0 1
759.4096 -28.477833 2733.0 1
781.54504 -28.248592 2711.0 1
791.274 -27.602552 2649.0 1
812.694 -27.394154 2629.0 1
827.3064 -26.977354 2589.0 1
848.01434 -26.779373 2570.0 1
874.79364 -26.779373 2570.0 1
888.2425 -26.383415 2532.0 1
921.4892 -26.581394 2551.0 1
948.0707 -26.581394 2551.0 1
967.39276 -26.383415 2532.0 1
986.71136 -26.195854 2514.0 1
1012.90735 -26.195854 2514.0 1
1046.5431 -26.383415 2532.0 1
789.8429 -64.04126 3073.0 1
760.8858 -59.28974 2845.0 1
759.4096 -56.955666 2733.0 1
775.491 -56.059544 2690.0 1
791.274 -55.205105 2649.0 1
812.694 -54.788307 2629.0 1
833.6973 -54.371506 2609.0 1
848.01434 -53.558746 2570.0 1
874.79364 -53.558746 2570.0 1
901.5732 -53.558746 2570.0 1
935.21576 -53.95471 2589.0 1
955.13196 -53.558746 2570.0 1
974.65204 -53.16279 2551.0 1
986.71136 -52.39171 2514.0 1
1012.90735 -52.39171 2514.0 1
1054.3962 -53.16279 2551.0 1
778.5373 -98.68788 3157.0 1
789.8429 -96.06204 3073.0 1
748.58325 -87.496796 2799.0 1
759.4096 -85.43363 2733.0 1
781.54504 -84.74591 2711.0 1
797.2481 -83.43299 2669.0 1
818.87646 -82.80779 2649.0 1
840.08826 -82.182594 2629.0 1
860.883 -81.55739 2609.0 1
881.261 -80.93219 2589.0 1
915.25464 -81.55739 2609.0 1
942.4403 -81.55739 2609.0 1
962.1933 -80.93219 2589.0 1
974.65204 -79.74431 2551.0 1
986.71136 -78.58769 2514.0 1
1012.90735 -78.58769 2514.0 1
1046.5431 -79.15037 2532.0 1
771.63226 -130.41675 3129.0 1
782.9032 -126.957306 3046.0 1
748.58325 -116.662346 2799.0 1
759.4096 -113.91147 2733.0 1
781.54504 -112.99451 2711.0 1
803.52094 -112.119225 2690.0 1
825.059 -111.24394 2669.0 1
846.4792 -110.41035 2649.0 1
867.48236 -109.576744 2629.0 1
888.0687 -108.74314 2609.0 1
922.27075 -109.576744 2629.0 1
949.66486 -109.576744 2629.0 1
977.05914 -109.576744 2629.0 1
981.9113 -107.11762 2570.0 1
1001.2334 -106.32571 2551.0 1
1027.815 -106.32571 2551.0 1
1054.3962 -106.32571 2551.0 1
771.63226 -163.0209 3129.0 1
775.96344 -157.2899 3019.0 1
754.73456 -147.0262 2822.0 1
759.4096 -142.3893 2733.0 1
781.54504 -141.2431 2711.0 1
803.52094 -140.149 2690.0 1
818.87646 -138.0129 2649.0 1
846.4792 -138.0129 2649.0 1
874.08167 -138.0129 2649.0 1
894.87646 -136.9709 2629.0 1
922.27075 -136.9709 2629.0 1
949.66486 -136.9709 2629.0 1
984.49207 -138.0129 2649.0 1
989.1706 -134.8869 2589.0 1
1008.6907 -133.897 2570.0 1
1035.4701 -133.897 2570.0 1
1054.3962 -132.9071 2551.0 1
764.7273 -193.87448 3101.0 1
789.8429 -192.12393 3073.0 1
748.58325 -174.99345 2799.0 1
765.2448 -172.18005 2754.0 1
787.8874 -170.86713 2733.0 1
803.52094 -168.17877 2690.0 1
831.55066 -168.17877 2690.0 1
846.4792 -165.61545 2649.0 1
874.08167 -165.61545 2649.0 1
901.6842 -165.61545 2649.0 1
929.28687 -165.61545 2649.0 1
956.8894 -165.61545 2649.0 1
991.925 -166.86584 2669.0 1
996.8119 -163.11465 2609.0 1
1008.6907 -160.67638 2570.0 1
1035.4701 -160.67638 2570.0 1
1046.5431 -158.30061 2532.0 1
732.41473 -226.18687 3101.0 1
764.7273 -226.18687 3101.0 1
775.96344 -220.2058 3019.0 1
754.73456 -205.83662 2822.0 1
765.2448 -200.87671 2754.0 1
781.54504 -197.74028 2711.0 1
809.7938 -197.74028 2711.0 1
838.04236 -197.74028 2711.0 1
852.8701 -194.6768 2669.0 1
874.08167 -193.218 2649.0 1
901.6842 -193.218 2649.0 1
929.28687 -193.218 2649.0 1
956.8894 -193.218 2649.0 1
991.925 -194.6768 2669.0 1
1004.45325 -191.7592 2629.0 1
1008.6907 -187.45575 2570.0 1
1043.1254 -188.8416 2589.0 1
1062.2495 -187.45575 2570.0 1
745.64124 -263.16757 3157.0 1
764.7273 -258.49942 3101.0 1
749.7467 -243.16118 2917.0 1
754.73456 -235.24197 2822.0 1
771.63574 -231.49077 2777.0 1
787.8874 -227.82294 2733.0 1
809.7938 -225.98901 2711.0 1
838.04236 -225.98901 2711.0 1
859.58057 -224.23845 2690.0 1
880.681 -222.48788 2669.0 1
901.6842 -220.8207 2649.0 1
929.28687 -220.8207 2649.0 1
971.6997 -224.23845 2690.0 1
999.7296 -224.23845 2690.0 1
1012.0946 -220.8207 2649.0 1
1023.9976 -217.48628 2609.0 1
1043.1254 -215.81909 2589.0 1
1062.2495 -214.23524 2570.0 1
739.02795 -293.43765 3129.0 1
767.30457 -269.05484 2869.0 1
771.63574 -260.4271 2777.0 1
787.8874 -256.30075 2733.0 1
809.7938 -254.23761 2711.0 1
838.04236 -254.23761 2711.0 1
866.2911 -254.23761 2711.0 1
887.6103 -252.26822 2690.0 1
901.6842 -248.42325 2649.0 1
929.28687 -248.42325 2649.0 1
979.28546 -254.23761 2711.0 1
999.7296 -252.26822 2690.0 1
1004.45325 -246.54764 2629.0 1
1023.9976 -244.67204 2609.0 1
1035.4701 -241.01462 2570.0 1
1062.2495 -241.01462 2570.0 1
706.4239 -326.0418 3129.0 1
739.02795 -326.0418 3129.0 1
771.63226 -326.0418 3129.0 1
767.30457 -298.9498 2869.0 1
784.1397 -294.0524 2822.0 1
793.9414 -286.9668 2754.0 1
816.36536 -284.7786 2733.0 1
844.84314 -284.7786 2733.0 1
866.2911 -282.4862 2711.0 1
887.6103 -280.298 2690.0 1
908.49194 -278.1098 2669.0 1
943.6699 -280.298 2690.0 1
971.6997 -280.298 2690.0 1
999.7296 -280.298 2690.0 1
1004.45325 -273.9418 2629.0 1
1016.1479 -269.7738 2589.0 1
1035.4701 -267.794 2570.0 1
1086.6357 -273.9418 2629.0 1
719.47327 -382.94537 3341.0 1
700.1024 -355.43658 3101.0 1
739.02795 -358.64594 3129.0 1
773.72327 -331.5956 2893.0 1
790.53064 -326.09387 2845.0 1
806.9143 -320.82135 2799.0 1
822.6382 -315.66345 2754.0 1
844.84314 -313.25644 2733.0 1
866.2911 -310.7348 2711.0 1
894.5396 -310.7348 2711.0 1
915.6401 -308.32776 2690.0 1
943.6699 -308.32776 2690.0 1
979.28546 -310.7348 2711.0 1
1007.5342 -310.7348 2711.0 1
1004.45325 -301.33594 2629.0 1
1023.9976 -299.04355 2609.0 1
1043.1254 -296.75116 2589.0 1
706.4239 -391.2501 3129.0 1
739.02795 -391.2501 3129.0 1
767.30457 -358.7397 2869.0 1
784.1397 -352.86282 2822.0 1
800.57196 -347.23602 2777.0 1
816.36536 -341.73425 2733.0 1
838.04236 -338.98337 2711.0 1
866.2911 -338.98337 2711.0 1
894.5396 -338.98337 2711.0 1
915.6401 -336.35754 2690.0 1
951.03687 -338.98337 2711.0 1
987.2324 -341.73425 2733.0 1
1007.5342 -338.98337 2711.0 1
1004.45325 -328.7301 2629.0 1
1023.9976 -326.2293 2609.0 1
1043.1254 -323.72852 2589.0 1
700.1024 -420.06152 3101.0 1
752.4906 -431.57562 3186.0 1
771.63226 -423.8544 3129.0 1
762.5981 -401.90988 2967.0 1
767.30457 -388.6348 2869.0 1
784.1397 -382.26816 2822.0 1
806.9143 -379.1526 2799.0 1
816.36536 -370.21222 2733.0 1
838.04236 -367.23212 2711.0 1
866.2911 -367.23212 2711.0 1
894.5396 -367.23212 2711.0 1
922.78815 -367.23212 2711.0 1
958.75464 -370.21222 2733.0 1
987.2324 -370.21222 2733.0 1
999.7296 -364.38745 2690.0 1
1004.45325 -356.1244 2629.0 1
1023.9976 -353.4152 2609.0 1
767.30457 -418.52975 2869.0 1
777.7488 -408.31815 2799.0 1
793.9414 -401.75354 2754.0 1
816.36536 -398.69006 2733.0 1
838.04236 -395.4807 2711.0 1
866.2911 -395.4807 2711.0 1
894.5396 -395.4807 2711.0 1
922.78815 -395.4807 2711.0 1
958.75464 -398.69006 2733.0 1
987.2324 -398.69006 2733.0 1
984.49207 -386.43613 2649.0 1
1012.0946 -386.43613 2649.0 1
1031.8474 -383.51852 2629.0 1
754.73456 -441.07858 2822.0 1
777.7488 -437.4837 2799.0 1
787.8874 -427.16788 2733.0 1
816.36536 -427.16788 2733.0 1
838.04236 -423.72928 2711.0 1
866.2911 -423.72928 2711.0 1
894.5396 -423.72928 2711.0 1
922.78815 -423.72928 2711.0 1
958.75464 -427.16788 2733.0 1
971.6997 -420.447 2690.0 1
984.49207 -414.0387 2649.0 1
1012.0946 -414.0387 2649.0 1
1039.6971 -414.0387 2649.0 1
754.73456 -470.4838 2822.0 1
777.7488 -466.64923 2799.0 1
793.9414 -459.14685 2754.0 1
816.36536 -455.64572 2733.0 1
844.84314 -455.64572 2733.0 1
873.3211 -455.64572 2733.0 1
901.7989 -455.64572 2733.0 1
930.2767 -455.64572 2733.0 1
974.1901 -462.9814 2777.0 1
956.8894 -441.64124 2649.0 1
984.49207 -441.64124 2649.0 1
1012.0946 -441.64124 2649.0 1
731.24084 -503.96323 2845.0 1
754.73456 -499.889 2822.0 1
771.63574 -491.91772 2777.0 1
793.9414 -487.8435 2754.0 1
816.36536 -484.12357 2733.0 1
844.84314 -484.12357 2733.0 1
873.3211 -484.12357 2733.0 1
901.7989 -484.12357 2733.0 1
930.2767 -484.12357 2733.0 1
964.1139 -472.7866 2669.0 1
984.49207 -469.2438 2649.0 1
1004.45325 -465.701 2629.0 1
737.4095 -538.1097 2869.0 1
748.58325 -524.98047 2799.0 1
771.63574 -520.8542 2777.0 1
787.8874 -512.6015 2733.0 1
816.36536 -512.6015 2733.0 1
844.84314 -512.6015 2733.0 1
873.3211 -512.6015 2733.0 1
916.31744 -520.8542 2777.0 1
964.1139 -500.5977 2669.0 1
984.49207 -496.8465 2649.0 1
1012.0946 -496.8465 2649.0 1
731.24084 -563.2531 2845.0 1
748.58325 -554.14606 2799.0 1
771.63574 -549.79047 2777.0 1
787.8874 -541.07935 2733.0 1
822.6382 -545.23694 2754.0 1
851.3348 -545.23694 2754.0 1
887.38116 -549.79047 2777.0 1
987.5902 -592.55414 2993.0 1
958.75464 -541.07935 2733.0 1
971.6997 -532.5662 2690.0 1
991.925 -528.4086 2669.0 1
1012.0946 -524.44904 2649.0 1
725.3292 -588.1048 2822.0 1
748.58325 -583.3116 2799.0 1
771.63574 -578.7268 2777.0 1
800.57196 -578.7268 2777.0 1
829.5084 -578.7268 2777.0 1
865.2455 -583.3116 2799.0 1
964.7114 -629.1596 3019.0 1
1005.0784 -634.7864 3046.0 1
1036.8176 -634.7864 3046.0 1
951.03687 -564.9724 2711.0 1
979.28546 -564.9724 2711.0 1
991.925 -556.2196 2669.0 1
1004.45325 -547.8836 2629.0 1
731.24084 -622.54285 2845.0 1
748.58325 -612.4771 2799.0 1
771.63574 -607.6631 2777.0 1
800.57196 -607.6631 2777.0 1
829.5084 -607.6631 2777.0 1
879.46533 -622.54285 2845.0 1
964.7114 -660.61755 3019.0 1
1005.0784 -666.5257 3046.0 1
1036.8176 -666.5257 3046.0 1
958.75464 -598.03503 2733.0 1
979.28546 -593.221 2711.0 1
1007.5342 -593.221 2711.0 1
1019.7359 -584.0305 2669.0 1
707.5145 -657.6895 2869.0 1
731.24084 -652.18774 2845.0 1
754.73456 -646.9152 2822.0 1
777.7488 -641.6427 2799.0 1
806.9143 -641.6427 2799.0 1
842.95026 -646.9152 2822.0 1
949.94617 -704.45447 3073.0 1
973.33923 -698.26495 3046.0 1
1005.0784 -698.26495 3046.0 1
1046.0082 -704.45447 3073.0 1
688.9564 -699.08826 2917.0 1
713.4331 -693.3364 2893.0 1
725.3292 -676.32056 2822.0 1
754.73456 -676.32056 2822.0 1
784.1397 -676.32056 2822.0 1
813.54486 -676.32056 2822.0 1
842.95026 -676.32056 2822.0 1
967.25726 -749.8962 3129.0 1
990.9143 -743.1857 3101.0 1
1013.98755 -736.4752 3073.0 1
1046.0082 -736.4752 3073.0 1
1087.8514 -743.1857 3101.0 1
683.28796 -723.48145 2893.0 1
713.4331 -723.48145 2893.0 1
731.24084 -711.4776 2845.0 1
754.73456 -705.72577 2822.0 1
784.1397 -705.72577 2822.0 1
813.54486 -705.72577 2822.0 1
999.8616 -782.50037 3129.0 1
1023.2266 -775.4981 3101.0 1
1046.0082 -768.49585 3073.0 1
1087.8514 -775.4981 3101.0 1
683.28796 -753.62646 2893.0 1
707.5145 -747.3745 2869.0 1
737.4095 -747.3745 2869.0 1
760.8858 -741.1225 2845.0 1
790.53064 -741.1225 2845.0 1
1008.8089 -822.3985 3157.0 1
1032.4657 -815.1045 3129.0 1
1065.0698 -815.1045 3129.0 1
1097.6741 -815.1045 3129.0 1
1140.3926 -822.3985 3157.0 1
688.9564 -790.2736 2917.0 1
713.4331 -783.77155 2893.0 1
737.4095 -777.2694 2869.0 1
760.8858 -770.76733 2845.0 1
803.8682 -783.77155 2893.0 1
1041.7047 -855.2944 3157.0 1
1065.0698 -847.7086 3129.0 1
1097.6741 -847.7086 3129.0 1
1140.3926 -855.2944 3157.0 1
688.9564 -820.6687 2917.0 1
713.4331 -813.91656 2893.0 1
743.5781 -813.91656 2893.0 1
767.30457 -807.16437 2869.0 1
810.53705 -820.6687 2917.0 1
1061.1727 -904.78937 3216.0 1
1074.6006 -888.1903 3157.0 1
1097.6741 -880.3128 3129.0 1
1130.2782 -880.3128 3129.0 1
688.9564 -851.06396 2917.0 1
713.4331 -844.0617 2893.0 1
743.5781 -844.0617 2893.0 1
773.72327 -844.0617 2893.0 1
803.8682 -844.0617 2893.0 1
1081.3008 -956.0976 3277.0 1
1094.6835 -938.30023 3216.0 1
1107.4967 -921.08636 3157.0 1
1140.3926 -921.08636 3157.0 1
1184.0663 -929.5474 3186.0 1
669.8497 -896.56805 2967.0 1
694.8611 -889.01355 2942.0 1
719.3517 -881.45905 2917.0 1
743.5781 -874.2067 2893.0 1
773.72327 -874.2067 2893.0 1
1102.4186 -1009.5834 3341.0 1
1094.6835 -971.8109 3216.0 1
1117.67 -962.7455 3186.0 1
1140.3926 -953.9823 3157.0 1
1184.0663 -962.7455 3186.0 1
669.8497 -927.4842 2967.0 1
694.8611 -919.6692 2942.0 1
719.3517 -911.8542 2917.0 1
743.5781 -904.3518 2893.0 1
767.30457 -896.84937 2869.0 1
1104.895 -1014.6996 3246.0 1
1117.67 -995.9436 3186.0 1
1161.705 -1005.3216 3216.0 1
1184.0663 -995.9436 3186.0 1
669.8497 -958.40027 2967.0 1
694.8611 -950.32477 2942.0 1
719.3517 -942.24927 2917.0 1
749.7467 -942.24927 2917.0 1
767.30457 -926.7443 2869.0 1
1104.895 -1048.5228 3246.0 1
1128.1942 -1038.8323 3216.0 1
1172.5417 -1048.5228 3246.0 1
1195.2157 -1038.8323 3216.0 1
644.53265 -997.98584 2993.0 1
669.8497 -989.3164 2967.0 1
706.9066 -997.98584 2993.0 1
731.682 -989.3164 2967.0 1
756.1724 -980.9804 2942.0 1
1104.895 -1082.3462 3246.0 1
1128.1942 -1072.3429 3216.0 1
1172.5417 -1082.3462 3246.0 1
1195.2157 -1072.3429 3216.0 1
624.2066 -1047.3976 3046.0 1
644.53265 -1029.173 2993.0 1
669.8497 -1020.23267 2967.0 1
700.76575 -1020.23267 2967.0 1
738.09375 -1029.173 2993.0 1
1094.6835 -1105.8538 3216.0 1
1128.1942 -1105.8538 3216.0 1
1184.0663 -1095.538 3186.0 1
613.34546 -1060.3601 2993.0 1
644.53265 -1060.3601 2993.0 1
675.7196 -1060.3601 2993.0 1
706.9066 -1060.3601 2993.0 1
744.50555 -1069.5713 3019.0 1
565.69824 -1120.723 3073.0 1
587.21564 -1101.0293 3019.0 1
613.34546 -1091.5471 2993.0 1
644.53265 -1091.5471 2993.0 1
669.8497 -1082.0648 2967.0 1
713.0474 -1101.0293 3019.0 1
528.98865 -1142.6155 3046.0 1
555.75757 -1132.4872 3019.0 1
582.1585 -1122.7341 2993.0 1
608.0174 -1112.981 2967.0 1
644.53265 -1122.7341 2993.0 1
675.7196 -1122.7341 2993.0 1
725.8015 -1152.7437 3073.0 1
465.50998 -1174.3547 3046.0 1
488.59735 -1153.9211 2993.0 1
519.7843 -1153.9211 2993.0 1
550.9713 -1153.9211 2993.0 1
582.1585 -1153.9211 2993.0 1
613.34546 -1153.9211 2993.0 1
644.53265 -1153.9211 2993.0 1
681.58954 -1163.9452 3019.0 1
484.35294 -1174.8134 2967.0 1
519.7843 -1185.1083 2993.0 1
546.18506 -1174.8134 2967.0 1
582.1585 -1185.1083 2993.0 1
613.34546 -1185.1083 2993.0 1
644.53265 -1185.1083 2993.0 1
681.58954 -1195.4033 3019.0 1
449.616 -1195.57 2942.0 1
484.35294 -1205.7295 2967.0 1
515.269 -1205.7295 2967.0 1
546.18506 -1205.7295 2967.0 1
577.1013 -1205.7295 2967.0 1
