ply
format ascii 1.0
comment : created from Kinect user tracker
element vertex 396
property float x
property float y
property float z
property int userId
end_header
1381.2786 222.48782 2669.0 1
1377.4128 217.48622 2609.0 1
1393.8313 215.81903 2589.0 1
1353.4677 194.67686 2669.0 1
1370.9281 193.21806 2649.0 1
1377.4128 190.30048 2609.0 1
1373.3733 186.06995 2551.0 1
1343.3256 165.61545 2649.0 1
1339.8765 161.86426 2589.0 1
1356.823 160.67638 2570.0 1
1353.4537 157.17525 2514.0 1
1357.4446 142.3893 2733.0 1
1343.3256 138.0129 2649.0 1
1339.8765 134.8869 2589.0 1
1356.823 133.897 2570.0 1
1353.4537 130.9794 2514.0 1
1336.087 112.119225 2690.0 1
1343.3256 110.41035 2649.0 1
1339.8765 107.909546 2589.0 1
1336.761 105.53378 2532.0 1
1353.4537 104.78355 2514.0 1
1339.1783 86.09003 2754.0 1
1336.087 84.089386 2690.0 1
1323.0413 81.55733 2609.0 1
1330.0435 80.33819 2570.0 1
1327.2579 78.58762 2514.0 1
1334.0726 77.462265 2478.0 1
1376.6245 60.290134 2893.0 1
1350.3625 57.872692 2777.0 1
1325.6566 55.62197 2669.0 1
1312.8992 53.954773 2589.0 1
1320.2104 53.162853 2551.0 1
1327.2579 52.391773 2514.0 1
1315.2297 50.912132 2443.0 1
1353.7838 29.64487 2845.0 1
1339.1783 28.696651 2754.0 1
1315.7229 27.602552 2649.0 1
1312.8992 26.977354 2589.0 1
1320.2104 26.581394 2551.0 1
1308.2518 25.820734 2478.0 1
1306.0775 25.278896 2426.0 1
1324.1388 0.0 2845.0 1
1353.7838 0.0 2845.0 1
1328.9668 0.0 2733.0 1
1315.7229 0.0 2649.0 1
1303.2642 0.0 2570.0 1
1310.3774 0.0 2532.0 1
1298.7489 0.0 2460.0 1
1306.0775 0.0 2426.0 1
1357.6495 -30.395111 2917.0 1
1353.7838 -29.64487 2845.0 1
1308.0573 -28.029772 2690.0 1
1315.7229 -27.602552 2649.0 1
1303.2642 -26.779373 2570.0 1
1301.062 -26.195854 2514.0 1
1289.7738 -25.456036 2443.0 1
1306.0775 -25.278896 2426.0 1
1357.6495 -60.790222 2917.0 1
1342.8394 -58.81042 2822.0 1
1297.8457 -55.621906 2669.0 1
1295.8555 -54.371506 2609.0 1
1303.2642 -53.558746 2570.0 1
1291.7465 -52.01659 2496.0 1
1289.7738 -50.91207 2443.0 1
1306.0775 -50.557793 2426.0 1
1357.6495 -91.18548 2917.0 1
1310.4818 -86.090096 2754.0 1
1297.8457 -83.43299 2669.0 1
1305.7892 -82.182594 2629.0 1
1293.6292 -79.74431 2551.0 1
1291.7465 -78.02501 2496.0 1
1298.7489 -76.89965 2460.0 1
1306.0775 -75.83681 2426.0 1
1290.0204 -112.99451 2711.0 1
1288.1204 -110.41035 2649.0 1
1295.8555 -108.74314 2609.0 1
1293.6292 -106.32571 2551.0 1
1301.062 -104.78355 2514.0 1
1298.7489 -102.53282 2460.0 1
1315.2297 -101.824265 2443.0 1
1280.0276 -140.149 2690.0 1
1288.1204 -138.0129 2649.0 1
1295.8555 -135.9289 2609.0 1
1283.9941 -131.91719 2532.0 1
1301.062 -130.9794 2514.0 1
1317.7549 -130.0416 2496.0 1
1315.2297 -127.2803 2443.0 1
1280.0276 -168.17877 2690.0 1
1288.1204 -165.61545 2649.0 1
1285.9216 -161.86426 2589.0 1
1283.9941 -158.30061 2532.0 1
1301.062 -157.17525 2514.0 1
1317.7549 -156.0499 2496.0 1
1315.2297 -152.73633 2443.0 1
1272.011 -199.34496 2733.0 1
1270.0348 -194.6768 2669.0 1
1278.395 -191.7592 2629.0 1
1285.9216 -188.8416 2589.0 1
1283.9941 -184.68402 2532.0 1
1301.062 -183.37111 2514.0 1
1317.7549 -182.05818 2496.0 1
1324.382 -179.43234 2460.0 1
1272.011 -227.82294 2733.0 1
1270.0348 -222.48788 2669.0 1
1278.395 -219.15349 2629.0 1
1285.9216 -215.81909 2589.0 1
1293.6292 -212.65141 2551.0 1
1301.062 -209.5671 2514.0 1
1317.7549 -208.0666 2496.0 1
1324.382 -205.06564 2460.0 1
1243.5332 -256.30075 2733.0 1
1261.7716 -254.23761 2711.0 1
1260.5178 -248.42325 2649.0 1
1268.6697 -244.67204 2609.0 1
1285.9216 -242.79645 2589.0 1
1283.9941 -237.45097 2532.0 1
1291.7465 -234.0749 2496.0 1
1308.2518 -232.38686 2478.0 1
1324.382 -230.69882 2460.0 1
1243.5332 -284.7786 2733.0 1
1242.2238 -278.1098 2669.0 1
1260.5178 -276.0258 2649.0 1
1258.9443 -269.7738 2589.0 1
1276.4846 -267.794 2570.0 1
1274.8662 -261.9588 2514.0 1
1291.7465 -260.0832 2496.0 1
1308.2518 -258.20758 2478.0 1
1324.382 -256.332 2460.0 1
1243.5332 -313.25644 2733.0 1
1242.2238 -305.92075 2669.0 1
1251.001 -301.33594 2629.0 1
1258.9443 -296.75116 2589.0 1
1276.4846 -294.57336 2570.0 1
1274.8662 -288.15466 2514.0 1
1291.7465 -286.0915 2496.0 1
1298.7489 -281.96518 2460.0 1
1315.2297 -280.01663 2443.0 1
1234.6171 -347.23602 2777.0 1
1243.5332 -341.73425 2733.0 1
1242.2238 -333.7317 2669.0 1
1251.001 -328.7301 2629.0 1
1258.9443 -323.72852 2589.0 1
1267.0476 -318.977 2551.0 1
1274.8662 -314.3505 2514.0 1
1291.7465 -312.0998 2496.0 1
1298.7489 -307.59836 2460.0 1
1315.2297 -305.47266 2443.0 1
1215.0553 -370.21222 2733.0 1
1233.5231 -367.23212 2711.0 1
1242.2238 -361.5428 2669.0 1
1251.001 -356.1244 2629.0 1
1258.9443 -350.706 2589.0 1
1267.0476 -345.5585 2551.0 1
1274.8662 -340.54648 2514.0 1
1291.7465 -338.10822 2496.0 1
1298.7489 -333.23163 2460.0 1
1324.382 -333.23163 2460.0 1
1205.2744 -395.4807 2711.0 1
1233.5231 -395.4807 2711.0 1
1242.2238 -389.35373 2669.0 1
1251.001 -383.51852 2629.0 1
1258.9443 -377.68335 2589.0 1
1267.0476 -372.1399 2551.0 1
1274.8662 -366.74234 2514.0 1
1291.7465 -364.1165 2496.0 1
1308.2518 -361.49066 2478.0 1
1324.382 -358.8648 2460.0 1
1253.0884 -430.4502 2754.0 1
1242.2238 -417.1647 2669.0 1
1260.5178 -414.0387 2649.0 1
1258.9443 -404.6607 2589.0 1
1276.4846 -401.69098 2570.0 1
1274.8662 -392.9382 2514.0 1
1301.062 -392.9382 2514.0 1
1317.7549 -390.1248 2496.0 1
1343.7632 -390.1248 2496.0 1
1263.5535 -462.9814 2777.0 1
1251.9977 -448.47678 2690.0 1
1270.0348 -444.97565 2669.0 1
1268.6697 -434.97244 2609.0 1
1276.4846 -428.47037 2570.0 1
1293.6292 -425.30267 2551.0 1
1301.062 -419.13403 2514.0 1
1327.2579 -419.13403 2514.0 1
1343.7632 -416.1331 2496.0 1
1284.0288 -499.889 2822.0 1
1292.4897 -491.91772 2777.0 1
1280.0276 -476.50653 2690.0 1
1278.395 -465.701 2629.0 1
1285.9216 -458.6154 2589.0 1
1303.2642 -455.24973 2570.0 1
1310.3774 -448.51843 2532.0 1
1317.7549 -442.1414 2496.0 1
1343.7632 -442.1414 2496.0 1
1286.1891 -542.61115 2893.0 1
1294.494 -533.6083 2845.0 1
1292.4897 -520.8542 2777.0 1
1300.489 -512.6015 2733.0 1
1288.1204 -496.8465 2649.0 1
1285.9216 -485.5929 2589.0 1
1303.2642 -482.02924 2570.0 1
1320.2104 -478.4656 2551.0 1
1327.2579 -471.52588 2514.0 1
1343.7632 -468.1498 2496.0 1
1305.4142 -568.00464 2869.0 1
1302.7291 -554.14606 2799.0 1
1321.4263 -549.79047 2777.0 1
1318.2689 -536.7238 2711.0 1
1295.8555 -516.52985 2609.0 1
1303.2642 -508.80862 2570.0 1
1320.2104 -505.047 2551.0 1
1327.2579 -497.72174 2514.0 1
1343.7632 -494.15808 2496.0 1
1330.6478 -623.7412 2993.0 1
1305.4142 -597.8996 2869.0 1
1302.7291 -583.3116 2799.0 1
1321.4263 -578.7268 2777.0 1
1339.1783 -573.9336 2754.0 1
1315.7229 -552.0516 2649.0 1
1312.8992 -539.5476 2589.0 1
1330.0435 -535.588 2570.0 1
1327.2579 -523.9176 2514.0 1
1353.4537 -523.9176 2514.0 1
1296.8593 -638.2979 2917.0 1
1294.494 -622.54285 2845.0 1
1313.434 -617.51 2822.0 1
1331.8949 -612.4771 2799.0 1
1350.3625 -607.6631 2777.0 1
1357.4446 -598.03503 2733.0 1
1323.0413 -570.90137 2609.0 1
1339.8765 -566.52496 2589.0 1
1346.792 -558.2098 2551.0 1
1363.1444 -554.0522 2532.0 1
1296.8593 -668.693 2917.0 1
1305.4142 -657.6895 2869.0 1
1313.434 -646.9152 2822.0 1
1331.8949 -641.6427 2799.0 1
1339.1783 -631.3269 2754.0 1
1367.875 -631.3269 2754.0 1
1353.4677 -611.8415 2669.0 1
1339.8765 -593.5023 2589.0 1
1356.823 -589.1467 2570.0 1
1373.3733 -584.7912 2551.0 1
1307.9739 -705.0798 2942.0 1
1327.2545 -699.08826 2917.0 1
1324.1388 -681.83276 2845.0 1
1342.8394 -676.32056 2822.0 1
1361.0604 -670.8084 2799.0 1
1379.2988 -665.5359 2777.0 1
1414.4003 -654.99084 2733.0 1
1377.4128 -625.273 2609.0 1
1383.6023 -615.9263 2570.0 1
1266.4641 -729.4834 2917.0 1
1296.8593 -729.4834 2917.0 1
1294.494 -711.4776 2845.0 1
1324.1388 -711.4776 2845.0 1
1342.8394 -705.72577 2822.0 1
1372.2445 -705.72577 2822.0 1
1413.0735 -711.4776 2845.0 1
1387.9718 -657.4603 2629.0 1
1393.8313 -647.45715 2589.0 1
1277.3184 -766.391 2942.0 1
1296.8593 -759.8785 2917.0 1
1305.4142 -747.3745 2869.0 1
1324.1388 -741.1225 2845.0 1
1353.7838 -741.1225 2845.0 1
1372.2445 -735.131 2822.0 1
1415.366 -684.8545 2629.0 1
1277.3184 -797.0466 2942.0 1
1296.8593 -790.2736 2917.0 1
1316.3344 -783.77155 2893.0 1
1335.3091 -777.2694 2869.0 1
1353.7838 -770.76733 2845.0 1
1383.4286 -770.76733 2845.0 1
1436.9006 -723.08545 2669.0 1
1257.2565 -834.7357 2967.0 1
1277.3184 -827.7022 2942.0 1
1296.8593 -820.6687 2917.0 1
1316.3344 -813.91656 2893.0 1
1335.3091 -807.16437 2869.0 1
1353.7838 -800.41223 2845.0 1
1436.9006 -750.8964 2669.0 1
1246.6627 -858.358 2942.0 1
1277.3184 -858.358 2942.0 1
1296.8593 -851.06396 2917.0 1
1316.3344 -844.0617 2893.0 1
1346.4792 -844.0617 2893.0 1
1436.9006 -778.70746 2669.0 1
1246.6627 -889.01355 2942.0 1
1277.3184 -889.01355 2942.0 1
1296.8593 -881.45905 2917.0 1
1316.3344 -874.2067 2893.0 1
1346.4792 -874.2067 2893.0 1
1431.2634 -819.21 2711.0 1
1436.9006 -806.51843 2669.0 1
1216.007 -919.6692 2942.0 1
1246.6627 -919.6692 2942.0 1
1256.0442 -904.3518 2893.0 1
1286.1891 -904.3518 2893.0 1
1316.3344 -904.3518 2893.0 1
1414.4003 -854.33575 2733.0 1
1431.2634 -847.45856 2711.0 1
1436.9006 -834.3294 2669.0 1
1237.0867 -966.7988 2993.0 1
1246.6627 -950.32477 2942.0 1
1266.4641 -942.24927 2917.0 1
1296.8593 -942.24927 2917.0 1
1316.3344 -934.4968 2893.0 1
1403.0148 -875.70715 2711.0 1
1409.0897 -862.1403 2669.0 1
1436.9006 -862.1403 2669.0 1
1226.3402 -989.3164 2967.0 1
1246.6627 -980.9804 2942.0 1
1277.3184 -980.9804 2942.0 1
1296.8593 -972.6444 2917.0 1
1327.2545 -972.6444 2917.0 1
1396.5718 -918.2937 2754.0 1
1414.4003 -911.29144 2733.0 1
1409.0897 -889.9513 2669.0 1
1436.9006 -889.9513 2669.0 1
1226.3402 -1020.23267 2967.0 1
1236.0691 -1003.0397 2917.0 1
1277.3184 -1011.63617 2942.0 1
1296.8593 -1003.0397 2917.0 1
1396.5718 -946.9905 2754.0 1
1414.4003 -939.7694 2733.0 1
1420.1766 -924.98346 2690.0 1
1448.2063 -924.98346 2690.0 1
1226.3402 -1051.1488 2967.0 1
1236.0691 -1033.4348 2917.0 1
1277.3184 -1042.2917 2942.0 1
1307.9739 -1042.2917 2942.0 1
1367.875 -975.68713 2754.0 1
1396.5718 -975.68713 2754.0 1
1414.4003 -968.24725 2733.0 1
1442.8783 -968.24725 2733.0 1
1459.512 -960.45306 2711.0 1
1205.8997 -1091.5471 2993.0 1
1226.3402 -1082.0648 2967.0 1
1246.6627 -1072.9474 2942.0 1
1288.1725 -1082.0648 2967.0 1
1319.0885 -1082.0648 2967.0 1
1423.7158 -1141.1462 3129.0 1
1469.3519 -1151.3579 3157.0 1
1367.875 -1004.3838 2754.0 1
1396.5718 -1004.3838 2754.0 1
1414.4003 -996.7251 2733.0 1
1442.8783 -996.7251 2733.0 1
1471.3561 -996.7251 2733.0 1
1227.2538 -1142.6155 3046.0 1
1226.3402 -1112.981 2967.0 1
1246.6627 -1103.603 2942.0 1
1299.4608 -1122.7341 2993.0 1
1330.6478 -1122.7341 2993.0 1
1398.2355 -1152.7437 3073.0 1
1430.2561 -1152.7437 3073.0 1
1379.2988 -1041.7083 2777.0 1
1396.5718 -1033.0804 2754.0 1
1425.2684 -1033.0804 2754.0 1
1453.9652 -1033.0804 2754.0 1
1482.6617 -1033.0804 2754.0 1
1205.8997 -1153.9211 2993.0 1
1226.3402 -1143.8971 2967.0 1
1257.2565 -1143.8971 2967.0 1
1310.7491 -1163.9452 3019.0 1
1342.207 -1163.9452 3019.0 1
1373.6652 -1163.9452 3019.0 1
1417.6896 -1174.3547 3046.0 1
1449.429 -1174.3547 3046.0 1
1401.6497 -1087.9938 2822.0 1
1396.5718 -1061.7771 2754.0 1
1425.2684 -1061.7771 2754.0 1
1453.9652 -1061.7771 2754.0 1
1506.8883 -1079.1263 2799.0 1
1205.8997 -1185.1083 2993.0 1
1237.0867 -1185.1083 2993.0 1
1257.2565 -1174.8134 2967.0 1
1299.4608 -1185.1083 2993.0 1
1373.6652 -1195.4033 3019.0 1
1395.099 -1136.0093 2869.0 1
1401.6497 -1117.3992 2822.0 1
1396.5718 -1090.4739 2754.0 1
1425.2684 -1090.4739 2754.0 1
1477.7228 -1108.2921 2799.0 1
1506.8883 -1108.2921 2799.0 1
1205.8997 -1216.2953 2993.0 1
1216.007 -1195.57 2942.0 1
1268.2738 -1216.2953 2993.0 1
1288.1725 -1205.7295 2967.0 1
1353.7838 -1156.1511 2845.0 1
1383.4286 -1156.1511 2845.0 1
1401.6497 -1146.8043 2822.0 1
1431.055 -1146.8043 2822.0 1
1437.1715 -1128.5172 2777.0 1
1466.1079 -1128.5172 2777.0 1
1531.6532 -1156.1511 2845.0 1
