ply
format ascii 1.0
comment : created from Kinect user tracker
element vertex 749
property float x
property float y
property float z
property int userId
end_header
416.08795 249.65277 1843.0 1
396.88394 230.44873 1843.0 1
416.08795 230.44873 1843.0 1
432.9301 229.19832 1833.0 1
449.81058 228.07297 1824.0 1
379.7291 212.39084 1853.0 1
394.73047 210.09843 1833.0 1
413.8303 210.09843 1833.0 1
430.8044 209.06686 1824.0 1
449.81058 209.06686 1824.0 1
466.24634 207.92065 1814.0 1
485.1483 207.92065 1814.0 1
501.27145 206.77446 1804.0 1
362.36594 194.1246 1863.0 1
375.63055 190.9986 1833.0 1
392.79236 190.06079 1824.0 1
411.7984 190.06079 1824.0 1
428.44257 189.0188 1814.0 1
444.87845 187.97679 1804.0 1
461.36282 187.039 1795.0 1
477.6598 186.1012 1786.0 1
498.77066 187.039 1795.0 1
520.0691 187.97679 1804.0 1
553.5035 193.0826 1853.0 1
569.7204 192.0406 1843.0 1
346.63513 176.58775 1883.0 1
362.36594 174.71216 1863.0 1
375.63055 171.89876 1833.0 1
388.4854 169.17914 1804.0 1
409.54074 170.11693 1814.0 1
428.44257 170.11693 1814.0 1
444.87845 169.17914 1804.0 1
459.0496 167.49109 1786.0 1
475.25278 166.64708 1777.0 1
501.27145 169.17914 1804.0 1
520.0691 169.17914 1804.0 1
538.8668 169.17914 1804.0 1
563.847 171.05473 1824.0 1
598.5109 175.64995 1873.0 1
344.79428 156.13327 1873.0 1
360.42087 154.46606 1853.0 1
375.63055 152.79887 1833.0 1
388.4854 150.38142 1804.0 1
407.28305 150.38142 1804.0 1
426.0807 150.38142 1804.0 1
444.87845 150.38142 1804.0 1
456.73636 148.1307 1777.0 1
480.0668 149.6312 1795.0 1
496.26987 148.88095 1786.0 1
520.0691 150.38142 1804.0 1
544.841 152.04863 1824.0 1
328.92465 138.14836 1894.0 1
342.9534 135.88722 1863.0 1
360.42087 135.15782 1853.0 1
375.63055 133.69902 1833.0 1
388.4854 131.58377 1804.0 1
407.28305 131.58377 1804.0 1
426.0807 131.58377 1804.0 1
444.87845 131.58377 1804.0 1
461.36282 130.9273 1795.0 1
480.0668 130.9273 1795.0 1
498.77066 130.9273 1795.0 1
520.0691 131.58377 1804.0 1
550.5164 134.42842 1843.0 1
569.7204 134.42842 1843.0 1
309.18924 118.41286 1894.0 1
328.92465 118.41286 1894.0 1
342.9534 116.47474 1863.0 1
360.42087 115.84954 1853.0 1
377.6798 115.22434 1843.0 1
388.4854 112.78606 1804.0 1
409.54074 113.41126 1814.0 1
428.44257 113.41126 1814.0 1
444.87845 112.78606 1804.0 1
463.6761 112.78606 1804.0 1
480.0668 112.22338 1795.0 1
501.27145 112.78606 1804.0 1
528.4294 114.59914 1833.0 1
327.0143 98.1043 1883.0 1
342.9534 97.0623 1863.0 1
358.4758 96.0203 1843.0 1
375.63055 95.4993 1833.0 1
390.6389 94.5094 1814.0 1
409.54074 94.5094 1814.0 1
426.0807 93.988396 1804.0 1
440.4395 93.0506 1786.0 1
463.6761 93.988396 1804.0 1
482.47382 93.988396 1804.0 1
506.8288 95.030396 1824.0 1
534.1951 96.5413 1853.0 1
325.27765 78.06666 1873.0 1
342.9534 77.64986 1863.0 1
356.53073 76.39946 1833.0 1
375.63055 76.39946 1833.0 1
390.6389 75.60754 1814.0 1
409.54074 75.60754 1814.0 1
428.44257 75.60754 1814.0 1
442.659 74.81561 1795.0 1
463.6761 75.190735 1804.0 1
485.1483 75.60754 1814.0 1
509.3296 76.39946 1833.0 1
542.84375 78.48346 1883.0 1
568.7375 79.358734 1904.0 1
316.0456 60.51935 1936.0 1
328.92465 59.20643 1894.0 1
342.9534 58.23737 1863.0 1
360.42087 57.92477 1853.0 1
377.6798 57.61217 1843.0 1
392.79236 57.01823 1824.0 1
413.8303 57.29957 1833.0 1
432.9301 57.29957 1833.0 1
449.81058 57.01823 1824.0 1
468.81662 57.01823 1824.0 1
490.22977 57.29957 1833.0 1
512.1083 57.61217 1843.0 1
546.0149 59.20643 1894.0 1
572.02325 59.86289 1915.0 1
309.18924 39.47097 1894.0 1
327.0143 39.24173 1883.0 1
344.79428 39.03333 1873.0 1
364.311 39.03333 1873.0 1
377.6798 38.408127 1843.0 1
394.73047 38.19973 1833.0 1
416.08795 38.408127 1843.0 1
432.9301 38.19973 1833.0 1
456.96216 38.616528 1853.0 1
476.2704 38.616528 1853.0 1
498.25317 38.82493 1863.0 1
520.4443 39.03333 1873.0 1
546.0149 39.47097 1894.0 1
584.8677 40.80473 1958.0 1
293.78497 21.496439 2063.0 1
307.9457 20.996279 2015.0 1
323.22845 20.63158 1980.0 1
336.21866 20.1731 1936.0 1
350.50095 19.83966 1904.0 1
366.25607 19.62084 1883.0 1
379.7291 19.30824 1853.0 1
396.88394 19.20404 1843.0 1
418.3456 19.30824 1853.0 1
444.73944 19.62084 1883.0 1
464.36038 19.62084 1883.0 1
483.98117 19.62084 1883.0 1
503.6021 19.62084 1883.0 1
526.2795 19.73546 1894.0 1
272.28842 0.0 2063.0 1
286.94946 0.0 2015.0 1
300.91568 0.0 1969.0 1
319.63702 0.0 1958.0 1
336.21866 0.0 1936.0 1
352.5259 0.0 1915.0 1
366.25607 0.0 1883.0 1
383.8276 0.0 1873.0 1
401.1909 0.0 1863.0 1
427.60205 0.0 1894.0 1
449.69934 0.0 1904.0 1
467.07303 0.0 1894.0 1
489.37875 0.0 1904.0 1
512.1604 0.0 1915.0 1
255.41156 -21.892399 2101.0 1
265.95306 -20.996279 2015.0 1
283.6741 -20.75662 1992.0 1
299.2346 -20.40234 1958.0 1
314.24988 -20.058481 1925.0 1
330.66132 -19.83966 1904.0 1
346.63513 -19.62084 1883.0 1
366.25607 -19.62084 1883.0 1
385.8769 -19.62084 1883.0 1
407.86664 -19.73546 1894.0 1
429.8597 -19.83966 1904.0 1
449.69934 -19.83966 1904.0 1
233.5192 -43.784798 2101.0 1
249.33322 -42.742798 2051.0 1
264.36923 -41.74248 2003.0 1
280.39874 -41.03392 1969.0 1
295.8724 -40.3462 1936.0 1
310.8217 -39.67932 1904.0 1
327.0143 -39.24168 1883.0 1
344.79428 -39.033283 1873.0 1
362.36594 -38.824883 1863.0 1
379.7291 -38.61648 1853.0 1
401.1909 -38.824883 1863.0 1
429.8597 -39.67932 1904.0 1
233.5192 -65.6773 2101.0 1
246.41563 -63.36406 2027.0 1
261.33356 -61.894836 1980.0 1
278.83228 -61.20712 1958.0 1
294.1913 -60.175537 1925.0 1
307.39352 -58.862617 1883.0 1
323.541 -58.237415 1863.0 1
339.27167 -57.612217 1843.0 1
356.53073 -57.299614 1833.0 1
375.63055 -57.299614 1833.0 1
396.88394 -57.612217 1843.0 1
425.11862 -58.862617 1883.0 1
214.24559 -88.65338 2127.0 1
229.29562 -85.985855 2063.0 1
244.95683 -83.98522 2015.0 1
259.88168 -82.06794 1969.0 1
278.83228 -81.60946 1958.0 1
292.66302 -79.817215 1915.0 1
305.76105 -78.06666 1873.0 1
320.06766 -76.81625 1843.0 1
337.43082 -76.39946 1833.0 1
354.78018 -76.02434 1824.0 1
369.68768 -75.190735 1804.0 1
390.6389 -75.60754 1814.0 1
418.3456 -77.233055 1853.0 1
444.73944 -78.48346 1883.0 1
227.96187 -106.8571 2051.0 1
243.49803 -104.3563 2003.0 1
259.88168 -102.5849 1969.0 1
275.69934 -100.8656 1936.0 1
289.45367 -98.6774 1894.0 1
302.49612 -96.5413 1853.0 1
318.331 -95.4993 1833.0 1
333.93317 -94.5094 1814.0 1
350.89005 -93.988396 1804.0 1
369.68768 -93.988396 1804.0 1
384.6092 -93.0506 1786.0 1
407.28305 -93.988396 1804.0 1
435.29196 -96.0203 1843.0 1
469.53912 -99.198395 1904.0 1
216.86449 -134.60553 2153.0 1
227.96187 -128.2285 2051.0 1
243.49803 -125.22754 2003.0 1
259.88168 -123.10186 1969.0 1
274.13284 -120.350975 1925.0 1
286.24432 -117.09994 1873.0 1
300.86365 -115.22434 1843.0 1
318.331 -114.59914 1833.0 1
332.0923 -112.78606 1804.0 1
350.89005 -112.78606 1804.0 1
365.999 -111.6607 1786.0 1
382.67108 -111.09802 1777.0 1
401.18735 -111.09802 1777.0 1
419.70364 -111.09802 1777.0 1
438.22006 -111.09802 1777.0 1
216.86449 -157.03978 2153.0 1
226.6281 -148.72461 2039.0 1
243.49803 -146.09877 2003.0 1
259.88168 -143.61882 1969.0 1
271.1423 -138.87772 1904.0 1
286.24432 -136.61658 1873.0 1
300.86365 -134.42838 1843.0 1
315.03134 -132.31313 1814.0 1
330.43552 -130.92726 1795.0 1
347.38892 -130.2708 1786.0 1
362.3103 -128.95789 1768.0 1
378.79483 -128.30142 1759.0 1
399.15546 -128.95789 1768.0 1
417.57797 -128.95789 1768.0 1
438.22006 -129.61435 1777.0 1
463.6761 -131.58372 1804.0 1
216.86449 -179.47412 2153.0 1
227.96187 -170.9714 2051.0 1
243.49803 -166.97012 2003.0 1
259.88168 -164.13588 1969.0 1
271.1423 -158.71747 1904.0 1
284.71606 -155.29971 1863.0 1
299.23117 -152.79892 1833.0 1
313.29465 -150.38147 1804.0 1
328.77875 -148.881 1786.0 1
345.63837 -148.13075 1777.0 1
362.3103 -147.38051 1768.0 1
380.73294 -147.38051 1768.0 1
399.15546 -147.38051 1768.0 1
415.4523 -146.63028 1759.0 1
436.0006 -147.38051 1768.0 1
461.36282 -149.63123 1795.0 1
198.13286 -205.75334 2194.0 1
218.27466 -203.22128 2167.0 1
227.96187 -192.3428 2051.0 1
243.49803 -187.84135 2003.0 1
258.42984 -183.62126 1958.0 1
269.71826 -177.61934 1894.0 1
283.18777 -173.77435 1853.0 1
297.76196 -171.05473 1824.0 1
311.73166 -168.33511 1795.0 1
328.77875 -167.49109 1786.0 1
343.88782 -165.80305 1768.0 1
362.3103 -165.80305 1768.0 1
378.79483 -164.95903 1759.0 1
399.15546 -165.80305 1768.0 1
417.57797 -165.80305 1768.0 1
438.22006 -166.64708 1777.0 1
463.6761 -169.17914 1804.0 1
195.69456 -225.80139 2167.0 1
216.86449 -224.34259 2153.0 1
227.96187 -213.7142 2051.0 1
242.1608 -207.56639 1992.0 1
258.42984 -204.02359 1958.0 1
268.15176 -196.2086 1883.0 1
281.65952 -192.0406 1843.0 1
296.1295 -189.0188 1814.0 1
311.73166 -187.039 1795.0 1
328.77875 -186.1012 1786.0 1
343.88782 -184.2256 1768.0 1
360.46597 -183.2878 1759.0 1
378.79483 -183.2878 1759.0 1
399.15546 -184.2256 1768.0 1
417.57797 -184.2256 1768.0 1
438.22006 -185.16339 1777.0 1
471.12985 -190.9986 1833.0 1
498.25317 -194.1246 1863.0 1
199.39714 -253.08093 2208.0 1
215.55504 -245.28677 2140.0 1
229.29562 -236.46103 2063.0 1
242.1608 -228.32301 1992.0 1
256.978 -223.16512 1947.0 1
268.15176 -215.82944 1883.0 1
281.65952 -211.24464 1843.0 1
296.1295 -207.92065 1814.0 1
311.73166 -205.74287 1795.0 1
327.12195 -203.67972 1777.0 1
343.88782 -202.64813 1768.0 1
360.46597 -201.61656 1759.0 1
376.85672 -200.58498 1750.0 1
399.15546 -202.64813 1768.0 1
417.57797 -202.64813 1768.0 1
440.4395 -204.7113 1786.0 1
468.81662 -209.06686 1824.0 1
500.92764 -214.68324 1873.0 1
200.75174 -277.96387 2223.0 1
216.86449 -269.21106 2153.0 1
227.96187 -256.457 2051.0 1
239.36476 -246.20372 1969.0 1
255.52612 -242.0774 1936.0 1
268.15176 -235.45027 1883.0 1
283.18777 -231.69908 1853.0 1
297.76196 -228.07292 1824.0 1
311.73166 -224.44676 1795.0 1
325.46518 -221.07068 1768.0 1
343.88782 -221.07068 1768.0 1
360.46597 -219.94533 1759.0 1
376.85672 -218.81996 1750.0 1
399.15546 -221.07068 1768.0 1
417.57797 -221.07068 1768.0 1
440.4395 -223.3214 1786.0 1
481.41092 -234.19987 1873.0 1
509.2185 -238.07611 1904.0 1
200.75174 -301.12762 2223.0 1
220.99428 -297.19928 2194.0 1
227.96187 -277.8285 2051.0 1
239.36476 -266.72076 1969.0 1
255.52612 -262.25058 1936.0 1
268.15176 -255.07121 1883.0 1
283.18777 -251.00742 1853.0 1
299.23117 -248.29822 1833.0 1
311.73166 -243.15073 1795.0 1
325.46518 -239.49332 1768.0 1
342.13724 -238.27417 1759.0 1
360.46597 -238.27417 1759.0 1
378.79483 -238.27417 1759.0 1
399.15546 -239.49332 1768.0 1
419.70364 -240.71245 1777.0 1
438.22006 -240.71245 1777.0 1
486.80847 -256.56128 1894.0 1
514.8349 -260.76053 1925.0 1
202.01604 -326.3336 2237.0 1
220.99428 -320.06073 2194.0 1
227.96187 -299.1999 2051.0 1
240.702 -288.8424 1980.0 1
254.07428 -280.819 1925.0 1
268.15176 -274.69205 1883.0 1
284.71606 -271.77444 1863.0 1
300.86365 -268.85684 1843.0 1
311.73166 -261.8546 1795.0 1
325.46518 -257.91586 1768.0 1
342.13724 -256.60294 1759.0 1
360.46597 -256.60294 1759.0 1
378.79483 -256.60294 1759.0 1
401.18735 -259.22876 1777.0 1
417.57797 -257.91586 1768.0 1
444.87845 -263.16754 1804.0 1
489.37875 -277.75552 1904.0 1
204.63493 -354.17578 2266.0 1
220.99428 -342.92218 2194.0 1
232.0743 -326.3544 2088.0 1
240.702 -309.474 1980.0 1
255.52612 -302.5968 1936.0 1
269.71826 -296.0322 1894.0 1
287.77258 -294.3129 1883.0 1
302.49612 -289.6239 1853.0 1
313.29465 -281.9652 1804.0 1
325.46518 -276.3384 1768.0 1
342.13724 -274.9317 1759.0 1
362.3103 -276.3384 1768.0 1
378.79483 -274.9317 1759.0 1
401.18735 -277.7451 1777.0 1
419.70364 -277.7451 1777.0 1
447.3445 -283.5282 1814.0 1
500.43088 -304.3161 1947.0 1
204.63493 -377.78748 2266.0 1
219.68483 -363.6163 2181.0 1
232.0743 -348.11133 2088.0 1
240.702 -330.10556 1980.0 1
254.07428 -320.93597 1925.0 1
269.71826 -315.76767 1894.0 1
287.77258 -313.93375 1883.0 1
305.76105 -312.26654 1873.0 1
311.73166 -299.2624 1795.0 1
325.46518 -294.76093 1768.0 1
343.88782 -294.76093 1768.0 1
360.46597 -293.26047 1759.0 1
378.79483 -293.26047 1759.0 1
401.18735 -296.2614 1777.0 1
419.70364 -296.2614 1777.0 1
440.4395 -297.7619 1786.0 1
205.98953 -404.05627 2281.0 1
228.2466 -401.3992 2266.0 1
229.29562 -365.43976 2063.0 1
242.1608 -352.86282 1992.0 1
254.07428 -340.99445 1925.0 1
271.1423 -337.2745 1904.0 1
287.77258 -333.55457 1883.0 1
305.76105 -331.78317 1873.0 1
311.73166 -317.96625 1795.0 1
325.46518 -313.18347 1768.0 1
343.88782 -313.18347 1768.0 1
362.3103 -313.18347 1768.0 1
380.73294 -313.18347 1768.0 1
401.18735 -314.77774 1777.0 1
419.70364 -314.77774 1777.0 1
480.1432 -344.89154 1947.0 1
205.98953 -427.8244 2281.0 1
210.31725 -391.6253 2088.0 1
227.96187 -384.6856 2051.0 1
240.702 -371.36884 1980.0 1
255.52612 -363.11618 1936.0 1
272.7088 -359.17743 1915.0 1
290.98193 -357.11426 1904.0 1
309.18924 -355.23868 1894.0 1
308.60565 -333.29416 1777.0 1
325.46518 -331.6061 1768.0 1
343.88782 -331.6061 1768.0 1
362.3103 -331.6061 1768.0 1
382.67108 -333.29416 1777.0 1
407.28305 -338.35828 1804.0 1
457.25732 -363.11618 1936.0 1
493.95316 -375.6827 2003.0 1
208.78905 -457.72977 2312.0 1
216.86449 -426.25095 2153.0 1
227.96187 -406.057 2051.0 1
242.1608 -394.37616 1992.0 1
256.978 -385.46707 1947.0 1
274.13284 -381.1115 1925.0 1
292.66302 -379.1317 1915.0 1
310.8217 -376.95392 1904.0 1
311.73166 -355.3741 1795.0 1
325.46518 -350.02866 1768.0 1
343.88782 -350.02866 1768.0 1
364.15466 -351.8105 1777.0 1
384.6092 -353.5923 1786.0 1
434.60083 -381.1115 1925.0 1
459.85538 -385.46707 1947.0 1
499.87173 -401.30548 2027.0 1
193.25629 -445.97598 2140.0 1
215.55504 -445.97598 2140.0 1
230.74052 -432.6384 2076.0 1
244.95683 -419.926 2015.0 1
259.88168 -410.3396 1969.0 1
278.83228 -408.04718 1958.0 1
294.1913 -401.16998 1925.0 1
312.6174 -399.086 1915.0 1
311.73166 -374.078 1795.0 1
327.12195 -370.32678 1777.0 1
343.88782 -368.4512 1768.0 1
362.3103 -368.4512 1768.0 1
382.67108 -370.32678 1777.0 1
439.5677 -405.7548 1947.0 1
467.64954 -412.632 1980.0 1
499.87173 -422.4268 2027.0 1
190.90833 -462.58545 2114.0 1
211.6267 -459.74078 2101.0 1
227.96187 -448.7998 2051.0 1
243.49803 -438.29642 2003.0 1
259.88168 -430.85657 1969.0 1
277.2658 -426.0425 1947.0 1
295.8724 -423.6355 1936.0 1
312.6174 -419.04028 1915.0 1
311.73166 -392.78186 1795.0 1
327.12195 -388.8431 1777.0 1
343.88782 -386.87375 1768.0 1
362.3103 -386.87375 1768.0 1
378.79483 -384.90436 1759.0 1
442.05112 -428.44952 1958.0 1
470.48376 -435.8894 1992.0 1
496.91245 -440.92227 2015.0 1
189.73433 -481.63318 2101.0 1
209.10854 -475.9022 2076.0 1
226.6281 -467.42032 2039.0 1
242.1608 -456.64603 1992.0 1
258.42984 -448.85187 1958.0 1
275.69934 -443.8086 1936.0 1
294.1913 -441.28696 1925.0 1
310.8217 -436.4729 1904.0 1
311.73166 -411.48575 1795.0 1
327.12195 -407.35944 1777.0 1
345.63837 -407.35944 1777.0 1
364.15466 -407.35944 1777.0 1
380.73294 -405.29626 1768.0 1
444.53455 -451.3735 1969.0 1
473.08182 -459.16766 2003.0 1
189.73433 -503.5257 2101.0 1
206.59036 -491.5427 2051.0 1
223.96059 -482.91492 2015.0 1
240.702 -474.52682 1980.0 1
258.42984 -469.2543 1958.0 1
277.2658 -466.61804 1947.0 1
294.1913 -461.34552 1925.0 1
310.8217 -456.31268 1904.0 1
310.16867 -428.03278 1786.0 1
328.77875 -428.03278 1786.0 1
345.63837 -425.87585 1777.0 1
362.3103 -423.7189 1768.0 1
382.67108 -425.87585 1777.0 1
447.018 -474.52682 1980.0 1
475.91608 -482.91492 2015.0 1
189.73433 -525.4181 2101.0 1
204.17293 -506.91217 2027.0 1
221.4042 -498.15936 1992.0 1
239.36476 -492.40753 1969.0 1
258.42984 -489.65665 1958.0 1
275.69934 -484.15488 1936.0 1
294.1913 -481.40402 1925.0 1
312.6174 -478.9032 1915.0 1
311.73166 -448.89362 1795.0 1
327.12195 -444.39218 1777.0 1
343.88782 -442.14145 1768.0 1
362.3103 -442.14145 1768.0 1
382.67108 -444.39218 1777.0 1
452.21063 -500.91025 2003.0 1
478.7503 -506.91217 2027.0 1
189.73433 -547.3105 2101.0 1
205.38164 -531.1595 2039.0 1
221.4042 -518.916 1992.0 1
239.36476 -512.9245 1969.0 1
256.978 -507.19348 1947.0 1
275.69934 -504.328 1936.0 1
294.1913 -501.4625 1925.0 1
312.6174 -498.85748 1915.0 1
311.73166 -467.5975 1795.0 1
328.77875 -465.253 1786.0 1
343.88782 -460.564 1768.0 1
364.15466 -462.90848 1777.0 1
382.67108 -462.90848 1777.0 1
447.018 -515.79 1980.0 1
189.73433 -569.2029 2101.0 1
205.38164 -552.4058 2039.0 1
222.62682 -542.6527 2003.0 1
239.36476 -533.44147 1969.0 1
258.42984 -530.4613 1958.0 1
277.2658 -527.4812 1947.0 1
294.1913 -521.521 1925.0 1
314.24988 -521.521 1925.0 1
334.30832 -521.521 1925.0 1
327.12195 -481.4248 1777.0 1
343.88782 -478.98654 1768.0 1
362.3103 -478.98654 1768.0 1
384.6092 -483.8631 1786.0 1
407.28305 -488.73965 1804.0 1
186.30267 -580.40436 2063.0 1
205.38164 -573.6522 2039.0 1
223.96059 -566.9 2015.0 1
240.702 -557.05316 1980.0 1
258.42984 -550.86365 1958.0 1
278.83228 -550.86365 1958.0 1
294.1913 -541.57947 1925.0 1
314.24988 -541.57947 1925.0 1
334.30832 -541.57947 1925.0 1
328.77875 -502.4732 1786.0 1
345.63837 -499.94113 1777.0 1
362.3103 -497.4091 1768.0 1
382.67108 -499.94113 1777.0 1
407.28305 -507.53732 1804.0 1
206.59036 -598.3998 2051.0 1
223.96059 -587.8964 2015.0 1
240.702 -577.6848 1980.0 1
259.88168 -574.47546 1969.0 1
278.83228 -571.2661 1958.0 1
297.5535 -568.05676 1947.0 1
314.24988 -561.638 1925.0 1
334.30832 -561.638 1925.0 1
330.43552 -523.7092 1795.0 1
347.38892 -521.0834 1786.0 1
364.15466 -518.4575 1777.0 1
382.67108 -518.4575 1777.0 1
407.28305 -526.3351 1804.0 1
205.38164 -616.145 2039.0 1
222.62682 -605.26654 2003.0 1
240.702 -598.3164 1980.0 1
259.88168 -594.99243 1969.0 1
278.83228 -591.66846 1958.0 1
299.2346 -591.66846 1958.0 1
317.8413 -588.3445 1947.0 1
336.21866 -585.0205 1936.0 1
330.43552 -542.4131 1795.0 1
349.1395 -542.4131 1795.0 1
365.999 -539.6935 1786.0 1
382.67108 -536.9739 1777.0 1
407.28305 -545.13275 1804.0 1
428.44257 -548.15454 1814.0 1
206.59036 -641.1426 2051.0 1
223.96059 -629.889 2015.0 1
240.702 -618.948 1980.0 1
259.88168 -615.5094 1969.0 1
278.83228 -612.0708 1958.0 1
297.5535 -608.6322 1947.0 1
316.0456 -605.1936 1936.0 1
338.129 -608.6322 1947.0 1
360.44162 -612.0708 1958.0 1
349.1395 -561.117 1795.0 1
365.999 -558.3036 1786.0 1
382.67108 -555.4902 1777.0 1
407.28305 -563.9304 1804.0 1
426.0807 -563.9304 1804.0 1
207.79909 -666.3902 2063.0 1
225.29434 -654.76154 2027.0 1
242.1608 -643.4558 1992.0 1
259.88168 -636.02637 1969.0 1
278.83228 -632.47314 1958.0 1
299.2346 -632.47314 1958.0 1
317.8413 -628.9199 1947.0 1
336.21866 -625.3667 1936.0 1
356.39172 -625.3667 1936.0 1
347.38892 -576.9137 1786.0 1
367.84332 -579.82086 1795.0 1
386.5473 -579.82086 1795.0 1
407.28305 -582.728 1804.0 1
428.44257 -585.95825 1814.0 1
206.59036 -683.8854 2051.0 1
225.29434 -675.8828 2027.0 1
243.49803 -667.88025 2003.0 1
261.33356 -660.2111 1980.0 1
278.83228 -652.8755 1958.0 1
299.2346 -652.8755 1958.0 1
317.8413 -649.20764 1947.0 1
336.21866 -645.5398 1936.0 1
358.4167 -649.20764 1947.0 1
378.7045 -649.20764 1947.0 1
367.84332 -598.5248 1795.0 1
386.5473 -598.5248 1795.0 1
407.28305 -601.5257 1804.0 1
426.0807 -601.5257 1804.0 1
225.29434 -697.0043 2027.0 1
243.49803 -688.7516 2003.0 1
262.9174 -684.9692 1992.0 1
280.39874 -677.06036 1969.0 1
299.2346 -673.2779 1958.0 1
319.63702 -673.2779 1958.0 1
340.03934 -673.2779 1958.0 1
360.44162 -673.2779 1958.0 1
376.5649 -665.713 1936.0 1
365.999 -614.134 1786.0 1
386.5473 -617.2287 1795.0 1
407.28305 -620.3235 1804.0 1
428.44257 -623.7621 1814.0 1
447.3445 -623.7621 1814.0 1
492.20602 -658.49194 1915.0 1
198.33078 -697.57733 1969.0 1
223.96059 -713.8742 2015.0 1
244.95683 -713.8742 2015.0 1
262.9174 -705.72577 1992.0 1
280.39874 -697.57733 1969.0 1
299.2346 -693.68024 1958.0 1
317.8413 -689.78314 1947.0 1
338.129 -689.78314 1947.0 1
358.4167 -689.78314 1947.0 1
378.7045 -689.78314 1947.0 1
401.24637 -693.68024 1958.0 1
388.4854 -639.12115 1804.0 1
409.54074 -642.66394 1814.0 1
428.44257 -642.66394 1814.0 1
449.81058 -646.2067 1824.0 1
476.2704 -656.48083 1853.0 1
227.96187 -747.9997 2051.0 1
246.41563 -739.2469 2027.0 1
262.9174 -726.48236 1992.0 1
280.39874 -718.0943 1969.0 1
300.91568 -718.0943 1969.0 1
319.63702 -714.0826 1958.0 1
340.03934 -714.0826 1958.0 1
360.44162 -714.0826 1958.0 1
380.8441 -714.0826 1958.0 1
401.24637 -714.0826 1958.0 1
388.4854 -657.91876 1804.0 1
409.54074 -661.5658 1814.0 1
428.44257 -661.5658 1814.0 1
449.81058 -665.21277 1824.0 1
226.6281 -764.8696 2039.0 1
246.41563 -760.3682 2027.0 1
264.36923 -751.36536 2003.0 1
280.39874 -738.61127 1969.0 1
300.91568 -738.61127 1969.0 1
321.43274 -738.61127 1969.0 1
340.03934 -734.4849 1958.0 1
360.44162 -734.4849 1958.0 1
380.8441 -734.4849 1958.0 1
401.24637 -734.4849 1958.0 1
424.01764 -738.61127 1969.0 1
411.7984 -684.2189 1824.0 1
428.44257 -680.46765 1814.0 1
449.81058 -684.2189 1824.0 1
473.7001 -691.3461 1843.0 1
247.87444 -786.116 2039.0 1
264.36923 -772.2366 2003.0 1
283.6741 -767.9956 1992.0 1
300.91568 -759.12823 1969.0 1
321.43274 -759.12823 1969.0 1
340.03934 -754.88727 1958.0 1
360.44162 -754.88727 1958.0 1
380.8441 -754.88727 1958.0 1
403.50058 -759.12823 1969.0 1
426.38644 -763.36914 1980.0 1
409.54074 -699.3695 1814.0 1
428.44257 -699.3695 1814.0 1
449.81058 -703.2249 1824.0 1
471.12985 -706.69476 1833.0 1
246.41563 -802.61096 2027.0 1
265.95306 -797.85944 2015.0 1
283.6741 -788.7523 1992.0 1
302.59677 -784.00085 1980.0 1
321.43274 -779.64526 1969.0 1
340.03934 -775.28973 1958.0 1
360.44162 -775.28973 1958.0 1
382.98364 -779.64526 1969.0 1
405.75476 -784.00085 1980.0 1
428.9706 -788.7523 1992.0 1
409.54074 -718.2715 1814.0 1
430.8044 -722.2311 1824.0 1
452.03003 -725.7947 1833.0 1
473.7001 -729.75433 1843.0 1
495.5787 -733.7139 1853.0 1
244.95683 -818.8557 2015.0 1
264.36923 -813.9791 2003.0 1
285.24057 -813.9791 2003.0 1
302.59677 -804.6324 1980.0 1
321.43274 -800.16223 1969.0 1
341.94965 -800.16223 1969.0 1
360.44162 -795.692 1958.0 1
382.98364 -800.16223 1969.0 1
403.50058 -800.16223 1969.0 1
428.9706 -809.509 1992.0 1
409.54074 -737.17334 1814.0 1
430.8044 -741.2371 1824.0 1
449.81058 -741.2371 1824.0 1
473.7001 -748.9584 1843.0 1
492.90424 -748.9584 1843.0 1
