ply
format ascii 1.0
comment : created from Kinect user tracker
element vertex 639
property float x
property float y
property float z
property int userId
end_header
709.1851 435.7644 2460.0 1
674.1045 404.46268 2426.0 1
689.5816 398.79422 2392.0 1
724.6624 404.46268 2426.0 1
797.5885 416.1331 2496.0 1
615.5303 390.1248 2496.0 1
636.91205 387.3114 2478.0 1
648.8257 379.1838 2426.0 1
669.3808 376.5267 2409.0 1
694.4825 376.5267 2409.0 1
719.58435 376.5267 2409.0 1
744.6861 376.5267 2409.0 1
775.2203 379.1838 2426.0 1
611.0914 361.49066 2478.0 1
641.5385 364.1165 2496.0 1
653.37225 356.38486 2443.0 1
674.1045 353.9049 2426.0 1
689.5816 348.94498 2392.0 1
719.58435 351.42493 2409.0 1
744.6861 351.42493 2409.0 1
775.2203 353.9049 2426.0 1
800.49915 353.9049 2426.0 1
598.02454 342.9847 2532.0 1
619.9692 340.54642 2514.0 1
636.91205 335.66986 2478.0 1
648.8257 328.62595 2426.0 1
674.1045 328.62595 2426.0 1
694.4825 326.32312 2409.0 1
719.58435 326.32312 2409.0 1
744.6861 326.32312 2409.0 1
775.2203 328.62595 2426.0 1
800.49915 328.62595 2426.0 1
624.4081 316.6013 2532.0 1
636.91205 309.84912 2478.0 1
653.37225 305.47272 2443.0 1
678.82825 305.47272 2443.0 1
694.4825 301.22137 2409.0 1
724.6624 303.34705 2426.0 1
744.6861 301.22137 2409.0 1
593.7732 288.15466 2514.0 1
619.9692 288.15466 2514.0 1
636.91205 284.02832 2478.0 1
653.37225 280.01663 2443.0 1
678.82825 280.01663 2443.0 1
704.28424 280.01663 2443.0 1
729.7404 280.01663 2443.0 1
755.1964 280.01663 2443.0 1
786.08484 281.96518 2460.0 1
811.71796 281.96518 2460.0 1
624.4081 263.83438 2532.0 1
641.5385 260.0832 2496.0 1
662.7329 258.20758 2478.0 1
674.1045 252.7892 2426.0 1
699.38336 252.7892 2426.0 1
724.6624 252.7892 2426.0 1
760.45154 256.332 2460.0 1
791.8367 258.20758 2478.0 1
641.5385 234.0749 2496.0 1
662.7329 232.38686 2478.0 1
678.82825 229.10455 2443.0 1
704.28424 229.10455 2443.0 1
729.7404 229.10455 2443.0 1
771.58014 234.0749 2496.0 1
803.3404 235.76294 2514.0 1
661.08636 233.32462 2799.0 1
684.8267 231.4907 2777.0 1
696.79926 225.98894 2711.0 1
667.54694 208.06654 2496.0 1
683.552 205.06558 2460.0 1
709.1851 205.06558 2460.0 1
745.57184 208.06654 2496.0 1
782.7087 211.0675 2532.0 1
809.0922 211.0675 2532.0 1
661.08636 204.15907 2799.0 1
673.9761 199.34503 2733.0 1
696.79926 197.74036 2711.0 1
687.338 187.45581 2570.0 1
693.5552 182.05824 2496.0 1
719.5634 182.05824 2496.0 1
762.00073 186.06995 2551.0 1
788.5821 186.06995 2551.0 1
809.0922 184.68408 2532.0 1
829.5362 183.37117 2514.0 1
655.89026 173.61801 2777.0 1
668.5507 169.49168 2711.0 1
686.00415 166.86584 2669.0 1
703.1174 164.36505 2629.0 1
714.1173 160.67638 2570.0 1
735.4192 159.4885 2551.0 1
762.00073 159.4885 2551.0 1
794.4555 160.67638 2570.0 1
809.0922 158.30061 2532.0 1
829.5362 157.17525 2514.0 1
849.60504 156.0499 2496.0 1
621.7614 143.4834 2754.0 1
640.30194 141.2431 2711.0 1
658.19324 139.0549 2669.0 1
680.8636 138.0129 2649.0 1
703.1174 136.9709 2629.0 1
719.3968 134.8869 2589.0 1
740.89667 133.897 2570.0 1
767.67615 133.897 2570.0 1
788.5821 132.9071 2551.0 1
803.3404 130.9794 2514.0 1
823.5968 130.0416 2496.0 1
843.4781 129.10379 2478.0 1
869.29895 129.10379 2478.0 1
901.6217 130.0416 2496.0 1
640.30194 112.99451 2711.0 1
658.19324 111.24394 2669.0 1
675.7231 109.576744 2629.0 1
692.4195 107.909546 2589.0 1
714.1173 107.11762 2570.0 1
735.4192 106.32571 2551.0 1
762.00073 106.32571 2551.0 1
777.1444 104.78355 2514.0 1
797.5885 104.0333 2496.0 1
823.5968 104.0333 2496.0 1
843.4781 103.283066 2478.0 1
862.98444 102.53282 2460.0 1
895.1196 103.283066 2478.0 1
927.6301 104.0333 2496.0 1
617.02026 85.43356 2733.0 1
640.30194 84.74584 2711.0 1
653.2611 82.807724 2649.0 1
675.7231 82.182526 2629.0 1
692.4195 80.93213 2589.0 1
714.1173 80.33819 2570.0 1
735.4192 79.74425 2551.0 1
756.3253 79.15031 2532.0 1
777.1444 78.58762 2514.0 1
797.5885 78.02495 2496.0 1
817.6574 77.462265 2478.0 1
843.4781 77.462265 2478.0 1
857.0207 76.368164 2443.0 1
882.4767 76.368164 2443.0 1
927.6301 78.02495 2496.0 1
617.02026 56.955734 2733.0 1
640.30194 56.497253 2711.0 1
653.2611 55.205173 2649.0 1
675.7231 54.788372 2629.0 1
687.338 53.55881 2570.0 1
714.1173 53.55881 2570.0 1
735.4192 53.162853 2551.0 1
756.3253 52.76689 2532.0 1
771.58014 52.01665 2496.0 1
797.5885 52.01665 2496.0 1
817.6574 51.641533 2478.0 1
843.4781 51.641533 2478.0 1
857.0207 50.912132 2443.0 1
882.4767 50.912132 2443.0 1
920.9405 51.641533 2478.0 1
612.0534 28.248592 2711.0 1
635.34204 28.029772 2690.0 1
653.2611 27.602552 2649.0 1
670.5825 27.185753 2609.0 1
692.4195 26.977354 2589.0 1
714.1173 26.779373 2570.0 1
729.9418 26.383415 2532.0 1
756.3253 26.383415 2532.0 1
771.58014 26.008295 2496.0 1
797.5885 26.008295 2496.0 1
817.6574 25.820734 2478.0 1
843.4781 25.820734 2478.0 1
869.29895 25.820734 2478.0 1
888.61755 25.633175 2460.0 1
920.9405 25.820734 2478.0 1
946.76117 25.820734 2478.0 1
607.3123 0.0 2690.0 1
635.34204 0.0 2690.0 1
653.2611 0.0 2649.0 1
675.7231 0.0 2629.0 1
687.338 0.0 2570.0 1
708.8378 0.0 2551.0 1
729.9418 0.0 2532.0 1
756.3253 0.0 2532.0 1
777.1444 0.0 2514.0 1
791.8367 0.0 2478.0 1
817.6574 0.0 2478.0 1
843.4781 0.0 2478.0 1
862.98444 0.0 2460.0 1
888.61755 0.0 2460.0 1
914.25085 0.0 2460.0 1
946.76117 0.0 2478.0 1
607.3123 -28.029772 2690.0 1
640.30194 -28.248592 2711.0 1
653.2611 -27.602552 2649.0 1
670.5825 -27.185753 2609.0 1
687.338 -26.779373 2570.0 1
708.8378 -26.581394 2551.0 1
735.4192 -26.581394 2551.0 1
756.3253 -26.383415 2532.0 1
782.7087 -26.383415 2532.0 1
803.3404 -26.195854 2514.0 1
823.5968 -26.008295 2496.0 1
843.4781 -25.820734 2478.0 1
869.29895 -25.820734 2478.0 1
895.1196 -25.820734 2478.0 1
927.6301 -26.008295 2496.0 1
939.884 -25.633175 2460.0 1
621.7614 -57.393303 2754.0 1
635.34204 -56.059544 2690.0 1
653.2611 -55.205105 2649.0 1
670.5825 -54.371506 2609.0 1
687.338 -53.558746 2570.0 1
708.8378 -53.16279 2551.0 1
735.4192 -53.16279 2551.0 1
756.3253 -52.76683 2532.0 1
777.1444 -52.39171 2514.0 1
809.0922 -52.76683 2532.0 1
829.5362 -52.39171 2514.0 1
849.60504 -52.01659 2496.0 1
869.29895 -51.641468 2478.0 1
901.6217 -52.01659 2496.0 1
927.6301 -52.01659 2496.0 1
621.7614 -86.090096 2754.0 1
635.34204 -84.089455 2690.0 1
653.2611 -82.80779 2649.0 1
670.5825 -81.55739 2609.0 1
697.76843 -81.55739 2609.0 1
714.1173 -80.33825 2570.0 1
740.89667 -80.33825 2570.0 1
762.00073 -79.74431 2551.0 1
788.5821 -79.74431 2551.0 1
815.1636 -79.74431 2551.0 1
841.74493 -79.74431 2551.0 1
849.60504 -78.02501 2496.0 1
869.29895 -77.462326 2478.0 1
901.6217 -78.02501 2496.0 1
927.6301 -78.02501 2496.0 1
953.63837 -78.02501 2496.0 1
617.02026 -113.91147 2733.0 1
635.34204 -112.119225 2690.0 1
653.2611 -110.41035 2649.0 1
675.7231 -109.576744 2629.0 1
703.1174 -109.576744 2629.0 1
724.9541 -108.74314 2609.0 1
740.89667 -107.11762 2570.0 1
767.67615 -107.11762 2570.0 1
794.4555 -107.11762 2570.0 1
821.235 -107.11762 2570.0 1
848.01434 -107.11762 2570.0 1
855.732 -104.78355 2514.0 1
881.928 -104.78355 2514.0 1
908.1238 -104.78355 2514.0 1
934.31976 -104.78355 2514.0 1
967.39276 -105.53378 2532.0 1
612.0534 -141.2431 2711.0 1
635.34204 -140.149 2690.0 1
653.2611 -138.0129 2649.0 1
675.7231 -136.9709 2629.0 1
703.1174 -136.9709 2629.0 1
730.5115 -136.9709 2629.0 1
752.13983 -135.9289 2609.0 1
773.35156 -134.8869 2589.0 1
800.3289 -134.8869 2589.0 1
821.235 -133.897 2570.0 1
860.883 -135.9289 2609.0 1
874.79364 -133.897 2570.0 1
894.90784 -132.9071 2551.0 1
908.1238 -130.9794 2514.0 1
941.0094 -131.91719 2532.0 1
953.63837 -130.0416 2496.0 1
612.0534 -169.49168 2711.0 1
635.34204 -168.17877 2690.0 1
658.19324 -166.86584 2669.0 1
680.8636 -165.61545 2649.0 1
703.1174 -164.36505 2629.0 1
730.5115 -164.36505 2629.0 1
757.9056 -164.36505 2629.0 1
779.3257 -163.11465 2609.0 1
806.5114 -163.11465 2609.0 1
833.6973 -163.11465 2609.0 1
867.48236 -164.36505 2629.0 1
881.261 -161.86426 2589.0 1
894.90784 -159.4885 2551.0 1
914.62585 -158.30061 2532.0 1
941.0094 -158.30061 2532.0 1
974.65204 -159.4885 2551.0 1
635.47754 -226.18687 3101.0 1
655.94604 -222.17517 3046.0 1
617.02026 -199.34496 2733.0 1
640.30194 -197.74028 2711.0 1
658.19324 -194.6768 2669.0 1
680.8636 -193.218 2649.0 1
708.46625 -193.218 2649.0 1
730.5115 -191.7592 2629.0 1
757.9056 -191.7592 2629.0 1
779.3257 -190.3004 2609.0 1
806.5114 -190.3004 2609.0 1
840.08826 -191.7592 2629.0 1
867.48236 -191.7592 2629.0 1
894.87646 -191.7592 2629.0 1
901.5732 -187.45575 2570.0 1
921.4892 -186.06989 2551.0 1
941.0094 -184.68402 2532.0 1
967.39276 -184.68402 2532.0 1
641.2155 -260.8335 3129.0 1
655.94604 -253.91461 3046.0 1
617.02026 -227.82294 2733.0 1
645.49805 -227.82294 2733.0 1
663.37195 -224.23845 2690.0 1
686.00415 -222.48788 2669.0 1
708.46625 -220.8207 2649.0 1
736.0688 -220.8207 2649.0 1
757.9056 -219.15349 2629.0 1
785.29987 -219.15349 2629.0 1
812.694 -219.15349 2629.0 1
840.08826 -219.15349 2629.0 1
874.08167 -220.8207 2649.0 1
894.87646 -219.15349 2629.0 1
901.5732 -214.23524 2570.0 1
921.4892 -212.65141 2551.0 1
948.0707 -212.65141 2551.0 1
996.8119 -217.48628 2609.0 1
641.2155 -293.43765 3129.0 1
661.7604 -288.18597 3073.0 1
626.95404 -260.4271 2777.0 1
645.49805 -256.30075 2733.0 1
663.37195 -252.26822 2690.0 1
691.4017 -252.26822 2690.0 1
713.8152 -250.29884 2669.0 1
736.0688 -248.42325 2649.0 1
757.9056 -246.54764 2629.0 1
785.29987 -246.54764 2629.0 1
812.694 -246.54764 2629.0 1
840.08826 -246.54764 2629.0 1
874.08167 -248.42325 2649.0 1
894.87646 -246.54764 2629.0 1
894.90784 -239.2328 2551.0 1
928.3525 -241.01462 2570.0 1
948.0707 -239.2328 2551.0 1
641.2155 -326.0418 3129.0 1
661.7604 -320.2066 3073.0 1
631.9209 -291.6558 2799.0 1
650.458 -286.9668 2754.0 1
668.5507 -282.4862 2711.0 1
696.79926 -282.4862 2711.0 1
713.8152 -278.1098 2669.0 1
741.6261 -278.1098 2669.0 1
757.9056 -273.9418 2629.0 1
785.29987 -273.9418 2629.0 1
818.87646 -276.0258 2649.0 1
846.4792 -276.0258 2649.0 1
874.08167 -276.0258 2649.0 1
888.0687 -271.8578 2609.0 1
894.90784 -265.8142 2551.0 1
928.3525 -267.794 2570.0 1
962.1933 -269.7738 2589.0 1
641.2155 -358.64594 3129.0 1
661.7604 -352.22723 3073.0 1
637.1135 -323.4576 2822.0 1
655.89026 -318.2997 2777.0 1
673.9761 -313.25644 2733.0 1
696.79926 -310.7348 2711.0 1
719.4316 -308.32776 2690.0 1
741.6261 -305.92075 2669.0 1
763.6713 -303.62836 2649.0 1
785.29987 -301.33594 2629.0 1
818.87646 -303.62836 2649.0 1
846.4792 -303.62836 2649.0 1
874.08167 -303.62836 2649.0 1
894.87646 -301.33594 2629.0 1
901.5732 -294.57336 2570.0 1
928.3525 -294.57336 2570.0 1
948.0707 -292.3956 2551.0 1
641.2155 -391.2501 3129.0 1
667.7901 -387.74896 3101.0 1
642.30615 -355.73874 2845.0 1
661.08636 -349.9869 2799.0 1
679.1548 -344.3601 2754.0 1
696.79926 -338.98337 2711.0 1
725.048 -338.98337 2711.0 1
747.4613 -336.35754 2690.0 1
763.6713 -331.2309 2649.0 1
791.274 -331.2309 2649.0 1
818.87646 -331.2309 2649.0 1
846.4792 -331.2309 2649.0 1
880.681 -333.7317 2669.0 1
894.87646 -328.7301 2629.0 1
901.5732 -321.35275 2570.0 1
928.3525 -321.35275 2570.0 1
948.0707 -318.977 2551.0 1
667.7901 -420.06152 3101.0 1
631.9209 -379.1526 2799.0 1
661.08636 -379.1526 2799.0 1
673.9761 -370.21222 2733.0 1
696.79926 -367.23212 2711.0 1
725.048 -367.23212 2711.0 1
753.2965 -367.23212 2711.0 1
769.437 -361.5428 2669.0 1
791.274 -358.8336 2649.0 1
818.87646 -358.8336 2649.0 1
852.8701 -361.5428 2669.0 1
887.6103 -364.38745 2690.0 1
888.0687 -353.4152 2609.0 1
915.25464 -353.4152 2609.0 1
935.21576 -350.706 2589.0 1
955.13196 -348.13223 2570.0 1
622.998 -422.03085 2893.0 1
637.1135 -411.67337 2822.0 1
661.08636 -408.31815 2799.0 1
679.1548 -401.75354 2754.0 1
696.79926 -395.4807 2711.0 1
719.4316 -392.4172 2690.0 1
747.4613 -392.4172 2690.0 1
769.437 -389.35373 2669.0 1
791.274 -386.43613 2649.0 1
831.55066 -392.4172 2690.0 1
859.58057 -392.4172 2690.0 1
901.7989 -398.69006 2733.0 1
888.0687 -380.60095 2609.0 1
908.23846 -377.68335 2589.0 1
935.21576 -377.68335 2589.0 1
638.93365 -463.7421 2967.0 1
653.14294 -452.1759 2893.0 1
650.458 -430.4502 2754.0 1
673.9761 -427.16788 2733.0 1
696.79926 -423.72928 2711.0 1
713.8152 -417.1647 2669.0 1
741.6261 -417.1647 2669.0 1
769.437 -417.1647 2669.0 1
791.274 -414.0387 2649.0 1
825.059 -417.1647 2669.0 1
866.2911 -423.72928 2711.0 1
887.6103 -420.447 2690.0 1
894.87646 -410.9127 2629.0 1
915.25464 -407.78668 2609.0 1
942.4403 -407.78668 2609.0 1
638.93365 -494.6582 2967.0 1
658.56134 -486.3222 2917.0 1
650.458 -459.14685 2754.0 1
673.9761 -455.64572 2733.0 1
696.79926 -451.97787 2711.0 1
719.4316 -448.47678 2690.0 1
747.4613 -448.47678 2690.0 1
775.491 -448.47678 2690.0 1
803.52094 -448.47678 2690.0 1
838.04236 -451.97787 2711.0 1
866.2911 -451.97787 2711.0 1
894.87646 -438.30685 2629.0 1
922.27075 -438.30685 2629.0 1
956.8894 -441.64124 2649.0 1
647.72455 -508.2146 2869.0 1
650.458 -487.8435 2754.0 1
673.9761 -484.12357 2733.0 1
696.79926 -480.22647 2711.0 1
725.048 -480.22647 2711.0 1
747.4613 -476.50653 2690.0 1
775.491 -476.50653 2690.0 1
809.7938 -480.22647 2711.0 1
838.04236 -480.22647 2711.0 1
874.08167 -469.2438 2649.0 1
894.87646 -465.701 2629.0 1
922.27075 -465.701 2629.0 1
987.2324 -484.12357 2733.0 1
626.95404 -520.8542 2777.0 1
650.458 -516.5403 2754.0 1
673.9761 -512.6015 2733.0 1
696.79926 -508.47522 2711.0 1
719.4316 -504.53644 2690.0 1
753.2965 -508.47522 2711.0 1
781.54504 -508.47522 2711.0 1
809.7938 -508.47522 2711.0 1
874.08167 -496.8465 2649.0 1
901.6842 -496.8465 2649.0 1
929.28687 -496.8465 2649.0 1
626.95404 -549.79047 2777.0 1
655.89026 -549.79047 2777.0 1
673.9761 -541.07935 2733.0 1
696.79926 -536.7238 2711.0 1
725.048 -536.7238 2711.0 1
753.2965 -536.7238 2711.0 1
781.54504 -536.7238 2711.0 1
816.36536 -541.07935 2733.0 1
880.681 -528.4086 2669.0 1
901.6842 -524.44904 2649.0 1
929.28687 -524.44904 2649.0 1
579.2826 -560.596 2690.0 1
626.95404 -578.7268 2777.0 1
655.89026 -578.7268 2777.0 1
673.9761 -569.5572 2733.0 1
702.45386 -569.5572 2733.0 1
730.9318 -569.5572 2733.0 1
759.4096 -569.5572 2733.0 1
787.8874 -569.5572 2733.0 1
887.6103 -560.596 2690.0 1
908.49194 -556.2196 2669.0 1
936.30304 -556.2196 2669.0 1
612.6613 -622.54285 2845.0 1
626.95404 -607.6631 2777.0 1
655.89026 -607.6631 2777.0 1
679.1548 -602.63025 2754.0 1
707.8514 -602.63025 2754.0 1
736.54816 -602.63025 2754.0 1
771.63574 -607.6631 2777.0 1
885.90485 -672.43384 3073.0 1
887.6103 -588.62573 2690.0 1
915.6401 -588.62573 2690.0 1
936.30304 -584.0305 2669.0 1
942.4403 -570.90137 2609.0 1
612.6613 -652.18774 2845.0 1
626.95404 -636.5994 2777.0 1
655.89026 -636.5994 2777.0 1
684.8267 -636.5994 2777.0 1
713.763 -636.5994 2777.0 1
748.58325 -641.6427 2799.0 1
831.6549 -686.11523 2993.0 1
885.90485 -704.45447 3073.0 1
926.28937 -710.87317 3101.0 1
617.82965 -687.5846 2869.0 1
631.9209 -670.8084 2799.0 1
655.89026 -665.5359 2777.0 1
684.8267 -665.5359 2777.0 1
713.763 -665.5359 2777.0 1
748.58325 -670.8084 2799.0 1
853.8843 -736.4752 3073.0 1
885.90485 -736.4752 3073.0 1
917.9256 -736.4752 3073.0 1
949.94617 -736.4752 3073.0 1
612.6613 -711.4776 2845.0 1
626.95404 -694.47217 2777.0 1
661.08636 -699.97394 2799.0 1
690.2521 -699.97394 2799.0 1
719.4176 -699.97394 2799.0 1
754.73456 -705.72577 2822.0 1
861.6645 -775.4981 3101.0 1
885.90485 -768.49585 3073.0 1
926.28937 -775.4981 3101.0 1
958.60175 -775.4981 3101.0 1
612.6613 -741.1225 2845.0 1
631.9209 -729.13947 2799.0 1
666.5187 -735.131 2822.0 1
690.2521 -729.13947 2799.0 1
725.3292 -735.131 2822.0 1
829.3522 -807.8105 3101.0 1
869.44476 -815.1045 3129.0 1
902.0489 -815.1045 3129.0 1
926.28937 -807.8105 3101.0 1
958.60175 -807.8105 3101.0 1
999.8616 -815.1045 3129.0 1
612.6613 -770.76733 2845.0 1
637.1135 -764.5362 2822.0 1
666.5187 -764.5362 2822.0 1
695.924 -764.5362 2822.0 1
731.24084 -770.76733 2845.0 1
910.1209 -855.2944 3157.0 1
934.6532 -847.7086 3129.0 1
967.25726 -847.7086 3129.0 1
999.8616 -847.7086 3129.0 1
1041.7047 -855.2944 3157.0 1
617.82965 -807.16437 2869.0 1
637.1135 -793.9414 2822.0 1
677.61945 -807.16437 2869.0 1
713.4331 -813.91656 2893.0 1
737.4095 -807.16437 2869.0 1
943.01697 -888.1903 3157.0 1
967.25726 -880.3128 3129.0 1
999.8616 -880.3128 3129.0 1
1041.7047 -888.1903 3157.0 1
1094.6835 -904.78937 3216.0 1
617.82965 -837.0595 2869.0 1
642.30615 -830.05725 2845.0 1
671.951 -830.05725 2845.0 1
713.4331 -844.0617 2893.0 1
743.5781 -844.0617 2893.0 1
951.67944 -929.5474 3186.0 1
984.8775 -929.5474 3186.0 1
1008.8089 -921.08636 3157.0 1
1032.4657 -912.9171 3129.0 1
1094.6835 -938.30023 3216.0 1
1128.1942 -938.30023 3216.0 1
622.998 -874.2067 2893.0 1
647.72455 -866.9544 2869.0 1
677.61945 -866.9544 2869.0 1
707.5145 -866.9544 2869.0 1
978.86176 -990.2439 3277.0 1
994.1513 -971.8109 3216.0 1
1018.07574 -962.7455 3186.0 1
1051.2738 -962.7455 3186.0 1
1074.6006 -953.9823 3157.0 1
1117.67 -962.7455 3186.0 1
1161.705 -971.8109 3216.0 1
628.1663 -911.8542 2917.0 1
653.14294 -904.3518 2893.0 1
683.28796 -904.3518 2893.0 1
713.4331 -904.3518 2893.0 1
1003.4251 -1014.6996 3246.0 1
1027.6621 -1005.3216 3216.0 1
1051.2738 -995.9436 3186.0 1
1084.4718 -995.9436 3186.0 1
1117.67 -995.9436 3186.0 1
1161.705 -1005.3216 3216.0 1
1206.3651 -1014.6996 3246.0 1
633.55 -950.32477 2942.0 1
653.14294 -934.4968 2893.0 1
683.28796 -934.4968 2893.0 1
725.51685 -950.32477 2942.0 1
1013.008 -1058.5365 3277.0 1
1027.6621 -1038.8323 3216.0 1
1051.2738 -1029.1417 3186.0 1
1094.6835 -1038.8323 3216.0 1
1117.67 -1029.1417 3186.0 1
1161.705 -1038.8323 3216.0 1
613.34546 -997.98584 2993.0 1
633.55 -980.9804 2942.0 1
658.56134 -972.6444 2917.0 1
694.8611 -980.9804 2942.0 1
731.682 -989.3164 2967.0 1
1084.4718 -1062.3397 3186.0 1
613.34546 -1029.173 2993.0 1
633.55 -1011.63617 2942.0 1
664.2055 -1011.63617 2942.0 1
700.76575 -1020.23267 2967.0 1
1094.6835 -1105.8538 3216.0 1
592.46735 -1079.1368 3046.0 1
608.0174 -1051.1488 2967.0 1
638.93365 -1051.1488 2967.0 1
658.56134 -1033.4348 2917.0 1
713.0474 -1069.5713 3019.0 1
565.69824 -1120.723 3073.0 1
582.1585 -1091.5471 2993.0 1
613.34546 -1091.5471 2993.0 1
644.53265 -1091.5471 2993.0 1
664.2055 -1072.9474 2942.0 1
725.8015 -1120.723 3073.0 1
533.6777 -1152.7437 3073.0 1
560.7279 -1142.6155 3046.0 1
587.21564 -1132.4872 3019.0 1
613.34546 -1122.7341 2993.0 1
650.13165 -1132.4872 3019.0 1
492.84177 -1163.9452 3019.0 1
524.2997 -1163.9452 3019.0 1
555.75757 -1163.9452 3019.0 1
587.21564 -1163.9452 3019.0 1
613.34546 -1153.9211 2993.0 1
650.13165 -1163.9452 3019.0 1
613.34546 -1185.1083 2993.0 1
644.53265 -1185.1083 2993.0 1
