ply
format ascii 1.0
comment : created from Kinect user tracker
element vertex 890
property float x
property float y
property float z
property int userId
end_header
748.8681 272.95187 2015.0 1
715.2948 254.95656 2039.0 1
732.2064 253.45609 2027.0 1
753.3278 253.45609 2027.0 1
765.27954 250.45512 2003.0 1
698.133 235.0856 2051.0 1
711.08514 232.33472 2027.0 1
732.2064 232.33472 2027.0 1
753.3278 232.33472 2027.0 1
769.8643 230.95927 2015.0 1
786.1507 229.58383 2003.0 1
802.5901 228.32301 1992.0 1
818.3868 226.94757 1980.0 1
685.0108 216.3192 2076.0 1
698.133 213.7142 2051.0 1
711.08514 211.2134 2027.0 1
732.2064 211.2134 2027.0 1
748.8681 209.963 2015.0 1
761.0768 207.56639 1992.0 1
786.1507 208.7126 2003.0 1
807.0221 208.7126 2003.0 1
818.3868 206.316 1980.0 1
844.1034 207.56639 1992.0 1
874.8458 209.963 2015.0 1
675.52167 198.25093 2114.0 1
680.7212 193.46815 2063.0 1
698.133 192.3428 2051.0 1
706.8754 188.96672 2015.0 1
727.8717 188.96672 2015.0 1
748.8681 188.96672 2015.0 1
761.0768 186.80978 1992.0 1
772.80615 184.65283 1969.0 1
797.7552 185.68442 1980.0 1
809.2936 183.62126 1958.0 1
839.01843 185.68442 1980.0 1
864.86 186.80978 1992.0 1
901.1771 190.09207 2027.0 1
671.3676 175.13934 2101.0 1
680.7212 171.97166 2063.0 1
698.133 170.97134 2051.0 1
711.08514 168.9707 2027.0 1
727.8717 167.97038 2015.0 1
744.4083 166.97006 2003.0 1
761.0768 166.0531 1992.0 1
777.12354 165.05278 1980.0 1
797.7552 165.05278 1980.0 1
809.2936 163.21887 1958.0 1
839.01843 165.05278 1980.0 1
880.05585 168.9707 2027.0 1
659.2248 150.47523 2063.0 1
676.7616 149.59995 2051.0 1
694.04834 148.72467 2039.0 1
706.8754 146.9741 2015.0 1
727.8717 146.9741 2015.0 1
744.4083 146.09883 2003.0 1
756.492 144.4212 1980.0 1
777.12354 144.4212 1980.0 1
797.7552 144.4212 1980.0 1
823.3467 145.2965 1992.0 1
844.1034 145.2965 1992.0 1
880.05585 147.84938 2027.0 1
659.2248 128.97874 2063.0 1
680.7212 128.97874 2063.0 1
685.8791 125.977776 2015.0 1
706.8754 125.977776 2015.0 1
723.537 125.22754 2003.0 1
744.4083 125.22754 2003.0 1
756.492 123.78958 1980.0 1
781.8334 124.53982 1992.0 1
802.5901 124.53982 1992.0 1
832.8532 125.977776 2015.0 1
858.9345 126.72802 2027.0 1
895.6858 128.97874 2063.0 1
653.4937 110.1394 2114.0 1
667.2135 108.7848 2088.0 1
680.7212 107.4823 2063.0 1
689.9637 105.6067 2027.0 1
706.8754 104.9815 2015.0 1
723.537 104.3563 2003.0 1
748.8681 104.9815 2015.0 1
769.8643 104.9815 2015.0 1
781.8334 103.783195 1992.0 1
816.69183 105.6067 2027.0 1
842.773 106.231895 2039.0 1
874.1894 107.4823 2063.0 1
906.54 108.7848 2088.0 1
663.3789 86.5277 2076.0 1
680.7212 85.985855 2063.0 1
694.04834 84.98554 2039.0 1
711.08514 84.48538 2027.0 1
732.2064 84.48538 2027.0 1
748.8681 83.98522 2015.0 1
769.8643 83.98522 2015.0 1
790.8606 83.98522 2015.0 1
816.69183 84.48538 2027.0 1
852.6929 85.985855 2063.0 1
884.7831 87.02786 2088.0 1
917.8283 88.11154 2114.0 1
586.2778 71.30405 2281.0 1
598.27826 69.928604 2237.0 1
617.6976 69.49097 2223.0 1
636.53687 69.022064 2208.0 1
647.29736 67.74041 2167.0 1
665.5497 67.302765 2153.0 1
675.52167 66.083626 2114.0 1
680.7212 64.48937 2063.0 1
694.04834 63.73913 2039.0 1
711.08514 63.36401 2027.0 1
732.2064 63.36401 2027.0 1
762.2474 64.11425 2051.0 1
783.6187 64.11425 2051.0 1
804.9901 64.11425 2051.0 1
831.1965 64.48937 2063.0 1
858.0661 64.89575 2076.0 1
895.8005 66.083626 2114.0 1
566.4555 47.86949 2297.0 1
582.42236 47.22345 2266.0 1
594.534 46.32733 2223.0 1
606.02716 45.45205 2181.0 1
624.71716 45.16029 2167.0 1
639.2323 44.59761 2140.0 1
657.5124 44.32669 2127.0 1
675.52167 44.05577 2114.0 1
693.25995 43.78485 2101.0 1
706.64264 43.26385 2076.0 1
728.27466 43.26385 2076.0 1
745.2106 42.992928 2063.0 1
771.5385 43.26385 2076.0 1
793.1704 43.26385 2076.0 1
814.80225 43.26385 2076.0 1
836.43427 43.26385 2076.0 1
546.0635 24.091017 2312.0 1
562.5098 23.767998 2281.0 1
574.9686 23.309517 2237.0 1
586.778 22.861458 2194.0 1
602.1371 22.580118 2167.0 1
620.68115 22.434238 2153.0 1
635.3491 22.163319 2127.0 1
657.5124 22.163319 2127.0 1
667.2135 21.756939 2088.0 1
685.0108 21.631899 2076.0 1
702.21765 21.496439 2063.0 1
728.27466 21.631899 2076.0 1
754.2412 21.756939 2088.0 1
771.5385 21.631899 2076.0 1
793.1704 21.631899 2076.0 1
819.5121 21.756939 2088.0 1
846.5069 21.892399 2101.0 1
542.5207 0.0 2297.0 1
558.8107 0.0 2266.0 1
571.37024 0.0 2223.0 1
583.3012 0.0 2181.0 1
602.1371 0.0 2167.0 1
616.9334 0.0 2140.0 1
635.3491 0.0 2127.0 1
645.4564 0.0 2088.0 1
663.3789 0.0 2076.0 1
680.7212 0.0 2063.0 1
698.133 0.0 2051.0 1
719.5045 0.0 2051.0 1
745.2106 0.0 2063.0 1
771.5385 0.0 2076.0 1
528.9713 -24.414036 2343.0 1
538.7417 -23.767998 2281.0 1
551.6591 -23.309517 2237.0 1
563.91644 -22.861458 2194.0 1
579.55695 -22.580118 2167.0 1
598.24695 -22.434238 2153.0 1
613.18567 -22.163319 2127.0 1
631.4659 -22.027859 2114.0 1
641.74695 -21.631899 2076.0 1
659.2248 -21.496439 2063.0 1
672.802 -21.246359 2039.0 1
689.9637 -21.121319 2027.0 1
711.08514 -21.121319 2027.0 1
732.2064 -21.121319 2027.0 1
766.7071 -21.496439 2063.0 1
532.58356 -49.16151 2359.0 1
538.7417 -47.535995 2281.0 1
548.20667 -46.327274 2223.0 1
560.57513 -45.451996 2181.0 1
579.55695 -45.160236 2167.0 1
602.1371 -45.160236 2167.0 1
613.18567 -44.326637 2127.0 1
627.5827 -43.784798 2101.0 1
641.74695 -43.263798 2076.0 1
655.39026 -42.742798 2051.0 1
672.802 -42.492718 2039.0 1
685.8791 -41.992558 2015.0 1
706.8754 -41.992558 2015.0 1
719.5635 -41.51324 1992.0 1
748.8681 -41.992558 2015.0 1
769.8643 -41.992558 2015.0 1
536.4216 -74.2738 2376.0 1
542.5207 -71.80427 2297.0 1
548.20667 -69.49102 2223.0 1
560.57513 -68.1781 2181.0 1
579.55695 -67.74046 2167.0 1
602.1371 -67.74046 2167.0 1
613.18567 -66.49006 2127.0 1
623.6995 -65.27092 2088.0 1
637.7283 -64.48942 2063.0 1
651.5557 -63.739178 2039.0 1
668.8424 -63.36406 2027.0 1
685.8791 -62.988937 2015.0 1
698.8069 -62.26996 1992.0 1
719.5635 -62.26996 1992.0 1
735.8604 -61.894836 1980.0 1
756.492 -61.894836 1980.0 1
772.80615 -61.55098 1969.0 1
518.7702 -100.40714 2409.0 1
543.8719 -100.40714 2409.0 1
546.0635 -96.36418 2312.0 1
548.20667 -92.65466 2223.0 1
560.57513 -90.9041 2181.0 1
579.55695 -90.32058 2167.0 1
598.24695 -89.73706 2153.0 1
609.4379 -88.11154 2114.0 1
620.11505 -86.5277 2076.0 1
637.7283 -85.985855 2063.0 1
651.5557 -84.98554 2039.0 1
664.8828 -83.98522 2015.0 1
681.79443 -83.48506 2003.0 1
694.5972 -82.52642 1980.0 1
715.22876 -82.52642 1980.0 1
735.8604 -82.52642 1980.0 1
752.28925 -82.06794 1969.0 1
772.80615 -82.06794 1969.0 1
793.32324 -82.06794 1969.0 1
543.8719 -125.508896 2409.0 1
546.0635 -120.4552 2312.0 1
548.20667 -115.8183 2223.0 1
560.57513 -113.6301 2181.0 1
575.81274 -112.171295 2153.0 1
594.63464 -111.493996 2140.0 1
609.4379 -110.1394 2114.0 1
616.2319 -107.4823 2063.0 1
634.01874 -106.8571 2051.0 1
647.7211 -105.6067 2027.0 1
664.8828 -104.9815 2015.0 1
678.0502 -103.783195 1992.0 1
694.5972 -103.158 1980.0 1
711.25525 -102.5849 1969.0 1
727.6842 -102.011795 1958.0 1
748.08655 -102.011795 1958.0 1
768.48883 -102.011795 1958.0 1
793.32324 -102.5849 1969.0 1
809.2936 -102.011795 1958.0 1
543.8719 -150.61066 2409.0 1
535.1989 -141.67029 2266.0 1
548.20667 -138.98193 2223.0 1
560.57513 -136.3561 2181.0 1
575.81274 -134.60553 2153.0 1
594.63464 -133.79277 2140.0 1
609.4379 -132.16725 2114.0 1
620.11505 -129.7915 2076.0 1
634.01874 -128.2285 2051.0 1
647.7211 -126.72802 2027.0 1
664.8828 -125.977776 2015.0 1
673.9655 -123.78958 1980.0 1
694.5972 -123.78958 1980.0 1
711.25525 -123.10186 1969.0 1
727.6842 -122.41414 1958.0 1
748.08655 -122.41414 1958.0 1
764.17145 -121.72642 1947.0 1
793.32324 -123.10186 1969.0 1
813.84015 -123.10186 1969.0 1
547.7099 -176.9524 2426.0 1
538.7417 -166.3761 2281.0 1
544.50757 -161.05147 2208.0 1
560.57513 -159.08209 2181.0 1
575.81274 -157.03978 2153.0 1
591.0224 -155.14334 2127.0 1
605.69025 -153.2469 2101.0 1
616.2319 -150.47517 2063.0 1
630.30927 -148.72461 2039.0 1
647.7211 -147.84933 2027.0 1
664.8828 -146.97406 2015.0 1
678.0502 -145.29643 1992.0 1
690.73834 -143.61882 1969.0 1
711.25525 -143.61882 1969.0 1
731.77234 -143.61882 1969.0 1
743.8838 -142.01414 1947.0 1
768.48883 -142.81648 1958.0 1
793.32324 -143.61882 1969.0 1
813.84015 -143.61882 1969.0 1
555.386 -205.06564 2460.0 1
528.3495 -186.47636 2237.0 1
544.50757 -184.05891 2208.0 1
560.57513 -181.8082 2181.0 1
575.81274 -179.47412 2153.0 1
594.63464 -178.39044 2140.0 1
609.4379 -176.22308 2114.0 1
616.2319 -171.97171 2063.0 1
630.30927 -169.97108 2039.0 1
647.7211 -168.97076 2027.0 1
664.8828 -167.97044 2015.0 1
678.0502 -166.05316 1992.0 1
690.73834 -164.13588 1969.0 1
707.2818 -163.21892 1958.0 1
727.6842 -163.21892 1958.0 1
748.08655 -163.21892 1958.0 1
768.48883 -163.21892 1958.0 1
793.32324 -164.13588 1969.0 1
809.2936 -163.21892 1958.0 1
533.6291 -232.38686 2478.0 1
563.5136 -234.0749 2496.0 1
531.89233 -211.19258 2252.0 1
544.50757 -207.06625 2208.0 1
560.57513 -204.5342 2181.0 1
575.81274 -201.90836 2153.0 1
591.0224 -199.47008 2127.0 1
609.4379 -198.25093 2114.0 1
620.11505 -194.6873 2076.0 1
630.30927 -191.21744 2039.0 1
647.7211 -190.09207 2027.0 1
664.8828 -188.96672 2015.0 1
681.79443 -187.84135 2003.0 1
690.73834 -184.65283 1969.0 1
707.2818 -183.62126 1958.0 1
727.6842 -183.62126 1958.0 1
748.08655 -183.62126 1958.0 1
768.48883 -183.62126 1958.0 1
793.32324 -184.65283 1969.0 1
795.6538 -180.52652 1925.0 1
531.89233 -234.6584 2252.0 1
544.50757 -230.0736 2208.0 1
560.57513 -227.2602 2181.0 1
575.81274 -224.34259 2153.0 1
591.0224 -221.63339 2127.0 1
609.4379 -220.2788 2114.0 1
620.11505 -216.3192 2076.0 1
637.7283 -214.9646 2063.0 1
651.5557 -212.46379 2039.0 1
664.8828 -209.963 2015.0 1
678.0502 -207.56639 1992.0 1
690.73834 -205.1698 1969.0 1
707.2818 -204.02359 1958.0 1
723.59607 -202.8774 1947.0 1
743.8838 -202.8774 1947.0 1
768.48883 -204.02359 1958.0 1
793.32324 -205.1698 1969.0 1
809.2936 -204.02359 1958.0 1
528.3495 -256.4049 2237.0 1
544.50757 -253.08093 2208.0 1
560.57513 -249.98619 2181.0 1
575.81274 -246.77684 2153.0 1
594.63464 -245.28677 2140.0 1
613.18567 -243.7967 2127.0 1
620.11505 -237.9511 2076.0 1
637.7283 -236.46103 2063.0 1
655.39026 -235.0856 2051.0 1
668.8424 -232.33472 2027.0 1
678.0502 -228.32301 1992.0 1
690.73834 -225.68675 1969.0 1
711.25525 -225.68675 1969.0 1
727.6842 -224.42593 1958.0 1
748.08655 -224.42593 1958.0 1
772.80615 -225.68675 1969.0 1
793.32324 -225.68675 1969.0 1
813.84015 -225.68675 1969.0 1
521.97253 -289.09244 2312.0 1
538.7417 -285.2162 2281.0 1
544.50757 -276.08826 2208.0 1
563.91644 -274.3377 2194.0 1
579.55695 -270.96164 2167.0 1
591.0224 -265.96002 2127.0 1
613.18567 -265.96002 2127.0 1
623.6995 -261.08347 2088.0 1
641.74695 -259.583 2076.0 1
659.2248 -257.9575 2063.0 1
676.7616 -256.457 2051.0 1
681.79443 -250.45508 2003.0 1
694.5972 -247.57916 1980.0 1
711.25525 -246.20372 1969.0 1
727.6842 -244.82828 1958.0 1
748.08655 -244.82828 1958.0 1
772.80615 -246.20372 1969.0 1
793.32324 -246.20372 1969.0 1
813.84015 -246.20372 1969.0 1
518.586 -311.15167 2297.0 1
535.1989 -306.9524 2266.0 1
548.20667 -301.12762 2223.0 1
560.57513 -295.4383 2181.0 1
579.55695 -293.54187 2167.0 1
591.0224 -288.12344 2127.0 1
613.18567 -288.12344 2127.0 1
631.4659 -286.3625 2114.0 1
641.74695 -281.215 2076.0 1
659.2248 -279.454 2063.0 1
680.7212 -279.454 2063.0 1
689.9637 -274.57745 2027.0 1
690.73834 -266.72076 1969.0 1
711.25525 -266.72076 1969.0 1
731.77234 -266.72076 1969.0 1
748.08655 -265.2307 1958.0 1
781.8334 -269.83636 1992.0 1
802.5901 -269.83636 1992.0 1
521.97253 -337.27457 2312.0 1
531.89233 -328.5218 2252.0 1
548.20667 -324.29126 2223.0 1
563.91644 -320.06073 2194.0 1
579.55695 -316.12198 2167.0 1
594.63464 -312.18323 2140.0 1
609.4379 -308.39035 2114.0 1
631.4659 -308.39035 2114.0 1
641.74695 -302.8469 2076.0 1
663.3789 -302.8469 2076.0 1
685.0108 -302.8469 2076.0 1
698.133 -299.1999 2051.0 1
690.73834 -287.23773 1969.0 1
711.25525 -287.23773 1969.0 1
727.6842 -285.63306 1958.0 1
752.28925 -287.23773 1969.0 1
781.8334 -290.593 1992.0 1
497.88153 -361.3656 2312.0 1
518.586 -359.0211 2297.0 1
535.1989 -354.17578 2266.0 1
544.50757 -345.11038 2208.0 1
560.57513 -340.8903 2181.0 1
579.55695 -338.7021 2167.0 1
594.63464 -334.482 2140.0 1
609.4379 -330.41818 2114.0 1
631.4659 -330.41818 2114.0 1
649.4751 -328.3863 2101.0 1
667.2135 -326.3544 2088.0 1
693.25995 -328.3863 2101.0 1
702.21765 -322.4469 2063.0 1
690.73834 -307.7547 1969.0 1
711.25525 -307.7547 1969.0 1
727.6842 -306.0354 1958.0 1
748.08655 -306.0354 1958.0 1
781.8334 -311.3496 1992.0 1
501.11176 -387.9574 2327.0 1
518.586 -382.9558 2297.0 1
535.1989 -377.78748 2266.0 1
548.20667 -370.61853 2223.0 1
560.57513 -363.6163 2181.0 1
579.55695 -361.28223 2167.0 1
594.63464 -356.78076 2140.0 1
609.4379 -352.44604 2114.0 1
631.4659 -352.44604 2114.0 1
649.4751 -350.2787 2101.0 1
671.3676 -350.2787 2101.0 1
693.25995 -350.2787 2101.0 1
698.133 -341.9427 2051.0 1
694.5972 -330.10556 1980.0 1
711.25525 -328.27167 1969.0 1
731.77234 -328.27167 1969.0 1
752.28925 -328.27167 1969.0 1
777.12354 -330.10556 1980.0 1
497.88153 -409.54764 2312.0 1
518.586 -406.89053 2297.0 1
535.1989 -401.3992 2266.0 1
551.6591 -396.26212 2237.0 1
563.91644 -388.6451 2194.0 1
579.55695 -383.86234 2167.0 1
594.63464 -379.07956 2140.0 1
613.18567 -376.77673 2127.0 1
631.4659 -374.4739 2114.0 1
653.4937 -374.4739 2114.0 1
671.3676 -372.17108 2101.0 1
693.25995 -372.17108 2101.0 1
689.9637 -359.06274 2027.0 1
694.5972 -350.73715 1980.0 1
711.25525 -348.7886 1969.0 1
731.77234 -348.7886 1969.0 1
756.492 -350.73715 1980.0 1
777.12354 -350.73715 1980.0 1
494.65134 -430.82535 2297.0 1
514.97375 -427.8244 2281.0 1
531.89233 -422.38516 2252.0 1
548.20667 -416.94592 2223.0 1
563.91644 -411.50668 2194.0 1
579.55695 -406.44257 2167.0 1
598.24695 -403.8167 2153.0 1
613.18567 -398.94016 2127.0 1
631.4659 -396.50186 2114.0 1
649.4751 -394.0636 2101.0 1
667.2135 -391.6253 2088.0 1
688.9704 -391.6253 2088.0 1
706.64264 -389.3746 2076.0 1
694.5972 -371.36884 1980.0 1
715.22876 -371.36884 1980.0 1
731.77234 -369.30566 1969.0 1
752.28925 -369.30566 1969.0 1
772.80615 -369.30566 1969.0 1
494.65134 -454.76007 2297.0 1
511.58725 -448.62268 2266.0 1
528.3495 -442.8813 2237.0 1
548.20667 -440.10956 2223.0 1
563.91644 -434.36813 2194.0 1
579.55695 -429.02267 2167.0 1
602.1371 -429.02267 2167.0 1
613.18567 -421.1035 2127.0 1
631.4659 -418.52972 2114.0 1
649.4751 -415.956 2101.0 1
667.2135 -413.38226 2088.0 1
688.9704 -413.38226 2088.0 1
702.21765 -408.43274 2063.0 1
694.5972 -392.00043 1980.0 1
715.22876 -392.00043 1980.0 1
731.77234 -389.82263 1969.0 1
752.28925 -389.82263 1969.0 1
777.12354 -392.00043 1980.0 1
473.7904 -481.8208 2312.0 1
494.65134 -478.6948 2297.0 1
514.97375 -475.36038 2281.0 1
528.3495 -466.1908 2237.0 1
548.20667 -463.2732 2223.0 1
563.91644 -457.22958 2194.0 1
579.55695 -451.60278 2167.0 1
598.24695 -448.68518 2153.0 1
613.18567 -443.26678 2127.0 1
631.4659 -440.5576 2114.0 1
653.4937 -440.5576 2114.0 1
675.52167 -440.5576 2114.0 1
693.25995 -437.8484 2101.0 1
702.21765 -429.9292 2063.0 1
698.8069 -415.13278 1992.0 1
711.25525 -410.3396 1969.0 1
731.77234 -410.3396 1969.0 1
752.28925 -410.3396 1969.0 1
772.80615 -410.3396 1969.0 1
473.7904 -505.9118 2312.0 1
491.2058 -499.1284 2281.0 1
511.58725 -495.8461 2266.0 1
528.3495 -489.5003 2237.0 1
548.20667 -486.43683 2223.0 1
560.57513 -477.2464 2181.0 1
579.55695 -474.18292 2167.0 1
594.63464 -468.27478 2140.0 1
613.18567 -465.4301 2127.0 1
631.4659 -462.58545 2114.0 1
653.4937 -462.58545 2114.0 1
671.3676 -459.74078 2101.0 1
693.25995 -459.74078 2101.0 1
710.7273 -456.89612 2088.0 1
702.6658 -438.29642 2003.0 1
711.25525 -430.85657 1969.0 1
731.77234 -430.85657 1969.0 1
752.28925 -430.85657 1969.0 1
772.80615 -430.85657 1969.0 1
468.5666 -552.2391 2409.0 1
480.14313 -537.10925 2343.0 1
491.2058 -522.89636 2281.0 1
511.58725 -519.45776 2266.0 1
525.0429 -509.60046 2223.0 1
548.20667 -509.60046 2223.0 1
560.57513 -499.97238 2181.0 1
579.55695 -496.76303 2167.0 1
594.63464 -490.57355 2140.0 1
613.18567 -487.5934 2127.0 1
631.4659 -484.6133 2114.0 1
653.4937 -484.6133 2114.0 1
675.52167 -484.6133 2114.0 1
697.5495 -484.6133 2114.0 1
715.15234 -481.63318 2101.0 1
719.5045 -470.1712 2051.0 1
715.22876 -453.89514 1980.0 1
735.8604 -453.89514 1980.0 1
756.492 -453.89514 1980.0 1
777.12354 -453.89514 1980.0 1
788.89124 -448.85187 1958.0 1
480.14313 -561.52344 2343.0 1
494.65134 -550.4991 2297.0 1
514.97375 -546.6645 2281.0 1
528.3495 -536.11945 2237.0 1
548.20667 -532.7642 2223.0 1
563.91644 -525.8141 2194.0 1
579.55695 -519.34326 2167.0 1
598.24695 -515.98804 2153.0 1
616.9334 -512.87244 2140.0 1
631.4659 -506.64127 2114.0 1
653.4937 -506.64127 2114.0 1
675.52167 -506.64127 2114.0 1
693.25995 -503.5257 2101.0 1
719.57733 -506.64127 2114.0 1
728.27466 -497.53418 2076.0 1
719.5635 -477.40274 1992.0 1
735.8604 -474.52682 1980.0 1
756.492 -474.52682 1980.0 1
777.12354 -474.52682 1980.0 1
807.0221 -480.039 2003.0 1
480.14313 -585.93744 2343.0 1
494.65134 -574.4338 2297.0 1
514.97375 -570.4325 2281.0 1
531.89233 -563.1802 2252.0 1
548.20667 -555.92786 2223.0 1
567.51483 -552.17664 2208.0 1
583.3012 -545.4245 2181.0 1
602.1371 -541.9234 2167.0 1
620.68115 -538.42224 2153.0 1
635.3491 -531.92017 2127.0 1
657.5124 -531.92017 2127.0 1
675.52167 -528.6691 2114.0 1
697.5495 -528.6691 2114.0 1
719.57733 -528.6691 2114.0 1
741.6053 -528.6691 2114.0 1
732.2064 -506.91217 2027.0 1
740.3202 -498.15936 1992.0 1
756.492 -495.15842 1980.0 1
777.12354 -495.15842 1980.0 1
802.5901 -498.15936 1992.0 1
490.18454 -623.11597 2392.0 1
501.11176 -606.1835 2327.0 1
518.586 -598.36847 2297.0 1
538.7417 -594.2005 2281.0 1
548.20667 -579.0915 2223.0 1
567.51483 -575.18396 2208.0 1
586.778 -571.537 2194.0 1
606.02716 -568.1505 2181.0 1
624.71716 -564.5035 2167.0 1
639.2323 -557.47 2140.0 1
661.531 -557.47 2140.0 1
679.6758 -554.0835 2127.0 1
701.8391 -554.0835 2127.0 1
728.42737 -557.47 2140.0 1
750.72626 -557.47 2140.0 1
749.9065 -540.798 2076.0 1
744.4083 -521.7815 2003.0 1
761.0768 -518.916 1992.0 1
777.12354 -515.79 1980.0 1
807.0221 -521.7815 2003.0 1
490.18454 -648.0406 2392.0 1
504.55728 -634.7655 2343.0 1
525.359 -630.4308 2327.0 1
542.5207 -622.3032 2297.0 1
562.5098 -617.9685 2281.0 1
574.9686 -606.04803 2237.0 1
590.5223 -598.19135 2208.0 1
606.02716 -590.87646 2181.0 1
624.71716 -587.0836 2167.0 1
647.29736 -587.0836 2167.0 1
665.5497 -583.2907 2153.0 1
683.8299 -579.76874 2140.0 1
701.8391 -576.2468 2127.0 1
728.42737 -579.76874 2140.0 1
750.72626 -579.76874 2140.0 1
777.72095 -583.2907 2153.0 1
748.8681 -545.90375 2015.0 1
765.27954 -542.6527 2003.0 1
777.12354 -536.4216 1980.0 1
807.0221 -542.6527 2003.0 1
837.8131 -549.1548 2027.0 1
490.18454 -672.9652 2392.0 1
508.00284 -663.681 2359.0 1
528.9713 -659.17957 2343.0 1
546.0635 -650.458 2312.0 1
566.4555 -646.2379 2297.0 1
582.42236 -637.51636 2266.0 1
594.534 -625.41876 2223.0 1
609.63947 -617.2599 2194.0 1
628.7532 -613.6025 2181.0 1
647.29736 -609.6637 2167.0 1
665.5497 -605.725 2153.0 1
683.8299 -602.06757 2140.0 1
706.12866 -602.06757 2140.0 1
732.8524 -605.725 2153.0 1
760.19806 -609.6637 2167.0 1
787.8353 -613.6025 2181.0 1
815.3928 -617.2599 2194.0 1
769.8643 -566.9 2015.0 1
786.1507 -563.524 2003.0 1
811.85693 -566.9 2015.0 1
832.8532 -566.9 2015.0 1
490.18454 -697.88995 2392.0 1
508.00284 -688.2619 2359.0 1
528.9713 -683.5937 2343.0 1
553.3853 -683.5937 2343.0 1
566.4555 -670.1727 2297.0 1
590.3902 -670.1727 2297.0 1
610.0459 -665.5046 2281.0 1
621.5877 -652.6672 2237.0 1
636.53687 -644.2061 2208.0 1
651.47925 -636.3286 2181.0 1
669.87744 -632.24396 2167.0 1
696.93134 -636.3286 2181.0 1
715.0378 -632.24396 2167.0 1
737.61786 -632.24396 2167.0 1
769.66986 -640.12146 2194.0 1
792.53125 -640.12146 2194.0 1
820.5959 -644.2061 2208.0 1
774.4491 -591.3975 2027.0 1
790.8606 -587.8964 2015.0 1
811.85693 -587.8964 2015.0 1
832.8532 -587.8964 2015.0 1
853.84955 -587.8964 2015.0 1
471.8732 -733.0887 2426.0 1
490.18454 -722.8146 2392.0 1
508.00284 -712.84265 2359.0 1
532.58356 -712.84265 2359.0 1
553.3853 -708.00775 2343.0 1
577.79944 -708.00775 2343.0 1
594.2456 -698.6402 2312.0 1
610.0459 -689.2726 2281.0 1
625.75574 -680.5094 2252.0 1
644.8972 -675.9767 2237.0 1
664.02496 -671.74615 2223.0 1
682.55164 -667.21344 2208.0 1
696.93134 -659.05457 2181.0 1
719.6573 -659.05457 2181.0 1
742.38324 -659.05457 2181.0 1
774.5811 -667.21344 2208.0 1
797.58844 -667.21344 2208.0 1
831.37366 -675.9767 2237.0 1
854.6831 -675.9767 2237.0 1
795.57043 -612.51886 2027.0 1
811.85693 -608.8927 2015.0 1
832.8532 -608.8927 2015.0 1
468.5666 -753.0534 2409.0 1
490.18454 -747.7392 2392.0 1
508.00284 -737.4234 2359.0 1
532.58356 -737.4234 2359.0 1
553.3853 -732.4218 2343.0 1
577.79944 -732.4218 2343.0 1
606.32587 -737.4234 2359.0 1
626.62756 -732.4218 2343.0 1
638.2597 -718.0422 2297.0 1
653.2575 -708.35156 2266.0 1
668.20685 -699.2862 2237.0 1
687.18854 -694.9098 2223.0 1
705.5591 -690.22076 2208.0 1
728.5664 -690.22076 2208.0 1
751.57367 -690.22076 2208.0 1
779.84326 -694.9098 2223.0 1
808.064 -699.2862 2237.0 1
831.37366 -699.2862 2237.0 1
854.6831 -699.2862 2237.0 1
795.57043 -633.6402 2027.0 1
816.69183 -633.6402 2027.0 1
837.8131 -633.6402 2027.0 1
874.1894 -644.8938 2063.0 1
468.5666 -778.15515 2409.0 1
490.18454 -772.6638 2392.0 1
511.66373 -767.4955 2376.0 1
536.4216 -767.4955 2376.0 1
557.16425 -762.00415 2359.0 1
581.7451 -762.00415 2359.0 1
606.32587 -762.00415 2359.0 1
630.90674 -762.00415 2359.0 1
646.5957 -751.6675 2327.0 1
662.1944 -741.9769 2297.0 1
676.8693 -731.96326 2266.0 1
696.1532 -727.441 2252.0 1
714.8259 -722.5957 2237.0 1
738.13544 -722.5957 2237.0 1
756.6795 -718.0734 2223.0 1
784.7545 -722.5957 2237.0 1
813.4824 -727.441 2252.0 1
847.7261 -736.8086 2281.0 1
871.4941 -736.8086 2281.0 1
826.3616 -662.514 2051.0 1
837.8131 -654.76154 2027.0 1
858.9345 -654.76154 2027.0 1
471.8732 -808.92535 2426.0 1
490.18454 -797.58844 2392.0 1
511.66373 -792.25336 2376.0 1
536.4216 -792.25336 2376.0 1
557.16425 -786.5849 2359.0 1
585.93744 -792.25336 2376.0 1
614.80774 -797.58844 2392.0 1
662.1944 -765.9116 2297.0 1
686.1292 -765.9116 2297.0 1
705.11786 -760.5766 2281.0 1
724.0928 -755.57495 2266.0 1
752.65393 -760.5766 2281.0 1
771.3161 -755.57495 2266.0 1
794.9279 -755.57495 2266.0 1
823.958 -760.5766 2281.0 1
847.7261 -760.5766 2281.0 1
877.6071 -765.9116 2297.0 1
821.52673 -679.8841 2039.0 1
842.773 -679.8841 2039.0 1
858.9345 -675.8828 2027.0 1
890.4758 -683.8854 2051.0 1
452.85312 -845.8956 2460.0 1
475.1798 -840.05 2443.0 1
493.6683 -828.35876 2409.0 1
515.10925 -822.5131 2392.0 1
540.0339 -822.5131 2392.0 1
557.16425 -811.1658 2359.0 1
585.93744 -817.0114 2376.0 1
610.6953 -817.0114 2376.0 1
699.86975 -805.664 2343.0 1
719.3377 -800.16223 2327.0 1
738.79193 -795.00433 2312.0 1
757.9334 -789.84644 2297.0 1
781.8681 -789.84644 2297.0 1
800.19 -784.34467 2281.0 1
829.7376 -789.84644 2297.0 1
853.6724 -789.84644 2297.0 1
826.3616 -705.2569 2051.0 1
842.773 -701.13055 2039.0 1
864.0195 -701.13055 2039.0 1
901.32996 -713.8534 2076.0 1
452.85312 -871.5288 2460.0 1
468.5666 -853.4605 2409.0 1
490.18454 -847.43774 2392.0 1
515.10925 -847.43774 2392.0 1
543.8719 -853.4605 2409.0 1
564.95844 -847.43774 2392.0 1
589.8832 -847.43774 2392.0 1
739.43097 -847.43774 2392.0 1
748.6979 -830.07806 2343.0 1
767.8324 -824.40955 2327.0 1
792.0797 -824.40955 2327.0 1
816.32715 -824.40955 2327.0 1
840.5744 -824.40955 2327.0 1
864.82184 -824.40955 2327.0 1
824.61444 -744.3423 2101.0 1
836.43427 -735.4853 2076.0 1
837.8131 -718.12555 2027.0 1
864.0195 -722.37695 2039.0 1
901.32996 -735.4853 2076.0 1
430.34598 -903.72656 2478.0 1
452.85312 -897.162 2460.0 1
468.5666 -878.56226 2409.0 1
493.6683 -878.56226 2409.0 1
515.10925 -872.36237 2392.0 1
543.8719 -878.56226 2409.0 1
568.97363 -878.56226 2409.0 1
749.9412 -884.7622 2426.0 1
764.35565 -872.36237 2392.0 1
778.39136 -860.3273 2359.0 1
797.5259 -854.49207 2343.0 1
821.94006 -854.49207 2343.0 1
846.354 -854.49207 2343.0 1
876.71454 -860.3273 2359.0 1
841.2691 -761.4936 2088.0 1
847.733 -747.9997 2051.0 1
864.0195 -743.6233 2039.0 1
427.22 -922.79517 2460.0 1
449.72366 -916.4181 2443.0 1
468.5666 -903.66406 2409.0 1
490.18454 -897.287 2392.0 1
515.10925 -897.287 2392.0 1
543.8719 -903.66406 2409.0 1
568.97363 -903.66406 2409.0 1
760.45154 -922.79517 2460.0 1
775.2203 -910.0411 2426.0 1
784.0008 -891.2851 2376.0 1
802.97205 -884.908 2359.0 1
821.94006 -878.9061 2343.0 1
852.13367 -884.908 2359.0 1
883.03253 -891.2851 2376.0 1
933.38885 -916.4181 2443.0 1
831.1965 -773.8725 2063.0 1
873.7725 -793.00366 2114.0 1
401.58685 -948.42834 2460.0 1
427.22 -948.42834 2460.0 1
446.59418 -935.31995 2426.0 1
468.5666 -928.7658 2409.0 1
490.18454 -922.2116 2392.0 1
515.10925 -922.2116 2392.0 1
543.8719 -928.7658 2409.0 1
780.6525 -941.87415 2443.0 1
794.8897 -928.7658 2409.0 1
814.20483 -922.2116 2392.0 1
833.51666 -916.04297 2376.0 1
858.27454 -916.04297 2376.0 1
895.2969 -928.7658 2409.0 1
946.76117 -955.36804 2478.0 1
398.81168 -967.3303 2443.0 1
421.31534 -960.599 2426.0 1
443.46472 -953.8677 2409.0 1
465.25998 -947.13635 2392.0 1
493.6683 -953.8677 2409.0 1
518.7702 -953.8677 2409.0 1
547.7099 -960.599 2426.0 1
775.2203 -960.599 2426.0 1
794.8897 -953.8677 2409.0 1
814.20483 -947.13635 2392.0 1
833.51666 -940.80096 2376.0 1
864.05414 -947.13635 2392.0 1
901.61487 -960.599 2426.0 1
375.95355 -999.6948 2460.0 1
398.81168 -992.7863 2443.0 1
418.363 -978.9694 2409.0 1
443.46472 -978.9694 2409.0 1
465.25998 -972.061 2392.0 1
490.18454 -972.061 2392.0 1
515.10925 -972.061 2392.0 1
749.9412 -985.87787 2426.0 1
786.08484 -999.6948 2460.0 1
800.49915 -985.87787 2426.0 1
814.20483 -972.061 2392.0 1
833.51666 -965.5589 2376.0 1
864.05414 -972.061 2392.0 1
888.9789 -972.061 2392.0 1
