ply
format ascii 1.0
comment : created from Kinect user tracker
element vertex 738
property float x
property float y
property float z
property int userId
end_header
431.315 415.03903 2343.0 1
455.72916 415.03903 2343.0 1
382.487 390.62494 2343.0 1
404.1223 387.9574 2327.0 1
425.6083 385.4566 2312.0 1
446.78183 382.9558 2297.0 1
476.86432 387.9574 2327.0 1
501.11176 387.9574 2327.0 1
514.97375 380.2883 2281.0 1
355.62762 363.71008 2327.0 1
379.87506 363.71008 2327.0 1
404.1223 363.71008 2327.0 1
425.6083 361.3656 2312.0 1
449.69943 361.3656 2312.0 1
470.71652 359.0211 2297.0 1
497.88153 361.3656 2312.0 1
518.586 359.0211 2297.0 1
557.16425 368.7117 2359.0 1
340.63678 348.94498 2392.0 1
365.56134 348.94498 2392.0 1
385.09894 344.13095 2359.0 1
404.1223 339.46277 2327.0 1
425.6083 337.27457 2312.0 1
443.66974 332.7523 2281.0 1
467.43768 332.7523 2281.0 1
494.65134 335.08636 2297.0 1
514.97375 332.7523 2281.0 1
546.0635 337.27457 2312.0 1
343.05768 326.32312 2409.0 1
365.56134 324.0203 2392.0 1
387.87415 321.85294 2376.0 1
406.901 317.38275 2343.0 1
428.3696 315.2154 2327.0 1
446.78183 311.1516 2297.0 1
470.71652 311.1516 2297.0 1
501.11176 315.2154 2327.0 1
525.359 315.2154 2327.0 1
553.3853 317.38275 2343.0 1
343.05768 301.22137 2409.0 1
365.56134 299.09567 2392.0 1
387.87415 297.09503 2376.0 1
406.901 292.96872 2343.0 1
425.6083 289.0925 2312.0 1
449.69943 289.0925 2312.0 1
470.71652 287.2169 2297.0 1
501.11176 290.96808 2327.0 1
528.9713 292.96872 2343.0 1
557.16425 294.96936 2359.0 1
340.63678 274.17102 2392.0 1
368.1594 276.11954 2409.0 1
390.48608 274.17102 2392.0 1
406.901 268.55463 2343.0 1
428.3696 266.7207 2327.0 1
452.61703 266.7207 2327.0 1
476.86432 266.7207 2327.0 1
504.55728 268.55463 2343.0 1
528.9713 268.55463 2343.0 1
557.16425 270.38855 2359.0 1
375.95355 256.332 2460.0 1
390.48608 249.2464 2392.0 1
409.67966 245.8078 2359.0 1
428.3696 242.47339 2327.0 1
452.61703 242.47339 2327.0 1
480.14313 244.1406 2343.0 1
508.00284 245.8078 2359.0 1
540.0339 249.2464 2392.0 1
568.97363 251.01779 2409.0 1
378.70444 232.38686 2478.0 1
393.2613 225.91605 2409.0 1
406.901 219.72656 2343.0 1
431.315 219.72656 2343.0 1
452.61703 218.22607 2327.0 1
480.14313 219.72656 2343.0 1
511.66373 222.8213 2376.0 1
547.7099 227.5103 2426.0 1
568.97363 225.91605 2409.0 1
398.72473 217.48622 2609.0 1
393.2613 200.81422 2409.0 1
412.632 198.06334 2376.0 1
434.26038 196.64622 2359.0 1
455.72916 195.31247 2343.0 1
483.42197 196.64622 2359.0 1
522.4311 202.23134 2426.0 1
555.386 205.06558 2460.0 1
380.08344 194.67686 2669.0 1
401.78125 191.75926 2629.0 1
416.44232 186.06995 2551.0 1
427.22 179.4324 2460.0 1
437.38986 173.30545 2376.0 1
458.84125 172.06548 2359.0 1
490.18454 174.47249 2392.0 1
526.092 178.19243 2443.0 1
551.548 178.19243 2443.0 1
581.0191 179.4324 2460.0 1
349.6326 165.61545 2649.0 1
374.38715 164.36505 2629.0 1
395.6682 161.86426 2589.0 1
416.44232 159.4885 2551.0 1
436.598 157.17525 2514.0 1
452.85312 153.79918 2460.0 1
478.48642 153.79918 2460.0 1
500.6358 152.73633 2443.0 1
526.092 152.73633 2443.0 1
547.7099 151.6735 2426.0 1
577.00397 152.73633 2443.0 1
602.4601 152.73633 2443.0 1
349.6326 138.0129 2649.0 1
371.53903 135.9289 2609.0 1
392.7645 133.897 2570.0 1
413.3406 131.91719 2532.0 1
433.472 130.0416 2496.0 1
456.1667 129.10379 2478.0 1
478.48642 128.166 2460.0 1
504.11957 128.166 2460.0 1
526.092 127.2803 2443.0 1
547.7099 126.3946 2426.0 1
572.9888 126.3946 2426.0 1
598.2678 126.3946 2426.0 1
619.1772 125.508896 2409.0 1
639.7325 124.6232 2392.0 1
346.99286 109.576744 2629.0 1
368.6909 107.909546 2589.0 1
389.86078 106.32571 2551.0 1
410.4022 104.78355 2514.0 1
430.34598 103.283066 2478.0 1
456.1667 103.283066 2478.0 1
478.48642 102.53282 2460.0 1
497.15204 101.1157 2426.0 1
522.4311 101.1157 2426.0 1
543.8719 100.40714 2409.0 1
564.95844 99.698586 2392.0 1
594.0755 100.40714 2409.0 1
614.80774 99.698586 2392.0 1
635.4533 99.0317 2376.0 1
669.3808 100.40714 2409.0 1
344.35315 81.55733 2609.0 1
365.98517 80.33819 2570.0 1
386.9571 79.15031 2532.0 1
410.4022 78.58762 2514.0 1
430.34598 77.462265 2478.0 1
452.85312 76.89959 2460.0 1
475.1798 76.368164 2443.0 1
497.15204 75.83675 2426.0 1
518.7702 75.30533 2409.0 1
540.0339 74.77391 2392.0 1
561.17944 74.27375 2376.0 1
585.93744 74.27375 2376.0 1
610.6953 74.27375 2376.0 1
635.4533 74.27375 2376.0 1
664.65704 74.77391 2392.0 1
344.35315 54.37157 2609.0 1
363.27942 53.162853 2551.0 1
384.2062 52.391773 2514.0 1
404.5253 51.641533 2478.0 1
427.22 51.26641 2460.0 1
452.85312 51.26641 2460.0 1
475.1798 50.912132 2443.0 1
497.15204 50.55785 2426.0 1
518.7702 50.20357 2409.0 1
540.0339 49.849293 2392.0 1
564.95844 49.849293 2392.0 1
581.7451 49.16157 2359.0 1
606.32587 49.16157 2359.0 1
630.90674 49.16157 2359.0 1
660.2112 49.51585 2376.0 1
704.28424 50.912132 2443.0 1
319.59875 27.394154 2629.0 1
341.7134 26.977354 2589.0 1
363.27942 26.581394 2551.0 1
384.2062 26.195854 2514.0 1
404.5253 25.820734 2478.0 1
427.22 25.633175 2460.0 1
449.72366 25.456036 2443.0 1
471.8732 25.278896 2426.0 1
493.6683 25.101755 2409.0 1
515.10925 24.924616 2392.0 1
540.0339 24.924616 2392.0 1
568.97363 25.101755 2409.0 1
585.93744 24.757896 2376.0 1
610.6953 24.757896 2376.0 1
630.90674 24.580755 2359.0 1
660.2112 24.757896 2376.0 1
694.4825 25.101755 2409.0 1
317.16742 0.0 2609.0 1
336.6979 0.0 2551.0 1
360.5737 0.0 2532.0 1
384.2062 0.0 2514.0 1
404.5253 0.0 2478.0 1
427.22 0.0 2460.0 1
446.59418 0.0 2426.0 1
468.5666 0.0 2409.0 1
490.18454 0.0 2392.0 1
515.10925 0.0 2392.0 1
540.0339 0.0 2392.0 1
564.95844 0.0 2392.0 1
589.8832 0.0 2392.0 1
614.80774 0.0 2392.0 1
630.90674 0.0 2359.0 1
660.2112 0.0 2376.0 1
689.5816 0.0 2392.0 1
339.20566 -26.779373 2570.0 1
360.5737 -26.383415 2532.0 1
384.2062 -26.195854 2514.0 1
404.5253 -25.820734 2478.0 1
427.22 -25.633175 2460.0 1
449.72366 -25.456036 2443.0 1
471.8732 -25.278896 2426.0 1
493.6683 -25.101755 2409.0 1
515.10925 -24.924616 2392.0 1
540.0339 -24.924616 2392.0 1
568.97363 -25.101755 2409.0 1
585.93744 -24.757896 2376.0 1
606.32587 -24.580755 2359.0 1
630.90674 -24.580755 2359.0 1
655.4874 -24.580755 2359.0 1
341.7134 -53.95471 2589.0 1
363.27942 -53.16279 2551.0 1
386.9571 -52.76683 2532.0 1
404.5253 -51.641468 2478.0 1
427.22 -51.26635 2460.0 1
449.72366 -50.91207 2443.0 1
471.8732 -50.557793 2426.0 1
493.6683 -50.20351 2409.0 1
518.7702 -50.20351 2409.0 1
540.0339 -49.84923 2392.0 1
568.97363 -50.20351 2409.0 1
589.8832 -49.84923 2392.0 1
606.32587 -49.16151 2359.0 1
630.90674 -49.16151 2359.0 1
655.4874 -49.16151 2359.0 1
680.0682 -49.16151 2359.0 1
348.77475 -89.685 2869.0 1
339.20566 -80.33825 2570.0 1
363.27942 -79.74431 2551.0 1
384.2062 -78.58769 2514.0 1
404.5253 -77.462326 2478.0 1
430.34598 -77.462326 2478.0 1
449.72366 -76.368225 2443.0 1
471.8732 -75.83681 2426.0 1
493.6683 -75.30539 2409.0 1
518.7702 -75.30539 2409.0 1
547.7099 -75.83681 2426.0 1
572.9888 -75.83681 2426.0 1
594.0755 -75.30539 2409.0 1
610.6953 -74.2738 2376.0 1
635.4533 -74.2738 2376.0 1
660.2112 -74.2738 2376.0 1
348.77475 -119.57995 2869.0 1
339.20566 -107.11762 2570.0 1
360.5737 -105.53378 2532.0 1
384.2062 -104.78355 2514.0 1
404.5253 -103.283066 2478.0 1
430.34598 -103.283066 2478.0 1
452.85312 -102.53282 2460.0 1
475.1798 -101.824265 2443.0 1
500.6358 -101.824265 2443.0 1
522.4311 -101.1157 2426.0 1
555.386 -102.53282 2460.0 1
585.2705 -103.283066 2478.0 1
594.0755 -100.40714 2409.0 1
610.6953 -99.0317 2376.0 1
630.90674 -98.32314 2359.0 1
660.2112 -99.0317 2376.0 1
321.54736 -150.7253 2893.0 1
351.69235 -150.7253 2893.0 1
341.7134 -134.8869 2589.0 1
360.5737 -131.91719 2532.0 1
384.2062 -130.9794 2514.0 1
407.46375 -130.0416 2496.0 1
430.34598 -129.10379 2478.0 1
452.85312 -128.166 2460.0 1
478.48642 -128.166 2460.0 1
504.11957 -128.166 2460.0 1
529.75287 -128.166 2460.0 1
555.386 -128.166 2460.0 1
585.2705 -129.10379 2478.0 1
598.2678 -126.3946 2426.0 1
619.1772 -125.508896 2409.0 1
639.7325 -124.6232 2392.0 1
664.65704 -124.6232 2392.0 1
680.0682 -122.9039 2359.0 1
298.856 -185.49681 2967.0 1
321.54736 -180.87033 2893.0 1
351.69235 -180.87033 2893.0 1
341.7134 -161.86426 2589.0 1
363.27942 -159.4885 2551.0 1
386.9571 -158.30061 2532.0 1
410.4022 -157.17525 2514.0 1
430.34598 -154.92453 2478.0 1
459.48026 -156.0499 2496.0 1
481.98755 -154.92453 2478.0 1
507.80823 -154.92453 2478.0 1
533.6291 -154.92453 2478.0 1
555.386 -153.79918 2460.0 1
589.52185 -156.0499 2496.0 1
598.2678 -151.6735 2426.0 1
619.1772 -150.61066 2409.0 1
639.7325 -149.54782 2392.0 1
664.65704 -149.54782 2392.0 1
694.4825 -150.61066 2409.0 1
296.3378 -214.58942 2942.0 1
321.54736 -211.01537 2893.0 1
348.77475 -209.2648 2869.0 1
344.35315 -190.3004 2609.0 1
363.27942 -186.06989 2551.0 1
386.9571 -184.68402 2532.0 1
407.46375 -182.05818 2496.0 1
433.472 -182.05818 2496.0 1
462.7938 -183.37111 2514.0 1
485.48868 -182.05818 2496.0 1
507.80823 -180.74527 2478.0 1
537.5053 -182.05818 2496.0 1
563.5136 -182.05818 2496.0 1
589.52185 -182.05818 2496.0 1
598.2678 -176.9524 2426.0 1
619.1772 -175.7124 2409.0 1
644.27905 -175.7124 2409.0 1
664.65704 -174.47243 2392.0 1
261.25723 -241.16054 2893.0 1
296.3378 -245.24518 2942.0 1
321.54736 -241.16054 2893.0 1
334.7946 -229.57349 2754.0 1
341.7134 -215.81909 2589.0 1
363.27942 -212.65141 2551.0 1
386.9571 -211.06757 2532.0 1
410.4022 -209.5671 2514.0 1
436.598 -209.5671 2514.0 1
462.7938 -209.5671 2514.0 1
488.98978 -209.5671 2514.0 1
511.49692 -208.0666 2496.0 1
537.5053 -208.0666 2496.0 1
563.5136 -208.0666 2496.0 1
602.5121 -212.65141 2551.0 1
602.4601 -203.64853 2443.0 1
619.1772 -200.81429 2409.0 1
644.27905 -200.81429 2409.0 1
664.65704 -199.39717 2392.0 1
267.9399 -278.24527 2967.0 1
296.3378 -275.9008 2942.0 1
321.54736 -271.30557 2893.0 1
332.2417 -256.30075 2733.0 1
344.35315 -244.67204 2609.0 1
365.98517 -241.01462 2570.0 1
386.9571 -237.45097 2532.0 1
413.3406 -237.45097 2532.0 1
439.724 -237.45097 2532.0 1
466.10736 -237.45097 2532.0 1
488.98978 -235.76294 2514.0 1
515.1856 -235.76294 2514.0 1
541.3816 -235.76294 2514.0 1
567.5774 -235.76294 2514.0 1
602.5121 -239.2328 2551.0 1
606.6524 -230.69882 2460.0 1
619.1772 -225.91605 2409.0 1
644.27905 -225.91605 2409.0 1
664.65704 -224.32178 2392.0 1
235.02649 -306.5564 2942.0 1
265.68225 -306.5564 2942.0 1
293.81964 -303.9514 2917.0 1
332.2417 -284.7786 2733.0 1
346.99286 -273.9418 2629.0 1
368.6909 -269.7738 2589.0 1
389.86078 -265.8142 2551.0 1
416.44232 -265.8142 2551.0 1
443.02365 -265.8142 2551.0 1
466.10736 -263.83438 2532.0 1
492.4909 -263.83438 2532.0 1
518.87427 -263.83438 2532.0 1
545.2578 -263.83438 2532.0 1
571.6412 -263.83438 2532.0 1
606.99963 -267.794 2570.0 1
598.2678 -252.7892 2426.0 1
619.1772 -251.01779 2409.0 1
644.27905 -251.01779 2409.0 1
669.3808 -251.01779 2409.0 1
233.02933 -334.3465 2917.0 1
263.4246 -334.3465 2917.0 1
308.65436 -318.2997 2777.0 1
334.7946 -315.66345 2754.0 1
352.27234 -305.92075 2669.0 1
371.53903 -299.04355 2609.0 1
392.7645 -294.57336 2570.0 1
416.44232 -292.3956 2551.0 1
439.724 -290.2178 2532.0 1
466.10736 -290.2178 2532.0 1
492.4909 -290.2178 2532.0 1
518.87427 -290.2178 2532.0 1
545.2578 -290.2178 2532.0 1
575.9308 -292.3956 2551.0 1
598.02454 -290.2178 2532.0 1
594.0755 -276.11954 2409.0 1
614.80774 -274.17102 2392.0 1
639.7325 -274.17102 2392.0 1
207.91373 -374.24466 2993.0 1
235.02649 -367.8676 2942.0 1
265.68225 -367.8676 2942.0 1
291.4022 -361.74066 2893.0 1
308.65436 -347.23602 2777.0 1
334.7946 -344.3601 2754.0 1
355.04407 -336.35754 2690.0 1
374.38715 -328.7301 2629.0 1
398.72473 -326.2293 2609.0 1
419.544 -321.35275 2570.0 1
446.32333 -321.35275 2570.0 1
469.605 -318.977 2551.0 1
492.4909 -316.60123 2532.0 1
518.87427 -316.60123 2532.0 1
545.2578 -316.60123 2532.0 1
571.6412 -316.60123 2532.0 1
572.9888 -303.347 2426.0 1
594.0755 -301.2213 2409.0 1
614.80774 -299.09564 2392.0 1
644.27905 -301.2213 2409.0 1
207.91373 -405.43182 2993.0 1
237.02365 -401.90988 2967.0 1
265.68225 -398.52338 2942.0 1
281.9339 -379.1526 2799.0 1
308.65436 -376.17245 2777.0 1
334.7946 -373.0569 2754.0 1
355.04407 -364.38745 2690.0 1
377.2353 -358.8336 2649.0 1
398.72473 -353.4152 2609.0 1
425.9106 -353.4152 2609.0 1
446.32333 -348.13223 2570.0 1
473.10266 -348.13223 2570.0 1
496.18652 -345.5585 2551.0 1
518.87427 -342.98477 2532.0 1
545.2578 -342.98477 2532.0 1
551.548 -330.92883 2443.0 1
568.97363 -326.32318 2409.0 1
589.8832 -324.02036 2392.0 1
614.80774 -324.02036 2392.0 1
206.10759 -432.826 2967.0 1
237.02365 -432.826 2967.0 1
267.9399 -432.826 2967.0 1
281.9339 -408.31815 2799.0 1
308.65436 -405.1088 2777.0 1
332.2417 -398.69006 2733.0 1
355.04407 -392.4172 2690.0 1
377.2353 -386.43613 2649.0 1
401.78125 -383.51852 2629.0 1
425.9106 -380.60095 2609.0 1
449.623 -377.68335 2589.0 1
473.10266 -374.91162 2570.0 1
499.88217 -374.91162 2570.0 1
522.7679 -372.1399 2551.0 1
549.3494 -372.1399 2551.0 1
540.0339 -348.94498 2392.0 1
561.17944 -346.6109 2376.0 1
589.8832 -348.94498 2392.0 1
610.6953 -346.6109 2376.0 1
259.08987 -448.42468 2869.0 1
281.9339 -437.4837 2799.0 1
308.65436 -434.0451 2777.0 1
334.7946 -430.4502 2754.0 1
355.04407 -420.447 2690.0 1
380.08344 -417.1647 2669.0 1
401.78125 -410.9127 2629.0 1
425.9106 -407.78668 2609.0 1
453.0963 -407.78668 2609.0 1
476.6003 -404.6607 2589.0 1
503.5778 -404.6607 2589.0 1
522.7679 -398.72128 2551.0 1
518.7702 -376.5267 2409.0 1
536.4216 -371.3688 2376.0 1
557.16425 -368.7117 2359.0 1
585.93744 -371.3688 2376.0 1
256.9225 -474.31836 2845.0 1
281.9339 -466.64923 2799.0 1
308.65436 -462.9814 2777.0 1
334.7946 -459.14685 2754.0 1
357.81577 -451.97787 2711.0 1
380.08344 -444.97565 2669.0 1
404.8378 -441.64124 2649.0 1
429.17554 -438.30685 2629.0 1
453.0963 -434.97244 2609.0 1
480.28204 -434.97244 2609.0 1
499.88217 -428.47037 2570.0 1
522.7679 -425.30267 2551.0 1
511.66373 -396.12668 2376.0 1
532.58356 -393.29245 2359.0 1
557.16425 -393.29245 2359.0 1
256.9225 -503.96323 2845.0 1
279.71793 -491.91772 2777.0 1
308.65436 -491.91772 2777.0 1
334.7946 -487.8435 2754.0 1
360.71948 -484.12357 2733.0 1
386.0645 -480.22647 2711.0 1
407.89432 -472.7866 2669.0 1
429.17554 -465.701 2629.0 1
456.56967 -465.701 2629.0 1
480.28204 -462.1582 2609.0 1
499.88217 -455.24973 2570.0 1
490.18454 -423.7188 2392.0 1
504.55728 -415.03897 2343.0 1
532.58356 -417.8732 2359.0 1
256.9225 -533.6083 2845.0 1
279.71793 -520.8542 2777.0 1
308.65436 -520.8542 2777.0 1
337.59064 -520.8542 2777.0 1
366.5269 -520.8542 2777.0 1
392.188 -516.5403 2754.0 1
411.1037 -504.53644 2690.0 1
429.17554 -493.09528 2629.0 1
456.56967 -493.09528 2629.0 1
480.28204 -489.3441 2609.0 1
465.25998 -448.64355 2392.0 1
483.42197 -442.45407 2359.0 1
504.55728 -439.45312 2343.0 1
593.5405 -493.09528 2629.0 1
256.9225 -563.2531 2845.0 1
281.9339 -554.14606 2799.0 1
308.65436 -549.79047 2777.0 1
337.59064 -549.79047 2777.0 1
366.5269 -549.79047 2777.0 1
395.46335 -549.79047 2777.0 1
424.3996 -549.79047 2777.0 1
435.7054 -528.4086 2669.0 1
456.56967 -520.48944 2629.0 1
437.38986 -470.40048 2376.0 1
458.84125 -467.03482 2359.0 1
483.42197 -467.03482 2359.0 1
504.55728 -463.86716 2343.0 1
602.5712 -528.4086 2669.0 1
231.11205 -602.9012 2893.0 1
259.08987 -597.8996 2869.0 1
281.9339 -583.3116 2799.0 1
308.65436 -578.7268 2777.0 1
337.59064 -578.7268 2777.0 1
369.4306 -583.3116 2799.0 1
398.59628 -583.3116 2799.0 1
427.76178 -583.3116 2799.0 1
449.5814 -573.9336 2754.0 1
412.632 -495.1584 2376.0 1
434.26038 -491.6156 2359.0 1
455.72916 -488.2812 2343.0 1
480.14313 -488.2812 2343.0 1
566.1464 -547.8836 2629.0 1
598.0559 -552.0516 2649.0 1
229.19476 -627.79456 2869.0 1
254.84544 -617.51 2822.0 1
281.9339 -612.4771 2799.0 1
311.09958 -612.4771 2799.0 1
340.2651 -612.4771 2799.0 1
369.4306 -612.4771 2799.0 1
398.59628 -612.4771 2799.0 1
390.48608 -523.4174 2392.0 1
409.67966 -516.19635 2359.0 1
431.315 -512.69525 2343.0 1
455.72916 -512.69525 2343.0 1
476.86432 -509.19412 2327.0 1
574.7603 -584.0305 2669.0 1
593.5405 -575.2778 2629.0 1
229.19476 -657.6895 2869.0 1
254.84544 -646.9152 2822.0 1
281.9339 -641.6427 2799.0 1
311.09958 -641.6427 2799.0 1
340.2651 -641.6427 2799.0 1
372.46628 -646.9152 2822.0 1
360.51807 -540.7771 2359.0 1
387.87415 -544.6742 2376.0 1
406.901 -537.10925 2343.0 1
431.315 -537.10925 2343.0 1
455.72916 -537.10925 2343.0 1
473.7904 -530.0028 2312.0 1
583.8049 -621.4696 2711.0 1
202.63426 -699.08826 2917.0 1
229.19476 -687.5846 2869.0 1
254.84544 -676.32056 2822.0 1
284.2506 -676.32056 2822.0 1
313.65598 -676.32056 2822.0 1
343.06113 -676.32056 2822.0 1
378.66968 -687.5846 2869.0 1
365.56134 -573.2668 2392.0 1
385.09894 -565.358 2359.0 1
409.67966 -565.358 2359.0 1
431.315 -561.52344 2343.0 1
527.3076 -649.7183 2711.0 1
551.2527 -644.6854 2690.0 1
583.8049 -649.7183 2711.0 1
617.02026 -654.99084 2733.0 1
200.96706 -723.48145 2893.0 1
229.19476 -717.47955 2869.0 1
256.9225 -711.4776 2845.0 1
288.98477 -717.47955 2869.0 1
318.87985 -717.47955 2869.0 1
348.77475 -717.47955 2869.0 1
470.81033 -677.9669 2711.0 1
499.05887 -677.9669 2711.0 1
527.3076 -677.9669 2711.0 1
555.55615 -677.9669 2711.0 1
583.8049 -677.9669 2711.0 1
202.63426 -759.8785 2917.0 1
231.11205 -753.62646 2893.0 1
259.08987 -747.3745 2869.0 1
288.98477 -747.3745 2869.0 1
318.87985 -747.3745 2869.0 1
351.69235 -753.62646 2893.0 1
478.27798 -717.417 2754.0 1
499.05887 -706.2155 2711.0 1
527.3076 -706.2155 2711.0 1
555.55615 -706.2155 2711.0 1
593.06476 -717.417 2754.0 1
204.37093 -797.0466 2942.0 1
233.02933 -790.2736 2917.0 1
259.08987 -777.2694 2869.0 1
291.4022 -783.77155 2893.0 1
321.54736 -783.77155 2893.0 1
486.093 -758.30505 2799.0 1
499.05887 -734.46405 2711.0 1
531.58673 -740.4243 2733.0 1
564.368 -746.11365 2754.0 1
602.7554 -758.30505 2799.0 1
206.10759 -834.7357 2967.0 1
233.02933 -820.6687 2917.0 1
261.25723 -813.91656 2893.0 1
293.81964 -820.6687 2917.0 1
321.54736 -813.91656 2893.0 1
494.08167 -800.41223 2845.0 1
511.2086 -781.2811 2777.0 1
540.145 -781.2811 2777.0 1
583.0163 -800.41223 2845.0 1
602.7554 -787.4706 2799.0 1
206.10759 -865.652 2967.0 1
233.02933 -851.06396 2917.0 1
261.25723 -844.0617 2893.0 1
293.81964 -851.06396 2917.0 1
321.54736 -844.0617 2893.0 1
486.093 -816.6363 2799.0 1
519.4925 -823.34674 2822.0 1
540.145 -810.2176 2777.0 1
573.5897 -816.6363 2799.0 1
602.7554 -816.6363 2799.0 1
631.9209 -816.6363 2799.0 1
173.71536 -889.01355 2942.0 1
206.10759 -896.56805 2967.0 1
235.02649 -889.01355 2942.0 1
263.4246 -881.45905 2917.0 1
296.3378 -889.01355 2942.0 1
321.54736 -874.2067 2893.0 1
519.4925 -852.75195 2822.0 1
548.8978 -852.75195 2822.0 1
573.5897 -845.8018 2799.0 1
612.6613 -859.7021 2845.0 1
631.9209 -845.8018 2799.0 1
175.19153 -927.4842 2967.0 1
206.10759 -927.4842 2967.0 1
235.02649 -919.6692 2942.0 1
267.9399 -927.4842 2967.0 1
298.856 -927.4842 2967.0 1
558.0397 -896.84937 2869.0 1
583.0163 -889.347 2845.0 1
617.82965 -896.84937 2869.0 1
647.72455 -896.84937 2869.0 1
176.72675 -966.7988 2993.0 1
206.10759 -958.40027 2967.0 1
237.02365 -958.40027 2967.0 1
267.9399 -958.40027 2967.0 1
298.856 -958.40027 2967.0 1
562.7078 -934.4968 2893.0 1
587.9346 -926.7443 2869.0 1
617.82965 -926.7443 2869.0 1
653.14294 -934.4968 2893.0 1
146.80386 -1006.6553 3019.0 1
176.72675 -997.98584 2993.0 1
206.10759 -989.3164 2967.0 1
237.02365 -989.3164 2967.0 1
270.2879 -997.98584 2993.0 1
296.3378 -980.9804 2942.0 1
572.23865 -980.9804 2942.0 1
592.8528 -964.64185 2893.0 1
617.82965 -956.6393 2869.0 1
658.56134 -972.6444 2917.0 1
145.53957 -1029.173 2993.0 1
176.72675 -1029.173 2993.0 1
207.91373 -1029.173 2993.0 1
239.10071 -1029.173 2993.0 1
270.2879 -1029.173 2993.0 1
565.69824 -1056.6818 3073.0 1
582.1585 -1029.173 2993.0 1
602.8942 -1011.63617 2942.0 1
628.1663 -1003.0397 2917.0 1
664.2055 -1011.63617 2942.0 1
117.40913 -1088.7024 3073.0 1
145.53957 -1060.3601 2993.0 1
176.72675 -1060.3601 2993.0 1
207.91373 -1060.3601 2993.0 1
239.10071 -1060.3601 2993.0 1
582.1585 -1060.3601 2993.0 1
608.0174 -1051.1488 2967.0 1
633.55 -1042.2917 2942.0 1
675.7196 -1060.3601 2993.0 1
86.9444 -1141.1462 3129.0 1
145.53957 -1091.5471 2993.0 1
176.72675 -1091.5471 2993.0 1
207.91373 -1091.5471 2993.0 1
241.17776 -1101.0293 3019.0 1
277.51242 -1120.723 3073.0 1
570.85266 -1130.9347 3101.0 1
582.1585 -1091.5471 2993.0 1
613.34546 -1091.5471 2993.0 1
644.53265 -1091.5471 2993.0 1
681.58954 -1101.0293 3019.0 1
52.898865 -1142.6155 3046.0 1
83.16541 -1122.7341 2993.0 1
114.35259 -1122.7341 2993.0 1
145.53957 -1122.7341 2993.0 1
176.72675 -1122.7341 2993.0 1
207.91373 -1122.7341 2993.0 1
243.3347 -1142.6155 3046.0 1
565.69824 -1152.7437 3073.0 1
582.1585 -1122.7341 2993.0 1
613.34546 -1122.7341 2993.0 1
644.53265 -1122.7341 2993.0 1
687.68524 -1142.6155 3046.0 1
20.791452 -1153.9211 2993.0 1
51.97843 -1153.9211 2993.0 1
82.44296 -1143.8971 2967.0 1
113.359215 -1143.8971 2967.0 1
145.53957 -1153.9211 2993.0 1
176.72675 -1153.9211 2993.0 1
211.59546 -1174.3547 3046.0 1
528.98865 -1174.3547 3046.0 1
555.75757 -1163.9452 3019.0 1
587.21564 -1163.9452 3019.0 1
613.34546 -1153.9211 2993.0 1
644.53265 -1153.9211 2993.0 1
681.58954 -1163.9452 3019.0 1
20.43717 -1164.9143 2942.0 1
51.09273 -1164.9143 2942.0 1
82.44296 -1174.8134 2967.0 1
114.35259 -1185.1083 2993.0 1
145.53957 -1185.1083 2993.0 1
176.72675 -1185.1083 2993.0 1
613.34546 -1185.1083 2993.0 1
644.53265 -1185.1083 2993.0 1
-10.218585 -1195.57 2942.0 1
20.43717 -1195.57 2942.0 1
