ply
format ascii 1.0
comment : created from Kinect user tracker
element vertex 847
property float x
property float y
property float z
property int userId
end_header
208.67087 181.2142 1581.0 1
224.14812 180.41187 1574.0 1
242.84155 182.13116 1589.0 1
174.16687 163.2814 1567.0 1
190.49496 163.2814 1567.0 1
205.89915 162.552 1560.0 1
222.15442 162.552 1560.0 1
240.54915 164.0108 1574.0 1
258.09302 164.7402 1581.0 1
159.24884 148.26619 1581.0 1
173.38884 146.29681 1560.0 1
188.79303 145.64035 1553.0 1
204.05135 144.98389 1546.0 1
220.16072 144.98389 1546.0 1
236.27 144.98389 1546.0 1
253.52211 145.64035 1553.0 1
270.91998 146.29681 1560.0 1
287.17514 146.29681 1560.0 1
143.49731 132.45903 1589.0 1
157.83867 130.6251 1567.0 1
171.83278 128.87456 1546.0 1
187.0911 128.29103 1539.0 1
202.20352 127.70751 1532.0 1
218.16702 127.70751 1532.0 1
233.06064 127.12399 1525.0 1
247.97173 126.62383 1519.0 1
263.79965 126.62383 1519.0 1
280.73212 127.12399 1525.0 1
300.70734 128.87456 1546.0 1
316.8166 128.87456 1546.0 1
332.926 128.87456 1546.0 1
128.05829 116.92283 1603.0 1
142.77486 115.318146 1581.0 1
157.13358 113.78641 1560.0 1
171.05476 112.25467 1539.0 1
185.38916 111.233505 1525.0 1
201.27962 111.233505 1525.0 1
215.3189 110.285286 1512.0 1
231.0739 110.285286 1512.0 1
246.829 110.285286 1512.0 1
262.58398 110.285286 1512.0 1
277.23447 109.84765 1506.0 1
296.62268 111.233505 1525.0 1
315.3821 112.25467 1539.0 1
332.926 112.76524 1546.0 1
126.30077 98.8441 1581.0 1
141.51056 97.96883 1567.0 1
155.7234 96.6559 1546.0 1
170.27673 95.780624 1532.0 1
184.65976 94.967865 1519.0 1
199.5638 94.53022 1512.0 1
214.46446 94.155106 1506.0 1
229.08714 93.71746 1499.0 1
244.70679 93.71746 1499.0 1
259.11066 93.27982 1492.0 1
277.23447 94.155106 1506.0 1
291.56552 93.71746 1499.0 1
311.28357 94.967865 1519.0 1
331.41855 96.21826 1539.0 1
350.61563 97.093544 1553.0 1
368.45114 97.53118 1560.0 1
110.8688 83.151596 1596.0 1
126.30077 82.3701 1581.0 1
140.87842 81.276 1560.0 1
155.01831 80.1819 1539.0 1
168.83182 79.1399 1519.0 1
183.80879 78.7752 1512.0 1
199.5638 78.7752 1512.0 1
215.3189 78.7752 1512.0 1
229.08714 78.0979 1499.0 1
243.56406 77.7332 1492.0 1
260.32632 78.0979 1499.0 1
273.55273 77.4206 1486.0 1
292.92706 78.4626 1506.0 1
313.94763 79.8172 1532.0 1
332.926 80.5466 1546.0 1
353.77637 81.6407 1567.0 1
368.45114 81.276 1560.0 1
94.65185 66.81306 1603.0 1
112.397064 67.438255 1618.0 1
125.74157 65.60433 1574.0 1
139.61412 64.437294 1546.0 1
154.31323 63.853775 1532.0 1
168.83182 63.311935 1519.0 1
183.80879 63.020172 1512.0 1
199.5638 63.020172 1512.0 1
213.4676 62.478333 1499.0 1
228.01736 62.186573 1492.0 1
245.84952 62.770092 1506.0 1
263.79965 63.311935 1519.0 1
279.6276 63.311935 1519.0 1
297.98422 63.853775 1532.0 1
315.3821 64.14553 1539.0 1
335.94083 65.02081 1560.0 1
350.61563 64.72906 1553.0 1
368.45114 65.02081 1560.0 1
92.93949 49.20323 1574.0 1
109.34053 49.20323 1574.0 1
124.62315 48.76559 1560.0 1
139.61412 48.32795 1546.0 1
153.60814 47.67149 1525.0 1
168.83182 47.483932 1519.0 1
183.07939 47.077553 1506.0 1
198.77188 47.077553 1506.0 1
212.47076 46.63991 1492.0 1
228.01736 46.63991 1492.0 1
246.829 47.26511 1512.0 1
264.84167 47.67149 1525.0 1
282.02072 47.890312 1532.0 1
299.34576 48.10913 1539.0 1
316.8166 48.32795 1546.0 1
334.4334 48.546772 1553.0 1
93.35282 32.948048 1581.0 1
109.34053 32.802166 1574.0 1
124.06395 32.36453 1553.0 1
139.61412 32.218647 1546.0 1
153.00378 31.655968 1519.0 1
167.38692 31.385046 1506.0 1
183.07939 31.385046 1506.0 1
199.5638 31.510086 1512.0 1
213.4676 31.239166 1499.0 1
231.0739 31.510086 1512.0 1
248.9512 31.781008 1525.0 1
266.05734 31.926888 1532.0 1
282.02072 31.926888 1532.0 1
299.34576 32.072765 1539.0 1
318.2511 32.36453 1553.0 1
337.44827 32.65629 1567.0 1
93.825195 16.557364 1589.0 1
109.34053 16.401064 1574.0 1
124.06395 16.182243 1553.0 1
138.34984 15.963425 1532.0 1
153.60814 15.890485 1525.0 1
168.0538 15.755025 1512.0 1
183.07939 15.692505 1506.0 1
198.77188 15.692505 1506.0 1
213.4676 15.619565 1499.0 1
232.14368 15.827965 1519.0 1
250.09393 15.963425 1532.0 1
267.273 16.036364 1539.0 1
283.30933 16.036364 1539.0 1
302.06888 16.182243 1553.0 1
322.55453 16.401064 1574.0 1
342.18588 16.557364 1589.0 1
95.12422 0.0 1611.0 1
109.8268 0.0 1581.0 1
125.182365 0.0 1567.0 1
138.98198 0.0 1539.0 1
153.60814 0.0 1525.0 1
168.0538 0.0 1512.0 1
183.80879 0.0 1512.0 1
199.5638 0.0 1512.0 1
215.3189 0.0 1512.0 1
234.13043 0.0 1532.0 1
251.23665 0.0 1539.0 1
268.48865 0.0 1546.0 1
285.88654 0.0 1553.0 1
306.1535 0.0 1574.0 1
323.98904 0.0 1581.0 1
340.4631 0.0 1581.0 1
95.537544 -16.859543 1618.0 1
111.355064 -16.703243 1603.0 1
125.74157 -16.401064 1574.0 1
139.61412 -16.109304 1546.0 1
155.01831 -16.036364 1539.0 1
170.27673 -15.963425 1532.0 1
185.38916 -15.890485 1525.0 1
201.27962 -15.890485 1525.0 1
217.17018 -15.890485 1525.0 1
236.27 -16.109304 1546.0 1
252.37938 -16.109304 1546.0 1
269.7043 -16.182243 1553.0 1
288.46375 -16.328125 1567.0 1
307.51505 -16.474005 1581.0 1
325.62845 -16.557364 1589.0 1
342.18588 -16.557364 1589.0 1
95.537544 -33.719086 1618.0 1
111.9108 -33.573208 1611.0 1
125.182365 -32.65625 1567.0 1
140.24628 -32.364487 1553.0 1
155.01831 -32.072727 1539.0 1
171.83278 -32.21861 1546.0 1
189.644 -32.51037 1560.0 1
205.89915 -32.51037 1560.0 1
220.16072 -32.21861 1546.0 1
238.40958 -32.51037 1560.0 1
254.66484 -32.51037 1560.0 1
272.13565 -32.65625 1567.0 1
289.75238 -32.802128 1574.0 1
309.0711 -33.114727 1589.0 1
327.06293 -33.26061 1596.0 1
99.78891 -52.829433 1690.0 1
116.77347 -52.54809 1681.0 1
125.182365 -48.98445 1567.0 1
140.87842 -48.76563 1560.0 1
156.4285 -48.54681 1553.0 1
176.61209 -49.672173 1589.0 1
194.0204 -49.89099 1596.0 1
208.67087 -49.42209 1581.0 1
224.14812 -49.20327 1574.0 1
239.47935 -48.98445 1567.0 1
256.9503 -49.20327 1574.0 1
273.35132 -49.20327 1574.0 1
291.041 -49.42209 1581.0 1
310.43265 -49.89099 1596.0 1
82.568054 -70.77266 1698.0 1
98.78512 -69.73065 1673.0 1
114.55053 -68.73033 1649.0 1
130.53477 -68.10513 1634.0 1
144.76161 -66.81306 1603.0 1
162.97572 -67.438255 1618.0 1
179.05731 -67.14649 1611.0 1
194.87137 -66.81306 1603.0 1
211.57458 -66.81306 1603.0 1
227.28105 -66.52129 1596.0 1
243.91133 -66.52129 1596.0 1
259.399 -66.22954 1589.0 1
277.172 -66.52129 1596.0 1
295.09088 -66.81306 1603.0 1
311.7942 -66.81306 1603.0 1
64.56929 -88.048996 1690.0 1
80.57436 -86.3297 1657.0 1
96.48229 -85.1314 1634.0 1
112.397064 -84.2978 1618.0 1
130.53477 -85.1314 1634.0 1
146.83865 -84.7146 1626.0 1
163.78154 -84.7146 1626.0 1
180.72452 -84.7146 1626.0 1
196.69487 -84.2978 1618.0 1
214.61028 -84.7146 1626.0 1
230.414 -84.2978 1618.0 1
244.98112 -83.5163 1603.0 1
261.68445 -83.5163 1603.0 1
279.777 -83.9331 1611.0 1
299.32486 -84.7146 1626.0 1
63.002815 -103.09546 1649.0 1
79.06694 -101.6575 1626.0 1
95.12422 -100.7197 1611.0 1
111.9108 -100.7197 1611.0 1
128.69737 -100.7197 1611.0 1
146.11621 -101.15734 1618.0 1
163.78154 -101.6575 1626.0 1
180.72452 -101.6575 1626.0 1
197.66739 -101.6575 1626.0 1
217.64597 -103.09546 1649.0 1
246.64836 -108.28462 1732.0 1
280.99268 -101.15734 1618.0 1
45.597878 -119.6945 1641.0 1
61.55096 -117.50631 1611.0 1
77.948524 -116.92278 1603.0 1
94.23852 -116.41221 1596.0 1
110.8688 -116.41221 1596.0 1
128.05829 -116.92278 1603.0 1
145.48405 -117.50631 1611.0 1
163.78154 -118.6004 1626.0 1
181.6137 -119.18392 1634.0 1
199.49089 -119.6945 1641.0 1
221.86954 -122.61211 1681.0 1
245.3667 -125.67558 1723.0 1
28.377132 -136.21027 1634.0 1
44.764275 -134.29298 1611.0 1
60.710415 -132.45908 1589.0 1
76.87874 -131.79219 1581.0 1
92.93949 -131.20866 1574.0 1
110.38253 -132.45908 1589.0 1
128.05829 -133.62611 1603.0 1
144.76161 -133.62611 1603.0 1
162.97572 -134.87651 1618.0 1
181.6137 -136.21027 1634.0 1
200.46342 -137.46066 1649.0 1
221.86954 -140.12819 1681.0 1
242.94579 -142.21219 1706.0 1
270.1975 -147.38051 1768.0 1
28.099266 -151.73605 1618.0 1
44.15297 -149.01643 1589.0 1
59.869865 -146.95328 1567.0 1
75.51719 -145.64035 1553.0 1
92.11284 -146.29681 1560.0 1
108.85426 -146.95328 1567.0 1
126.30077 -148.26619 1581.0 1
144.12946 -149.6729 1596.0 1
161.46483 -150.32935 1603.0 1
179.83534 -151.73605 1618.0 1
199.49089 -153.89299 1641.0 1
219.75775 -156.1437 1665.0 1
241.80653 -159.23845 1698.0 1
267.44662 -164.11502 1750.0 1
11.191122 -167.8662 1611.0 1
27.335133 -164.0108 1574.0 1
43.347157 -162.552 1560.0 1
59.067528 -161.0932 1546.0 1
74.83642 -160.3638 1539.0 1
91.28619 -161.0932 1546.0 1
108.368 -162.552 1560.0 1
125.182365 -163.2814 1567.0 1
142.77486 -164.7402 1581.0 1
160.75974 -166.30319 1596.0 1
179.83534 -168.5956 1618.0 1
198.63992 -170.2628 1634.0 1
218.70186 -172.6594 1657.0 1
239.38562 -175.1602 1681.0 1
263.3203 -179.53659 1723.0 1
290.08936 -185.16339 1777.0 1
10.982721 -181.2142 1581.0 1
27.092 -178.80717 1560.0 1
42.763638 -176.40016 1539.0 1
58.53263 -175.59782 1532.0 1
74.49603 -175.59782 1532.0 1
90.872856 -176.40016 1539.0 1
107.39546 -177.2025 1546.0 1
124.62315 -178.80717 1560.0 1
142.14272 -180.41187 1574.0 1
160.05464 -182.13116 1589.0 1
179.83534 -185.45514 1618.0 1
199.49089 -188.0914 1641.0 1
218.70186 -189.92532 1657.0 1
238.24637 -191.75925 1673.0 1
260.72226 -195.5417 1706.0 1
290.08936 -203.67972 1777.0 1
-22.076485 -198.68852 1589.0 1
-5.543461 -199.5638 1596.0 1
10.934094 -196.81293 1574.0 1
26.848866 -193.3118 1546.0 1
42.763638 -192.43652 1539.0 1
58.53263 -191.56125 1532.0 1
74.49603 -191.56125 1532.0 1
90.0462 -190.68596 1525.0 1
106.909195 -192.43652 1539.0 1
123.504745 -193.3118 1546.0 1
140.87842 -195.06236 1560.0 1
159.24884 -197.6882 1581.0 1
177.39012 -199.5638 1596.0 1
197.66739 -203.315 1626.0 1
216.59007 -205.1906 1641.0 1
237.10712 -208.19156 1665.0 1
259.49966 -212.31789 1698.0 1
287.15094 -219.94533 1759.0 1
308.60565 -222.19604 1777.0 1
-5.5191474 -215.24597 1589.0 1
10.836842 -211.31763 1560.0 1
26.727299 -208.47296 1539.0 1
42.374626 -206.57652 1525.0 1
58.265186 -206.57652 1525.0 1
74.15565 -206.57652 1525.0 1
90.0462 -206.57652 1525.0 1
106.42293 -207.52475 1532.0 1
122.94553 -208.47296 1539.0 1
141.51056 -212.26585 1567.0 1
158.54375 -213.21407 1574.0 1
177.39012 -216.19418 1596.0 1
196.69487 -219.1743 1618.0 1
216.59007 -222.28989 1641.0 1
237.10712 -225.54092 1665.0 1
259.49966 -230.01111 1698.0 1
288.62015 -239.49332 1768.0 1
310.16867 -241.9316 1786.0 1
-22.173738 -232.8245 1596.0 1
-5.4913607 -230.63629 1581.0 1
10.836842 -227.57281 1560.0 1
26.727299 -224.50934 1539.0 1
42.569134 -223.48817 1532.0 1
58.265186 -222.46701 1525.0 1
73.863884 -221.59174 1519.0 1
90.0462 -222.46701 1525.0 1
106.909195 -224.50934 1539.0 1
122.94553 -224.50934 1539.0 1
140.87842 -227.57281 1560.0 1
160.05464 -231.80333 1589.0 1
177.39012 -232.8245 1596.0 1
196.69487 -236.03386 1618.0 1
216.59007 -239.3891 1641.0 1
237.10712 -242.89021 1665.0 1
259.49966 -247.70425 1698.0 1
287.15094 -256.60294 1759.0 1
-22.076485 -248.3607 1589.0 1
-5.442734 -244.92209 1567.0 1
10.739588 -241.6398 1546.0 1
26.727299 -240.5457 1539.0 1
42.374626 -238.3575 1525.0 1
58.035946 -237.4197 1519.0 1
74.15565 -238.3575 1525.0 1
90.45953 -239.4516 1532.0 1
106.909195 -240.5457 1539.0 1
124.62315 -243.828 1560.0 1
142.14272 -246.01619 1574.0 1
160.75974 -249.45479 1596.0 1
178.16815 -250.54889 1603.0 1
196.69487 -252.8934 1618.0 1
216.59007 -256.48828 1641.0 1
237.10712 -260.2395 1665.0 1
262.09772 -268.0545 1715.0 1
287.15094 -274.9317 1759.0 1
-21.770832 -261.2502 1567.0 1
-5.418421 -260.0832 1560.0 1
10.739588 -257.7491 1546.0 1
26.727299 -256.58206 1539.0 1
42.569134 -255.41502 1532.0 1
58.265186 -254.24799 1525.0 1
74.83642 -256.58206 1539.0 1
90.872856 -256.58206 1539.0 1
107.39546 -257.7491 1546.0 1
125.182365 -261.2502 1567.0 1
141.51056 -261.2502 1567.0 1
159.24884 -263.5843 1581.0 1
178.16815 -267.25214 1603.0 1
196.69487 -269.75293 1618.0 1
215.66617 -272.42047 1634.0 1
235.96786 -276.255 1657.0 1
260.72226 -284.4243 1706.0 1
287.15094 -293.26047 1759.0 1
-21.770832 -277.57834 1567.0 1
-5.3941073 -275.0984 1553.0 1
10.739588 -273.8584 1546.0 1
26.727299 -272.61844 1539.0 1
42.569134 -271.37845 1532.0 1
58.53263 -271.37845 1532.0 1
74.83642 -272.61844 1539.0 1
91.28619 -273.8584 1546.0 1
107.88173 -275.0984 1553.0 1
125.182365 -277.57834 1567.0 1
142.14272 -278.81833 1574.0 1
160.05464 -281.47543 1589.0 1
178.16815 -283.95538 1603.0 1
195.8439 -285.3725 1611.0 1
215.66617 -289.44672 1634.0 1
235.96786 -293.52094 1657.0 1
259.49966 -300.7837 1698.0 1
-38.43937 -296.53238 1581.0 1
-21.770832 -293.90656 1567.0 1
-5.369794 -289.96777 1546.0 1
10.739588 -289.96777 1546.0 1
26.727299 -288.65488 1539.0 1
42.763638 -288.65488 1539.0 1
58.53263 -287.34195 1532.0 1
74.83642 -288.65488 1539.0 1
91.28619 -289.96777 1546.0 1
108.85426 -293.90656 1567.0 1
125.182365 -293.90656 1567.0 1
142.77486 -296.53238 1581.0 1
160.75974 -299.3458 1596.0 1
179.05731 -302.15918 1611.0 1
197.66739 -304.9726 1626.0 1
216.59007 -307.78598 1641.0 1
235.96786 -310.78696 1657.0 1
263.3203 -323.1659 1723.0 1
287.15094 -329.91806 1759.0 1
-38.269176 -311.62054 1574.0 1
-21.673578 -308.84882 1560.0 1
-5.369794 -306.0771 1546.0 1
10.690961 -304.69122 1539.0 1
26.727299 -304.69122 1539.0 1
42.763638 -304.69122 1539.0 1
58.80008 -304.69122 1539.0 1
74.83642 -304.69122 1539.0 1
91.69952 -307.46295 1553.0 1
109.34053 -311.62054 1574.0 1
126.939865 -314.59024 1589.0 1
144.76161 -317.36194 1603.0 1
161.46483 -317.36194 1603.0 1
179.83534 -320.33167 1618.0 1
197.66739 -321.9155 1626.0 1
215.66617 -323.49933 1634.0 1
237.10712 -329.63672 1665.0 1
266.0712 -344.6832 1741.0 1
290.08936 -351.8105 1777.0 1
-38.269176 -328.0216 1574.0 1
-21.673578 -325.104 1560.0 1
-5.369794 -322.1864 1546.0 1
10.739588 -322.1864 1546.0 1
26.727299 -320.7276 1539.0 1
42.763638 -320.7276 1539.0 1
58.80008 -320.7276 1539.0 1
75.1768 -322.1864 1546.0 1
92.52617 -326.5628 1567.0 1
111.355064 -334.0652 1603.0 1
129.89568 -338.8584 1626.0 1
146.83865 -338.8584 1626.0 1
163.78154 -338.8584 1626.0 1
180.72452 -338.8584 1626.0 1
199.49089 -341.9844 1641.0 1
218.70186 -345.3188 1657.0 1
241.80653 -353.8632 1698.0 1
267.44662 -364.69998 1750.0 1
290.08936 -370.32678 1777.0 1
-55.191265 -347.70496 1589.0 1
-38.269176 -344.42267 1574.0 1
-21.673578 -341.3592 1560.0 1
-5.369794 -338.2957 1546.0 1
10.739588 -338.2957 1546.0 1
26.727299 -336.76395 1539.0 1
42.763638 -336.76395 1539.0 1
59.067528 -338.2957 1546.0 1
75.1768 -338.2957 1546.0 1
97.368 -360.83417 1649.0 1
113.9948 -359.0836 1641.0 1
130.53477 -357.55185 1634.0 1
147.56111 -357.55185 1634.0 1
164.58734 -357.55185 1634.0 1
183.2809 -360.83417 1649.0 1
201.43596 -362.58472 1657.0 1
221.86954 -367.8364 1681.0 1
244.22745 -375.27628 1715.0 1
267.44662 -382.93497 1750.0 1
-55.191265 -364.26233 1589.0 1
-38.269176 -360.82373 1574.0 1
-21.673578 -357.61435 1560.0 1
-5.369794 -354.405 1546.0 1
10.788215 -356.00967 1553.0 1
26.848866 -354.405 1546.0 1
42.763638 -352.80032 1539.0 1
59.067528 -354.405 1546.0 1
75.1768 -354.405 1546.0 1
97.84037 -379.85065 1657.0 1
115.10626 -379.85065 1657.0 1
132.37216 -379.85065 1657.0 1
149.63817 -379.85065 1657.0 1
166.90407 -379.85065 1657.0 1
185.05923 -381.68457 1665.0 1
202.4085 -381.68457 1665.0 1
224.11331 -389.24948 1698.0 1
245.3667 -394.98047 1723.0 1
268.82208 -403.23312 1759.0 1
-54.670265 -377.22485 1574.0 1
-38.269176 -377.22485 1574.0 1
-21.673578 -373.86963 1560.0 1
-5.418421 -373.86963 1560.0 1
10.836842 -373.86963 1560.0 1
27.092 -373.86963 1560.0 1
43.152653 -372.19202 1553.0 1
59.334972 -372.19202 1553.0 1
82.17904 -405.02542 1690.0 1
98.78512 -400.9512 1673.0 1
115.661995 -399.03394 1665.0 1
133.65034 -400.9512 1673.0 1
151.08307 -400.9512 1673.0 1
168.51569 -400.9512 1673.0 1
185.94841 -400.9512 1673.0 1
206.4202 -406.94272 1698.0 1
226.35709 -411.01694 1715.0 1
246.64836 -415.09116 1732.0 1
270.1975 -423.7189 1768.0 1
302.49612 -444.09 1853.0 1
-55.191265 -397.37714 1589.0 1
-38.098984 -391.87537 1567.0 1
-21.673578 -390.12482 1560.0 1
-5.418421 -390.12482 1560.0 1
10.885468 -391.87537 1567.0 1
27.213566 -391.87537 1567.0 1
43.73617 -393.62592 1574.0 1
64.87494 -424.63586 1698.0 1
82.17904 -422.63522 1690.0 1
99.25749 -420.3845 1681.0 1
116.77347 -420.3845 1681.0 1
134.28944 -420.3845 1681.0 1
151.80553 -420.3845 1681.0 1
169.3215 -420.3845 1681.0 1
188.72708 -424.63586 1698.0 1
208.48683 -428.8872 1715.0 1
227.41298 -430.88785 1723.0 1
249.21169 -437.64 1750.0 1
270.1975 -442.14145 1768.0 1
-55.191265 -413.93448 1589.0 1
-38.269176 -410.02698 1574.0 1
-21.673578 -406.38 1560.0 1
-5.418421 -406.38 1560.0 1
10.885468 -408.2035 1567.0 1
27.213566 -408.2035 1567.0 1
47.87638 -448.8415 1723.0 1
64.87494 -442.32898 1698.0 1
82.568054 -442.32898 1698.0 1
100.261284 -442.32898 1698.0 1
117.39867 -440.245 1690.0 1
135.00842 -440.245 1690.0 1
152.61829 -440.245 1690.0 1
171.03386 -442.32898 1698.0 1
189.61626 -444.413 1706.0 1
209.45937 -448.8415 1723.0 1
228.60086 -451.186 1732.0 1
250.49335 -458.21948 1759.0 1
272.9484 -465.253 1786.0 1
-71.74866 -430.49185 1589.0 1
-54.9134 -428.3245 1581.0 1
-38.098984 -424.53162 1567.0 1
-21.673578 -422.63516 1560.0 1
-5.418421 -422.63516 1560.0 1
10.885468 -424.53162 1567.0 1
27.335133 -426.42807 1574.0 1
47.654087 -464.62778 1715.0 1
64.87494 -460.02213 1698.0 1
82.568054 -460.02213 1698.0 1
100.261284 -460.02213 1698.0 1
117.9544 -460.02213 1698.0 1
135.6475 -460.02213 1698.0 1
154.06319 -462.18948 1706.0 1
172.7462 -464.62778 1715.0 1
191.50575 -466.79514 1723.0 1
210.55347 -469.23343 1732.0 1
230.97662 -474.11 1750.0 1
253.05667 -481.4248 1777.0 1
277.22754 -491.44885 1814.0 1
-71.74866 -447.04922 1589.0 1
-54.9134 -444.7985 1581.0 1
-38.098984 -440.85974 1567.0 1
-21.770832 -440.85974 1567.0 1
-5.418421 -438.89035 1560.0 1
10.885468 -440.85974 1567.0 1
27.335133 -442.82913 1574.0 1
47.87638 -484.74878 1723.0 1
65.180595 -479.966 1706.0 1
82.95707 -479.966 1706.0 1
100.73366 -479.966 1706.0 1
118.51013 -479.966 1706.0 1
136.2866 -479.966 1706.0 1
154.87595 -482.49805 1715.0 1
173.55202 -484.74878 1723.0 1
192.50607 -487.28082 1732.0 1
211.64757 -489.8129 1741.0 1
232.16449 -494.877 1759.0 1
255.61998 -505.00525 1795.0 1
278.7558 -513.1641 1824.0 1
-88.69506 -465.649 1596.0 1
-71.74866 -463.60666 1589.0 1
-54.670265 -459.23026 1574.0 1
-38.098984 -457.18796 1567.0 1
-21.673578 -455.14563 1560.0 1
-5.418421 -455.14563 1560.0 1
10.885468 -457.18796 1567.0 1
30.235367 -507.9542 1741.0 1
47.87638 -502.7025 1723.0 1
65.83011 -502.7025 1723.0 1
83.39471 -500.36844 1715.0 1
100.73366 -497.74258 1706.0 1
119.13533 -500.36844 1715.0 1
137.00558 -500.36844 1715.0 1
155.5984 -502.7025 1723.0 1
174.45856 -505.32834 1732.0 1
193.5064 -507.9542 1741.0 1
213.83577 -513.2059 1759.0 1
233.35237 -515.8317 1768.0 1
255.61998 -523.7092 1795.0 1
-88.69506 -482.2793 1596.0 1
-71.74866 -480.16403 1589.0 1
-54.42713 -473.51605 1567.0 1
-37.928787 -471.40082 1560.0 1
-21.673578 -471.40082 1560.0 1
-5.418421 -471.40082 1560.0 1
12.2192335 -531.5346 1759.0 1
30.235367 -526.0954 1741.0 1
48.12646 -523.3758 1732.0 1
66.173965 -523.3758 1732.0 1
84.22136 -523.3758 1732.0 1
101.73745 -520.6561 1723.0 1
119.69106 -520.6561 1723.0 1
138.36366 -523.3758 1732.0 1
156.41116 -523.3758 1732.0 1
175.3651 -526.0954 1741.0 1
194.50671 -528.815 1750.0 1
213.83577 -531.5346 1759.0 1
235.72813 -539.6935 1786.0 1
-71.74866 -496.7214 1589.0 1
-54.670265 -492.03238 1574.0 1
-37.928787 -487.656 1560.0 1
-21.673578 -487.656 1560.0 1
-5.418421 -487.656 1560.0 1
12.2192335 -549.8634 1759.0 1
30.391666 -547.05 1750.0 1
48.37654 -544.2366 1741.0 1
66.51783 -544.2366 1741.0 1
84.659004 -544.2366 1741.0 1
102.80029 -544.2366 1741.0 1
120.31626 -541.4232 1732.0 1
138.36366 -541.4232 1732.0 1
157.22392 -544.2366 1741.0 1
175.3651 -544.2366 1741.0 1
196.50735 -552.6768 1768.0 1
216.02396 -555.4902 1777.0 1
239.42377 -567.0564 1814.0 1
290.36722 -637.3914 2039.0 1
-71.74866 -513.27875 1589.0 1
-54.42713 -506.1723 1567.0 1
-37.928787 -503.91116 1560.0 1
-21.576326 -501.65002 1553.0 1
-5.3941073 -501.65002 1553.0 1
12.281754 -571.0993 1768.0 1
30.547966 -568.19214 1759.0 1
48.62662 -565.285 1750.0 1
66.86169 -565.285 1750.0 1
85.09664 -565.285 1750.0 1
103.33171 -565.285 1750.0 1
122.191864 -568.19214 1759.0 1
140.5206 -568.19214 1759.0 1
159.6622 -571.0993 1768.0 1
178.08472 -571.0993 1768.0 1
197.50768 -574.00653 1777.0 1
220.52193 -585.95825 1814.0 1
261.33356 -639.5796 1980.0 1
290.36722 -658.63776 2039.0 1
313.44745 -662.514 2051.0 1
-71.74866 -529.8361 1589.0 1
-54.42713 -522.5004 1567.0 1
-37.928787 -520.1664 1560.0 1
-21.479073 -515.4982 1546.0 1
-5.418421 -520.1664 1560.0 1
12.281754 -589.52185 1768.0 1
30.704266 -589.52185 1768.0 1
48.876698 -586.52094 1759.0 1
67.20555 -586.52094 1759.0 1
85.53428 -586.52094 1759.0 1
103.86313 -586.52094 1759.0 1
122.191864 -586.52094 1759.0 1
141.23958 -589.52185 1768.0 1
159.6622 -589.52185 1768.0 1
179.8978 -595.5238 1786.0 1
200.50864 -601.5257 1804.0 1
225.26303 -617.86426 1853.0 1
264.36923 -667.88025 2003.0 1
290.36722 -679.8841 2039.0 1
317.26813 -692.2214 2076.0 1
-71.38743 -543.6427 1581.0 1
-54.42713 -538.8286 1567.0 1
-37.928787 -536.42163 1560.0 1
-21.576326 -534.0146 1553.0 1
-5.418421 -536.42163 1560.0 1
10.885468 -538.8286 1567.0 1
31.016867 -614.134 1786.0 1
49.376858 -611.03925 1777.0 1
67.54941 -607.9445 1768.0 1
85.53428 -604.8498 1759.0 1
103.86313 -604.8498 1759.0 1
122.81706 -607.9445 1768.0 1
141.23958 -607.9445 1768.0 1
161.28773 -614.134 1786.0 1
181.71088 -620.3235 1804.0 1
207.06628 -640.6112 1863.0 1
230.24727 -651.2709 1894.0 1
262.9174 -684.9692 1992.0 1
290.36722 -701.13055 2039.0 1
-71.07136 -557.6367 1574.0 1
-54.42713 -555.15674 1567.0 1
-37.928787 -552.6768 1560.0 1
-21.576326 -550.19684 1553.0 1
-5.369794 -547.71686 1546.0 1
10.885468 -555.15674 1567.0 1
31.016867 -632.7441 1786.0 1
49.626938 -632.7441 1786.0 1
67.89327 -629.55554 1777.0 1
86.40956 -629.55554 1777.0 1
104.92597 -629.55554 1777.0 1
124.06747 -632.7441 1786.0 1
143.39651 -635.9326 1795.0 1
162.91325 -639.12115 1804.0 1
184.63196 -649.39526 1833.0 1
208.17775 -663.56647 1873.0 1
231.46294 -674.54913 1904.0 1
264.36923 -709.62286 2003.0 1
288.65833 -718.12555 2027.0 1
-71.38743 -576.5907 1581.0 1
-54.42713 -571.48486 1567.0 1
-37.928787 -568.932 1560.0 1
-21.673578 -568.932 1560.0 1
-5.3941073 -566.3791 1553.0 1
10.885468 -571.48486 1567.0 1
31.016867 -651.3542 1786.0 1
49.626938 -651.3542 1786.0 1
67.89327 -648.0719 1777.0 1
86.40956 -648.0719 1777.0 1
104.92597 -648.0719 1777.0 1
124.692665 -654.6365 1795.0 1
144.1155 -657.91876 1804.0 1
163.81631 -661.5658 1814.0 1
185.63922 -672.1421 1843.0 1
210.51183 -690.74176 1894.0 1
234.01582 -702.0475 1925.0 1
267.53693 -739.2469 2027.0 1
292.07608 -747.9997 2051.0 1
-54.42713 -587.813 1567.0 1
-37.928787 -585.1872 1560.0 1
-21.576326 -582.56134 1553.0 1
-5.3941073 -582.56134 1553.0 1
10.885468 -587.813 1567.0 1
31.173166 -673.3404 1795.0 1
49.376858 -666.5882 1777.0 1
67.89327 -666.5882 1777.0 1
86.40956 -666.5882 1777.0 1
105.45739 -669.9643 1786.0 1
124.692665 -673.3404 1795.0 1
144.1155 -676.71643 1804.0 1
163.81631 -680.46765 1814.0 1
187.65375 -698.8485 1863.0 1
213.95738 -722.10596 1925.0 1
243.49803 -751.36536 2003.0 1
270.7046 -769.3711 2051.0 1
297.34515 -783.25055 2088.0 1
-54.42713 -604.1411 1567.0 1
-37.928787 -601.4424 1560.0 1
-21.576326 -598.7436 1553.0 1
-5.3941073 -598.7436 1553.0 1
10.885468 -604.1411 1567.0 1
31.329466 -695.5141 1804.0 1
49.877018 -692.04425 1795.0 1
68.23713 -688.5744 1786.0 1
86.40956 -685.10455 1777.0 1
105.45739 -688.5744 1786.0 1
124.692665 -692.04425 1795.0 1
144.1155 -695.5141 1804.0 1
165.53214 -706.69476 1833.0 1
188.66103 -722.1164 1873.0 1
226.6281 -786.116 2039.0 1
249.33322 -790.7425 2051.0 1
272.28842 -795.36896 2063.0 1
299.19644 -810.0195 2101.0 1
-54.184 -617.69763 1560.0 1
-37.928787 -617.69763 1560.0 1
-21.576326 -614.9259 1553.0 1
-5.3941073 -614.9259 1553.0 1
10.885468 -620.46936 1567.0 1
31.329466 -714.3119 1804.0 1
49.877018 -710.7482 1795.0 1
68.580986 -710.7482 1795.0 1
86.8472 -707.1846 1786.0 1
105.988815 -710.7482 1795.0 1
124.692665 -710.7482 1795.0 1
144.1155 -714.3119 1804.0 1
166.43521 -729.75433 1843.0 1
188.66103 -741.6331 1873.0 1
229.29562 -816.8655 2063.0 1
250.79202 -816.8655 2063.0 1
275.5881 -826.7645 2088.0 1
299.19644 -831.912 2101.0 1
-54.184 -633.9528 1560.0 1
-37.928787 -633.9528 1560.0 1
-21.576326 -631.10815 1553.0 1
-5.418421 -633.9528 1560.0 1
10.885468 -636.7975 1567.0 1
27.335133 -639.64215 1574.0 1
50.127098 -733.1095 1804.0 1
68.580986 -729.4521 1795.0 1
87.28484 -729.4521 1795.0 1
105.988815 -729.4521 1795.0 1
125.31786 -733.1095 1804.0 1
145.71323 -741.2371 1824.0 1
167.33827 -753.02216 1853.0 1
209.10854 -843.6449 2076.0 1
232.0743 -848.5214 2088.0 1
255.41156 -853.8044 2101.0 1
279.01974 -859.08734 2114.0 1
304.75027 -869.6532 2140.0 1
