ply
format ascii 1.0
comment : created from Kinect user tracker
element vertex 190
property float x
property float y
property float z
property int userId
end_header
1495.0442 57.872692 2777.0 1
1477.7228 29.165552 2799.0 1
1482.6617 28.696651 2754.0 1
1466.1079 0.0 2777.0 1
1482.6617 0.0 2754.0 1
1477.7228 -29.165552 2799.0 1
1495.0442 -28.936312 2777.0 1
1460.4602 -58.81042 2822.0 1
1477.7228 -58.331104 2799.0 1
1495.0442 -57.872623 2777.0 1
1460.4602 -88.215775 2822.0 1
1477.7228 -87.496796 2799.0 1
1482.6617 -86.090096 2754.0 1
1460.4602 -117.62099 2822.0 1
1477.7228 -116.662346 2799.0 1
1495.0442 -115.745384 2777.0 1
1472.3633 -148.2245 2845.0 1
1489.8656 -147.0262 2822.0 1
1482.6617 -143.4834 2754.0 1
1472.3633 -177.86937 2845.0 1
1489.8656 -176.43141 2822.0 1
1459.512 -169.49168 2711.0 1
1479.2301 -212.76591 2917.0 1
1472.3633 -207.51424 2845.0 1
1477.7228 -204.159 2799.0 1
1448.2063 -196.20854 2690.0 1
1424.9939 -239.1599 2869.0 1
1467.0596 -241.16054 2893.0 1
1460.4602 -235.24197 2822.0 1
1442.8783 -227.82294 2733.0 1
1436.9006 -222.48788 2669.0 1
1436.9144 -271.30557 2893.0 1
1454.889 -269.05484 2869.0 1
1437.1715 -260.4271 2777.0 1
1420.1766 -252.26822 2690.0 1
1415.366 -246.54764 2629.0 1
1430.5966 -306.5564 2942.0 1
1436.9144 -301.4506 2893.0 1
1442.7185 -296.449 2845.0 1
1403.0148 -282.4862 2711.0 1
1409.0897 -278.1098 2669.0 1
1404.5986 -271.8578 2609.0 1
1418.4398 -334.3465 2917.0 1
1424.9939 -328.84476 2869.0 1
1431.055 -323.4576 2822.0 1
1392.1467 -308.32776 2690.0 1
1398.5308 -303.62836 2649.0 1
1404.5986 -299.04355 2609.0 1
1396.5718 -344.3601 2754.0 1
1381.2786 -333.7317 2669.0 1
1377.4128 -326.2293 2609.0 1
1393.8313 -323.72852 2589.0 1
1385.9225 -370.21222 2733.0 1
1381.2786 -361.5428 2669.0 1
1377.4128 -353.4152 2609.0 1
1383.6023 -348.13223 2570.0 1
1374.7662 -395.4807 2711.0 1
1392.1467 -392.4172 2690.0 1
1387.9718 -383.51852 2629.0 1
1393.8313 -377.68335 2589.0 1
1403.0148 -423.72928 2711.0 1
1387.9718 -410.9127 2629.0 1
1393.8313 -404.6607 2589.0 1
1437.1715 -462.9814 2777.0 1
1398.5308 -441.64124 2649.0 1
1383.6023 -428.47037 2570.0 1
1454.889 -508.2146 2869.0 1
1460.4602 -499.889 2822.0 1
1398.5308 -469.2438 2649.0 1
1393.8313 -458.6154 2589.0 1
1472.3633 -533.6083 2845.0 1
1409.0897 -500.5977 2669.0 1
1404.5986 -489.3441 2609.0 1
1497.2046 -572.75616 2893.0 1
1453.9652 -545.23694 2754.0 1
1415.366 -520.48944 2629.0 1
1544.647 -634.7864 3046.0 1
1497.2046 -602.9012 2893.0 1
1489.8656 -588.1048 2822.0 1
1471.3561 -569.5572 2733.0 1
1517.7703 -654.9282 2993.0 1
1535.5016 -649.2389 2967.0 1
1502.0083 -622.54285 2845.0 1
1495.0442 -607.6631 2777.0 1
1504.5854 -680.155 2967.0 1
1509.6252 -668.693 2917.0 1
1514.6791 -657.6895 2869.0 1
1531.6532 -652.18774 2845.0 1
1455.3961 -717.3024 2993.0 1
1461.2521 -705.0798 2942.0 1
1491.9078 -705.0798 2942.0 1
1509.6252 -699.08826 2917.0 1
1527.3497 -693.3364 2893.0 1
1531.6532 -681.83276 2845.0 1
1455.3961 -748.48944 2993.0 1
1461.2521 -735.73535 2942.0 1
1479.2301 -729.4834 2917.0 1
1509.6252 -729.4834 2917.0 1
1527.3497 -723.48145 2893.0 1
1531.6532 -711.4776 2845.0 1
1436.5812 -786.44946 3019.0 1
1442.7532 -772.9035 2967.0 1
1461.2521 -766.391 2942.0 1
1479.2301 -759.8785 2917.0 1
1509.6252 -759.8785 2917.0 1
1540.0205 -759.8785 2917.0 1
1557.4948 -753.62646 2893.0 1
1405.123 -817.9074 3019.0 1
1411.8372 -803.8196 2967.0 1
1430.5966 -797.0466 2942.0 1
1461.2521 -797.0466 2942.0 1
1491.9078 -797.0466 2942.0 1
1509.6252 -790.2736 2917.0 1
1514.6791 -777.2694 2869.0 1
1393.022 -842.05054 2993.0 1
1399.9409 -827.7022 2942.0 1
1430.5966 -827.7022 2942.0 1
1461.2521 -827.7022 2942.0 1
1479.2301 -820.6687 2917.0 1
1509.6252 -820.6687 2917.0 1
1385.9503 -888.701 3046.0 1
1405.123 -880.8235 3019.0 1
1411.8372 -865.652 2967.0 1
1430.5966 -858.358 2942.0 1
1461.2521 -858.358 2942.0 1
1479.2301 -851.06396 2917.0 1
1373.6652 -912.28143 3019.0 1
1380.9209 -896.56805 2967.0 1
1411.8372 -896.56805 2967.0 1
1430.5966 -889.01355 2942.0 1
1461.2521 -889.01355 2942.0 1
1479.2301 -881.45905 2917.0 1
1330.6478 -935.61176 2993.0 1
1361.835 -935.61176 2993.0 1
1380.9209 -927.4842 2967.0 1
1411.8372 -927.4842 2967.0 1
1418.4398 -911.8542 2917.0 1
1448.835 -911.8542 2917.0 1
1354.2109 -983.9189 3046.0 1
1373.6652 -975.1973 3019.0 1
1393.022 -966.7988 2993.0 1
1411.8372 -958.40027 2967.0 1
1406.7694 -934.4968 2893.0 1
1482.6617 -889.59705 2754.0 1
1346.3508 -1033.9973 3101.0 1
1342.207 -1006.6553 3019.0 1
1373.6652 -1006.6553 3019.0 1
1393.022 -997.98584 2993.0 1
1424.2091 -997.98584 2993.0 1
1495.0442 -925.9628 2777.0 1
1322.4717 -1047.3976 3046.0 1
1354.2109 -1047.3976 3046.0 1
1373.6652 -1038.1134 3019.0 1
1405.123 -1038.1134 3019.0 1
1449.429 -1047.3976 3046.0 1
1489.8656 -970.373 2822.0 1
1506.8883 -962.4642 2799.0 1
1279.2913 -1069.5713 3019.0 1
1310.7491 -1069.5713 3019.0 1
1342.207 -1069.5713 3019.0 1
1361.835 -1060.3601 2993.0 1
1405.123 -1069.5713 3019.0 1
1502.0083 -1007.92664 2845.0 1
1519.2708 -999.7782 2822.0 1
1279.2913 -1101.0293 3019.0 1
1310.7491 -1101.0293 3019.0 1
1330.6478 -1091.5471 2993.0 1
1373.6652 -1101.0293 3019.0 1
1405.123 -1101.0293 3019.0 1
1462.2769 -1120.723 3073.0 1
1494.2975 -1120.723 3073.0 1
1489.8656 -1029.1833 2822.0 1
1519.2708 -1029.1833 2822.0 1
1279.2913 -1132.4872 3019.0 1
1322.4717 -1142.6155 3046.0 1
1378.6631 -1163.2471 3101.0 1
1385.9503 -1142.6155 3046.0 1
1430.2561 -1152.7437 3073.0 1
1462.2769 -1152.7437 3073.0 1
1527.3497 -1085.2222 2893.0 1
1519.2708 -1058.5886 2822.0 1
1385.9503 -1174.3547 3046.0 1
1462.2769 -1184.7643 3073.0 1
1502.0083 -1096.8612 2845.0 1
1531.6532 -1096.8612 2845.0 1
1514.6791 -1136.0093 2869.0 1
1544.574 -1136.0093 2869.0 1
1522.5634 -1195.57 2942.0 1
1540.0205 -1185.4105 2917.0 1
1557.4948 -1175.6573 2893.0 1
