ply
format ascii 1.0
comment : created from Kinect user tracker
element vertex 280
property float x
property float y
property float z
property int userId
end_header
1373.3733 0.0 2551.0 1
1339.8765 -26.977354 2589.0 1
1356.823 -26.779373 2570.0 1
1373.3733 -26.581394 2551.0 1
1323.0413 -54.371506 2609.0 1
1339.8765 -53.95471 2589.0 1
1356.823 -53.558746 2570.0 1
1363.1444 -52.76683 2532.0 1
1305.7892 -82.182594 2629.0 1
1323.0413 -81.55739 2609.0 1
1330.0435 -80.33825 2570.0 1
1346.792 -79.74431 2551.0 1
1363.1444 -79.15037 2532.0 1
1315.7229 -110.41035 2649.0 1
1312.8992 -107.909546 2589.0 1
1330.0435 -107.11762 2570.0 1
1346.792 -106.32571 2551.0 1
1393.8313 -107.909546 2589.0 1
1295.8555 -135.9289 2609.0 1
1312.8992 -134.8869 2589.0 1
1330.0435 -133.897 2570.0 1
1387.9718 -136.9709 2629.0 1
1404.5986 -135.9289 2609.0 1
1297.8457 -166.86584 2669.0 1
1295.8555 -163.11465 2609.0 1
1312.8992 -161.86426 2589.0 1
1350.227 -163.11465 2609.0 1
1387.9718 -164.36505 2629.0 1
1393.8313 -161.86426 2589.0 1
1278.395 -191.7592 2629.0 1
1295.8555 -190.3004 2609.0 1
1312.8992 -188.8416 2589.0 1
1370.9281 -193.218 2649.0 1
1398.5308 -193.218 2649.0 1
1404.5986 -190.3004 2609.0 1
1270.0348 -222.48788 2669.0 1
1268.6697 -217.48628 2609.0 1
1285.9216 -215.81909 2589.0 1
1312.8992 -215.81909 2589.0 1
1381.2786 -222.48788 2669.0 1
1398.5308 -220.8207 2649.0 1
1393.8313 -215.81909 2589.0 1
1260.5178 -248.42325 2649.0 1
1258.9443 -242.79645 2589.0 1
1285.9216 -242.79645 2589.0 1
1323.0413 -244.67204 2609.0 1
1370.9281 -248.42325 2649.0 1
1387.9718 -246.54764 2629.0 1
1404.5986 -244.67204 2609.0 1
1251.001 -273.9418 2629.0 1
1268.6697 -271.8578 2609.0 1
1295.8555 -271.8578 2609.0 1
1343.3256 -276.0258 2649.0 1
1381.2786 -278.1098 2669.0 1
1398.5308 -276.0258 2649.0 1
1404.5986 -271.8578 2609.0 1
1251.001 -301.33594 2629.0 1
1258.9443 -296.75116 2589.0 1
1285.9216 -296.75116 2589.0 1
1353.4677 -305.92075 2669.0 1
1381.2786 -305.92075 2669.0 1
1387.9718 -301.33594 2629.0 1
1415.366 -301.33594 2629.0 1
1251.001 -328.7301 2629.0 1
1268.6697 -326.2293 2609.0 1
1315.7229 -331.2309 2649.0 1
1353.4677 -333.7317 2669.0 1
1381.2786 -333.7317 2669.0 1
1398.5308 -331.2309 2649.0 1
1415.366 -328.7301 2629.0 1
1232.9152 -358.8336 2649.0 1
1241.484 -353.4152 2609.0 1
1258.9443 -350.706 2589.0 1
1315.7229 -358.8336 2649.0 1
1353.4677 -361.5428 2669.0 1
1370.9281 -358.8336 2649.0 1
1387.9718 -356.1244 2629.0 1
1415.366 -356.1244 2629.0 1
1223.6067 -383.51852 2629.0 1
1241.484 -380.60095 2609.0 1
1268.6697 -380.60095 2609.0 1
1315.7229 -386.43613 2649.0 1
1353.4677 -389.35373 2669.0 1
1370.9281 -386.43613 2649.0 1
1387.9718 -383.51852 2629.0 1
1415.366 -383.51852 2629.0 1
1232.9152 -414.0387 2649.0 1
1241.484 -407.78668 2609.0 1
1268.6697 -407.78668 2609.0 1
1295.8555 -407.78668 2609.0 1
1353.4677 -417.1647 2669.0 1
1381.2786 -417.1647 2669.0 1
1398.5308 -414.0387 2649.0 1
1415.366 -410.9127 2629.0 1
1263.5535 -462.9814 2777.0 1
1232.9152 -441.64124 2649.0 1
1241.484 -434.97244 2609.0 1
1258.9443 -431.63806 2589.0 1
1325.6566 -444.97565 2669.0 1
1353.4677 -444.97565 2669.0 1
1381.2786 -444.97565 2669.0 1
1409.0897 -444.97565 2669.0 1
1415.366 -438.30685 2629.0 1
1284.0288 -499.889 2822.0 1
1261.7716 -480.22647 2711.0 1
1251.001 -465.701 2629.0 1
1288.1204 -469.2438 2649.0 1
1336.087 -476.50653 2690.0 1
1364.117 -476.50653 2690.0 1
1392.1467 -476.50653 2690.0 1
1409.0897 -472.7866 2669.0 1
1436.9006 -472.7866 2669.0 1
1284.0288 -529.2944 2822.0 1
1281.785 -516.5403 2754.0 1
1290.0204 -508.47522 2711.0 1
1318.2689 -508.47522 2711.0 1
1336.087 -504.53644 2690.0 1
1353.4677 -500.5977 2669.0 1
1381.2786 -500.5977 2669.0 1
1398.5308 -496.8465 2649.0 1
1426.1333 -496.8465 2649.0 1
1254.6235 -558.6996 2822.0 1
1273.5637 -554.14606 2799.0 1
1281.785 -545.23694 2754.0 1
1300.489 -541.07935 2733.0 1
1328.9668 -541.07935 2733.0 1
1336.087 -532.5662 2690.0 1
1353.4677 -528.4086 2669.0 1
1381.2786 -528.4086 2669.0 1
1409.0897 -528.4086 2669.0 1
1426.1333 -524.44904 2649.0 1
1275.519 -597.8996 2869.0 1
1273.5637 -583.3116 2799.0 1
1272.011 -569.5572 2733.0 1
1290.0204 -564.9724 2711.0 1
1328.9668 -569.5572 2733.0 1
1346.5175 -564.9724 2711.0 1
1385.9225 -569.5572 2733.0 1
1403.0148 -564.9724 2711.0 1
1266.4641 -638.2979 2917.0 1
1264.849 -622.54285 2845.0 1
1273.5637 -612.4771 2799.0 1
1292.4897 -607.6631 2777.0 1
1300.489 -598.03503 2733.0 1
1339.1783 -602.63025 2754.0 1
1367.875 -602.63025 2754.0 1
1385.9225 -598.03503 2733.0 1
1245.6241 -657.6895 2869.0 1
1254.6235 -646.9152 2822.0 1
1273.5637 -641.6427 2799.0 1
1281.785 -631.3269 2754.0 1
1300.489 -626.5129 2733.0 1
1339.1783 -631.3269 2754.0 1
1367.875 -631.3269 2754.0 1
1246.6627 -705.0798 2942.0 1
1245.6241 -687.5846 2869.0 1
1254.6235 -676.32056 2822.0 1
1273.5637 -670.8084 2799.0 1
1292.4897 -665.5359 2777.0 1
1321.4263 -665.5359 2777.0 1
1361.0604 -670.8084 2799.0 1
1236.0691 -729.4834 2917.0 1
1245.6241 -717.47955 2869.0 1
1254.6235 -705.72577 2822.0 1
1284.0288 -705.72577 2822.0 1
1302.7291 -699.97394 2799.0 1
1331.8949 -699.97394 2799.0 1
1372.2445 -705.72577 2822.0 1
1216.007 -766.391 2942.0 1
1236.0691 -759.8785 2917.0 1
1245.6241 -747.3745 2869.0 1
1254.6235 -735.131 2822.0 1
1284.0288 -735.131 2822.0 1
1302.7291 -729.13947 2799.0 1
1342.8394 -735.131 2822.0 1
1506.8883 -729.13947 2799.0 1
1195.4241 -803.8196 2967.0 1
1216.007 -797.0466 2942.0 1
1236.0691 -790.2736 2917.0 1
1256.0442 -783.77155 2893.0 1
1275.519 -777.2694 2869.0 1
1284.0288 -764.5362 2822.0 1
1313.434 -764.5362 2822.0 1
1519.2708 -764.5362 2822.0 1
1205.8997 -842.05054 2993.0 1
1226.3402 -834.7357 2967.0 1
1236.0691 -820.6687 2917.0 1
1266.4641 -820.6687 2917.0 1
1286.1891 -813.91656 2893.0 1
1316.3344 -813.91656 2893.0 1
1519.2708 -793.9414 2822.0 1
1216.3752 -880.8235 3019.0 1
1226.3402 -865.652 2967.0 1
1236.0691 -851.06396 2917.0 1
1266.4641 -851.06396 2917.0 1
1296.8593 -851.06396 2917.0 1
1514.6791 -837.0595 2869.0 1
1519.2708 -823.34674 2822.0 1
1184.9171 -912.28143 3019.0 1
1216.3752 -912.28143 3019.0 1
1237.0867 -904.42474 2993.0 1
1257.2565 -896.56805 2967.0 1
1277.3184 -889.01355 2942.0 1
1307.9739 -889.01355 2942.0 1
1502.0083 -859.7021 2845.0 1
1519.2708 -852.75195 2822.0 1
1195.4866 -978.12537 3129.0 1
1195.5143 -952.17957 3046.0 1
1216.3752 -943.7394 3019.0 1
1237.0867 -935.61176 2993.0 1
1268.2738 -935.61176 2993.0 1
1288.1725 -927.4842 2967.0 1
1497.2046 -904.3518 2893.0 1
1514.6791 -896.84937 2869.0 1
1531.6532 -889.347 2845.0 1
1184.7887 -1001.685 3101.0 1
1195.5143 -983.9189 3046.0 1
1216.3752 -975.1973 3019.0 1
1237.0867 -966.7988 2993.0 1
1268.2738 -966.7988 2993.0 1
1484.7839 -926.7443 2869.0 1
1502.0083 -918.9919 2845.0 1
1531.6532 -918.9919 2845.0 1
1184.0663 -1062.3397 3186.0 1
1174.0908 -1024.661 3073.0 1
1195.5143 -1015.65814 3046.0 1
1216.3752 -1006.6553 3019.0 1
1247.8331 -1006.6553 3019.0 1
1290.7324 -1015.65814 3046.0 1
1497.2046 -964.64185 2893.0 1
1514.6791 -956.6393 2869.0 1
1531.6532 -948.6367 2845.0 1
1184.0663 -1095.538 3186.0 1
1163.775 -1047.3976 3046.0 1
1184.9171 -1038.1134 3019.0 1
1205.8997 -1029.173 2993.0 1
1247.8331 -1038.1134 3019.0 1
1504.5854 -1020.23267 2967.0 1
1509.6252 -1003.0397 2917.0 1
1527.3497 -994.78705 2893.0 1
1531.6532 -978.28174 2845.0 1
1152.4763 -1098.6223 3101.0 1
1163.775 -1079.1368 3046.0 1
1184.9171 -1069.5713 3019.0 1
1216.3752 -1069.5713 3019.0 1
1247.8331 -1069.5713 3019.0 1
1491.9078 -1042.2917 2942.0 1
1497.2046 -1024.932 2893.0 1
1527.3497 -1024.932 2893.0 1
1557.4948 -1024.932 2893.0 1
1120.1638 -1130.9347 3101.0 1
1142.0703 -1120.723 3073.0 1
1163.775 -1110.8762 3046.0 1
1195.5143 -1110.8762 3046.0 1
1205.8997 -1091.5471 2993.0 1
1517.7703 -1091.5471 2993.0 1
1509.6252 -1063.8298 2917.0 1
1540.0205 -1063.8298 2917.0 1
1583.8748 -1072.9474 2942.0 1
1100.2964 -1142.6155 3046.0 1
1132.0358 -1142.6155 3046.0 1
1153.4592 -1132.4872 3019.0 1
1195.5143 -1142.6155 3046.0 1
1530.9551 -1132.4872 3019.0 1
1509.6252 -1094.225 2917.0 1
1527.3497 -1085.2222 2893.0 1
1570.4155 -1094.225 2917.0 1
1090.5432 -1163.9452 3019.0 1
1195.5143 -1174.3547 3046.0 1
1479.2301 -1124.6201 2917.0 1
1522.5634 -1134.2585 2942.0 1
1527.3497 -1115.3672 2893.0 1
1570.4155 -1124.6201 2917.0 1
1491.9078 -1164.9143 2942.0 1
1522.5634 -1164.9143 2942.0 1
1540.0205 -1155.0154 2917.0 1
1570.4155 -1155.0154 2917.0 1
1522.5634 -1195.57 2942.0 1
1553.2191 -1195.57 2942.0 1
1583.8748 -1195.57 2942.0 1
