ply
format ascii 1.0
comment : created from Kinect user tracker
element vertex 629
property float x
property float y
property float z
property int userId
end_header
1236.6282 311.1516 2297.0 1
1228.0144 285.21625 2281.0 1
1220.8453 270.38855 2359.0 1
1220.6128 265.0014 2312.0 1
1236.6282 263.2821 2297.0 1
1188.1509 244.1406 2343.0 1
1204.2845 242.47339 2327.0 1
1212.6935 239.3474 2297.0 1
1236.6282 239.3474 2297.0 1
1196.5216 216.81938 2312.0 1
1212.6935 215.41267 2297.0 1
1236.6282 215.41267 2297.0 1
1188.1509 195.31247 2343.0 1
1204.2845 193.9787 2327.0 1
1212.6935 191.4779 2297.0 1
1228.0144 190.14415 2281.0 1
1180.1274 173.30545 2376.0 1
1204.8855 173.30545 2376.0 1
1220.8453 172.06548 2359.0 1
1220.6128 168.63728 2312.0 1
1236.6282 167.54318 2297.0 1
1142.5876 160.67638 2570.0 1
1135.6967 156.0499 2496.0 1
1161.705 156.0499 2496.0 1
1170.5829 153.79918 2460.0 1
1187.9495 152.73633 2443.0 1
1204.9618 151.6735 2426.0 1
1204.8855 148.5475 2376.0 1
1204.2845 145.48401 2327.0 1
1220.6128 144.54622 2312.0 1
1236.6282 143.60841 2297.0 1
1072.9266 131.91719 2532.0 1
1107.5592 132.9071 2551.0 1
1117.6908 130.9794 2514.0 1
1135.6967 130.0416 2496.0 1
1137.0374 127.2803 2443.0 1
1162.4934 127.2803 2443.0 1
1171.4164 125.508896 2409.0 1
1188.0745 124.6232 2392.0 1
1204.8855 123.7896 2376.0 1
1220.8453 122.9039 2359.0 1
1236.9791 122.0703 2343.0 1
1252.7792 121.236694 2327.0 1
1070.1027 107.909546 2589.0 1
1080.9778 106.32571 2551.0 1
1091.495 104.78355 2514.0 1
1109.6882 104.0333 2496.0 1
1119.3164 102.53282 2460.0 1
1137.0374 101.824265 2443.0 1
1162.4934 101.824265 2443.0 1
1163.1499 99.698586 2392.0 1
1180.1274 99.0317 2376.0 1
1196.2646 98.32314 2359.0 1
1212.565 97.656265 2343.0 1
1236.9791 97.656265 2343.0 1
1270.007 98.32314 2359.0 1
1062.2495 80.33819 2570.0 1
1072.9266 79.15031 2532.0 1
1083.6799 78.02495 2496.0 1
1101.6857 77.462265 2478.0 1
1119.3164 76.89959 2460.0 1
1137.0374 76.368164 2443.0 1
1146.3147 75.30533 2409.0 1
1155.3696 74.27375 2376.0 1
1171.6837 73.742325 2359.0 1
1188.1509 73.242165 2343.0 1
1204.2845 72.742004 2327.0 1
1212.6935 71.80421 2297.0 1
1236.6282 71.80421 2297.0 1
1043.1254 53.954773 2589.0 1
1054.3962 53.162853 2551.0 1
1057.6718 52.01665 2496.0 1
1091.495 52.391773 2514.0 1
1101.6857 51.641533 2478.0 1
1119.3164 51.26641 2460.0 1
1137.0374 50.912132 2443.0 1
1138.2252 49.849293 2392.0 1
1155.3696 49.51585 2376.0 1
1163.7368 48.828133 2343.0 1
1180.0372 48.49469 2327.0 1
1196.5216 48.18209 2312.0 1
1212.6935 47.86949 2297.0 1
1228.0144 47.53605 2281.0 1
1051.1835 27.185753 2609.0 1
1062.2495 26.779373 2570.0 1
1057.6718 26.008295 2496.0 1
1083.6799 26.008295 2496.0 1
1101.6857 25.820734 2478.0 1
1111.5813 25.456036 2443.0 1
1129.125 25.278896 2426.0 1
1130.6117 24.757896 2376.0 1
1147.103 24.580755 2359.0 1
1163.7368 24.414036 2343.0 1
1172.4307 24.091017 2312.0 1
1188.7587 23.934717 2297.0 1
1204.2463 23.767998 2281.0 1
1212.4017 23.465816 2252.0 1
1031.8474 0.0 2629.0 1
1051.1835 0.0 2609.0 1
1062.2495 0.0 2570.0 1
1065.2992 0.0 2514.0 1
1083.6799 0.0 2496.0 1
1101.6857 0.0 2478.0 1
1111.5813 0.0 2443.0 1
1129.125 0.0 2426.0 1
1130.6117 0.0 2376.0 1
1147.103 0.0 2359.0 1
1155.7898 0.0 2327.0 1
1172.4307 0.0 2312.0 1
1188.7587 0.0 2297.0 1
1188.9359 0.0 2252.0 1
1204.3262 0.0 2237.0 1
1039.6971 -27.602552 2649.0 1
1059.2417 -27.394154 2629.0 1
1062.2495 -26.779373 2570.0 1
1065.2992 -26.195854 2514.0 1
1083.6799 -26.008295 2496.0 1
1101.6857 -25.820734 2478.0 1
1111.5813 -25.456036 2443.0 1
1129.125 -25.278896 2426.0 1
1130.6117 -24.757896 2376.0 1
1147.103 -24.580755 2359.0 1
1148.3395 -24.091017 2312.0 1
1164.824 -23.934717 2297.0 1
1180.4783 -23.767998 2281.0 1
1188.9359 -23.465816 2252.0 1
1204.3262 -23.309517 2237.0 1
1027.7593 -56.059544 2690.0 1
1031.8474 -54.788307 2629.0 1
1059.2417 -54.788307 2629.0 1
1078.3693 -54.371506 2609.0 1
1065.2992 -52.39171 2514.0 1
1091.495 -52.39171 2514.0 1
1101.6857 -51.641468 2478.0 1
1111.5813 -50.91207 2443.0 1
1121.2128 -50.20351 2409.0 1
1130.6117 -49.515793 2376.0 1
1131.5425 -48.494633 2327.0 1
1148.3395 -48.182034 2312.0 1
1164.824 -47.869434 2297.0 1
1172.7153 -47.223392 2266.0 1
1188.9359 -46.931633 2252.0 1
1204.3262 -46.619034 2237.0 1
1019.7359 -83.43299 2669.0 1
1039.6971 -82.80779 2649.0 1
1059.2417 -82.182594 2629.0 1
1078.3693 -81.55739 2609.0 1
1057.6718 -78.02501 2496.0 1
1091.495 -78.58769 2514.0 1
1093.6831 -76.89965 2460.0 1
1103.8462 -75.83681 2426.0 1
1129.125 -75.83681 2426.0 1
1130.6117 -74.2738 2376.0 1
1139.3228 -73.242226 2343.0 1
1155.7898 -72.742065 2327.0 1
1164.824 -71.80427 2297.0 1
1172.7153 -70.835205 2266.0 1
1188.9359 -70.39756 2252.0 1
1204.3262 -69.928665 2237.0 1
1012.0946 -110.41035 2649.0 1
1031.8474 -109.576744 2629.0 1
1067.2998 -110.41035 2649.0 1
1078.3693 -108.74314 2609.0 1
1065.2992 -104.78355 2514.0 1
1083.6799 -104.0333 2496.0 1
1093.6831 -102.53282 2460.0 1
1103.8462 -101.1157 2426.0 1
1121.2128 -100.40714 2409.0 1
1138.2252 -99.698586 2392.0 1
1147.103 -98.32314 2359.0 1
1155.7898 -96.98938 2327.0 1
1164.824 -95.73898 2297.0 1
1172.7153 -94.4469 2266.0 1
1188.9359 -93.86338 2252.0 1
1204.3262 -93.23818 2237.0 1
1007.5342 -141.2431 2711.0 1
1027.7593 -140.149 2690.0 1
1039.6971 -138.0129 2649.0 1
1067.2998 -138.0129 2649.0 1
1062.2495 -133.897 2570.0 1
1072.9266 -131.91719 2532.0 1
1091.495 -130.9794 2514.0 1
1093.6831 -128.166 2460.0 1
1103.8462 -126.3946 2426.0 1
1121.2128 -125.508896 2409.0 1
1122.5223 -122.9039 2359.0 1
1139.3228 -122.0703 2343.0 1
1155.7898 -121.236694 2327.0 1
1164.824 -119.6737 2297.0 1
1180.4783 -118.840096 2281.0 1
1188.9359 -117.3292 2252.0 1
1204.3262 -116.5477 2237.0 1
1015.7104 -170.86713 2733.0 1
1027.7593 -168.17877 2690.0 1
1039.6971 -165.61545 2649.0 1
1067.2998 -165.61545 2649.0 1
1062.2495 -160.67638 2570.0 1
1065.2992 -157.17525 2514.0 1
1091.495 -157.17525 2514.0 1
1101.6857 -154.92453 2478.0 1
1111.5813 -152.73633 2443.0 1
1121.2128 -150.61066 2409.0 1
1130.6117 -148.5475 2376.0 1
1147.103 -147.48465 2359.0 1
1163.7368 -146.48433 2343.0 1
1172.4307 -144.54622 2312.0 1
1188.7587 -143.60841 2297.0 1
1188.9359 -140.79501 2252.0 1
1204.3262 -139.85721 2237.0 1
1007.5342 -197.74028 2711.0 1
1027.7593 -196.20854 2690.0 1
1047.5469 -194.6768 2669.0 1
1067.2998 -193.218 2649.0 1
1062.2495 -187.45575 2570.0 1
1080.9778 -186.06989 2551.0 1
1091.495 -183.37111 2514.0 1
1101.6857 -180.74527 2478.0 1
1111.5813 -178.19237 2443.0 1
1129.125 -176.9524 2426.0 1
1130.6117 -173.30539 2376.0 1
1147.103 -172.06541 2359.0 1
1171.6837 -172.06541 2359.0 1
1180.0372 -169.73132 2327.0 1
1188.7587 -167.54314 2297.0 1
1188.9359 -164.26083 2252.0 1
1204.3262 -163.16673 2237.0 1
1015.7104 -227.82294 2733.0 1
1035.7827 -225.98901 2711.0 1
1064.0312 -225.98901 2711.0 1
1075.3579 -222.48788 2669.0 1
1062.2495 -214.23524 2570.0 1
1080.9778 -212.65141 2551.0 1
1091.495 -209.5671 2514.0 1
1093.6831 -205.06564 2460.0 1
1111.5813 -203.64853 2443.0 1
1129.125 -202.2314 2426.0 1
1146.3147 -200.81429 2409.0 1
1155.3696 -198.0634 2376.0 1
1171.6837 -196.64629 2359.0 1
1188.1509 -195.31253 2343.0 1
1204.2845 -193.97876 2327.0 1
1188.9359 -187.72676 2252.0 1
1204.3262 -186.47636 2237.0 1
1023.51495 -258.27014 2754.0 1
1035.7827 -254.23761 2711.0 1
1064.0312 -254.23761 2711.0 1
1083.819 -252.26822 2690.0 1
1070.1027 -242.79645 2589.0 1
1072.9266 -237.45097 2532.0 1
1083.6799 -234.0749 2496.0 1
1093.6831 -230.69882 2460.0 1
1111.5813 -229.10455 2443.0 1
1129.125 -227.5103 2426.0 1
1146.3147 -225.91605 2409.0 1
1155.3696 -222.8213 2376.0 1
1180.1274 -222.8213 2376.0 1
1188.1509 -219.72656 2343.0 1
1196.5216 -216.81938 2312.0 1
1188.9359 -211.19258 2252.0 1
1204.3262 -209.78587 2237.0 1
1015.7104 -284.7786 2733.0 1
1044.1882 -284.7786 2733.0 1
1072.666 -284.7786 2733.0 1
1059.2417 -273.9418 2629.0 1
1070.1027 -269.7738 2589.0 1
1072.9266 -263.83438 2532.0 1
1091.495 -261.9588 2514.0 1
1101.6857 -258.20758 2478.0 1
1111.5813 -254.5606 2443.0 1
1129.125 -252.7892 2426.0 1
1138.2252 -249.2464 2392.0 1
1171.4164 -251.01779 2409.0 1
1180.1274 -247.5792 2376.0 1
1196.2646 -245.8078 2359.0 1
1220.8453 -245.8078 2359.0 1
1196.3271 -236.1172 2266.0 1
1212.4017 -234.6584 2252.0 1
1032.0629 -318.2997 2777.0 1
1060.9991 -318.2997 2777.0 1
1089.9354 -318.2997 2777.0 1
1051.1835 -299.04355 2609.0 1
1062.2495 -294.57336 2570.0 1
1080.9778 -292.3956 2551.0 1
1099.3099 -290.2178 2532.0 1
1109.6882 -286.0915 2496.0 1
1111.5813 -280.01663 2443.0 1
1129.125 -278.06808 2426.0 1
1146.3147 -276.11954 2409.0 1
1163.1499 -274.17102 2392.0 1
1180.1274 -272.3371 2376.0 1
1196.2646 -270.38855 2359.0 1
1220.8453 -270.38855 2359.0 1
1196.3271 -259.72888 2266.0 1
1204.3262 -256.4049 2237.0 1
1003.1264 -347.23602 2777.0 1
1040.2391 -349.9869 2799.0 1
1060.9991 -347.23602 2777.0 1
1072.666 -341.73425 2733.0 1
1059.2417 -328.7301 2629.0 1
1062.2495 -321.35275 2570.0 1
1080.9778 -318.977 2551.0 1
1107.5592 -318.977 2551.0 1
1117.6908 -314.3505 2514.0 1
1119.3164 -307.59836 2460.0 1
1129.125 -303.347 2426.0 1
1146.3147 -301.2213 2409.0 1
1155.3696 -297.095 2376.0 1
1180.1274 -297.095 2376.0 1
1196.2646 -294.9693 2359.0 1
1220.8453 -294.9693 2359.0 1
1188.9359 -281.59003 2252.0 1
1204.3262 -279.71442 2237.0 1
1019.3816 -382.26816 2822.0 1
1048.787 -382.26816 2822.0 1
1069.4045 -379.1526 2799.0 1
1089.9354 -376.17245 2777.0 1
1059.2417 -356.1244 2629.0 1
1062.2495 -348.13223 2570.0 1
1080.9778 -345.5585 2551.0 1
1091.495 -340.54648 2514.0 1
1109.6882 -338.10822 2496.0 1
1119.3164 -333.23163 2460.0 1
1129.125 -328.626 2426.0 1
1146.3147 -326.32318 2409.0 1
1155.3696 -321.853 2376.0 1
1180.1274 -321.853 2376.0 1
1196.2646 -319.55017 2359.0 1
1220.8453 -319.55017 2359.0 1
1204.2463 -308.9843 2281.0 1
1204.3262 -303.02405 2237.0 1
1027.6898 -415.02863 2845.0 1
1048.787 -411.67337 2822.0 1
1078.1921 -411.67337 2822.0 1
1051.1835 -380.60095 2609.0 1
1062.2495 -374.91162 2570.0 1
1080.9778 -372.1399 2551.0 1
1091.495 -366.74234 2514.0 1
1109.6882 -364.1165 2496.0 1
1119.3164 -358.8648 2460.0 1
1129.125 -353.9049 2426.0 1
1146.3147 -351.42493 2409.0 1
1163.1499 -348.94498 2392.0 1
1180.1274 -346.6109 2376.0 1
1204.8855 -346.6109 2376.0 1
1220.8453 -344.13095 2359.0 1
1212.6935 -335.08636 2297.0 1
1204.3262 -326.3336 2237.0 1
1027.6898 -444.6735 2845.0 1
1048.787 -441.07858 2822.0 1
1078.1921 -441.07858 2822.0 1
1107.5973 -441.07858 2822.0 1
1051.1835 -407.78668 2609.0 1
1054.3962 -398.72128 2551.0 1
1065.2992 -392.9382 2514.0 1
1091.495 -392.9382 2514.0 1
1093.6831 -384.498 2460.0 1
1111.5813 -381.84088 2443.0 1
1129.125 -379.1838 2426.0 1
1154.404 -379.1838 2426.0 1
1171.4164 -376.5267 2409.0 1
1180.1274 -371.3688 2376.0 1
1196.2646 -368.7117 2359.0 1
1220.8453 -368.7117 2359.0 1
1228.532 -363.71008 2327.0 1
1212.4017 -351.98758 2252.0 1
1023.30304 -486.3222 2917.0 1
1036.3593 -478.31964 2869.0 1
1057.3348 -474.31836 2845.0 1
1069.4045 -466.64923 2799.0 1
1098.5701 -466.64923 2799.0 1
1051.1835 -434.97244 2609.0 1
1054.3962 -425.30267 2551.0 1
1065.2992 -419.13403 2514.0 1
1091.495 -419.13403 2514.0 1
1093.6831 -410.13116 2460.0 1
1111.5813 -407.29694 2443.0 1
1137.0374 -407.29694 2443.0 1
1146.3147 -401.62845 2409.0 1
1163.1499 -398.79422 2392.0 1
1180.1274 -396.12668 2376.0 1
1204.8855 -396.12668 2376.0 1
1229.6433 -396.12668 2376.0 1
1254.4014 -396.12668 2376.0 1
1236.6282 -382.9558 2297.0 1
1014.8837 -512.46594 2893.0 1
1036.3593 -508.2146 2869.0 1
1057.3348 -503.96323 2845.0 1
1078.1921 -499.889 2822.0 1
1067.2998 -469.2438 2649.0 1
1062.2495 -455.24973 2570.0 1
1065.2992 -445.3299 2514.0 1
1091.495 -445.3299 2514.0 1
1101.6857 -438.95285 2478.0 1
1111.5813 -432.75296 2443.0 1
1129.125 -429.74158 2426.0 1
1146.3147 -426.7302 2409.0 1
1163.1499 -423.7188 2392.0 1
1188.0745 -423.7188 2392.0 1
1204.8855 -420.88458 2376.0 1
1220.8453 -417.8732 2359.0 1
1254.4014 -420.88458 2376.0 1
1023.30304 -547.11255 2917.0 1
1027.6898 -533.6083 2845.0 1
1048.787 -529.2944 2822.0 1
1078.3693 -489.3441 2609.0 1
1072.9266 -474.90195 2532.0 1
1083.6799 -468.1498 2496.0 1
1109.6882 -468.1498 2496.0 1
1119.3164 -461.39764 2460.0 1
1129.125 -455.0206 2426.0 1
1154.404 -455.0206 2426.0 1
1179.6829 -455.0206 2426.0 1
1188.0745 -448.64355 2392.0 1
1204.8855 -445.6426 2376.0 1
1237.9237 -448.64355 2392.0 1
1262.8485 -448.64355 2392.0 1
1287.7731 -448.64355 2392.0 1
1040.2391 -554.14606 2799.0 1
1094.9023 -524.44904 2649.0 1
1080.9778 -505.047 2551.0 1
1091.495 -497.72174 2514.0 1
1109.6882 -494.15808 2496.0 1
1111.5813 -483.66516 2443.0 1
1137.0374 -483.66516 2443.0 1
1154.404 -480.2995 2426.0 1
1179.6829 -480.2995 2426.0 1
1188.0745 -473.56818 2392.0 1
1212.9991 -473.56818 2392.0 1
1246.7217 -476.93384 2409.0 1
1262.8485 -473.56818 2392.0 1
1315.2297 -483.66516 2443.0 1
1147.8081 -578.7268 2777.0 1
1089.0289 -535.588 2570.0 1
1099.3099 -527.66876 2532.0 1
1109.6882 -520.1664 2496.0 1
1119.3164 -512.664 2460.0 1
1137.0374 -509.1212 2443.0 1
1154.404 -505.5784 2426.0 1
1179.6829 -505.5784 2426.0 1
1188.0745 -498.4928 2392.0 1
1212.9991 -498.4928 2392.0 1
1246.7217 -502.03558 2409.0 1
1280.7987 -505.5784 2426.0 1
1343.7632 -520.1664 2496.0 1
1147.8081 -607.6631 2777.0 1
1139.8785 -588.62573 2690.0 1
1107.5592 -558.2098 2551.0 1
1109.6882 -546.1747 2496.0 1
1119.3164 -538.2972 2460.0 1
1137.0374 -534.5772 2443.0 1
1154.404 -530.8573 2426.0 1
1171.4164 -527.1373 2409.0 1
1196.5181 -527.1373 2409.0 1
1221.62 -527.1373 2409.0 1
1237.9237 -523.4174 2392.0 1
1271.8236 -527.1373 2409.0 1
1148.7772 -621.4696 2711.0 1
1150.1074 -607.2567 2649.0 1
1117.6908 -576.3093 2514.0 1
1135.6967 -572.183 2496.0 1
1137.0374 -560.03326 2443.0 1
1154.404 -556.13617 2426.0 1
1171.4164 -552.2391 2409.0 1
1180.1274 -544.6742 2376.0 1
1230.2407 -556.13617 2426.0 1
1246.7217 -552.2391 2409.0 1
1271.8236 -552.2391 2409.0 1
1166.9984 -660.0237 2754.0 1
1150.1074 -634.8594 2649.0 1
1125.6934 -606.81915 2532.0 1
1143.8867 -602.50525 2514.0 1
1144.9496 -589.56366 2460.0 1
1162.4934 -585.48944 2443.0 1
1179.6829 -581.4152 2426.0 1
1204.9618 -581.4152 2426.0 1
1221.62 -577.341 2409.0 1
1255.5197 -581.4152 2426.0 1
1280.7987 -581.4152 2426.0 1
1195.8131 -705.72577 2822.0 1
1177.0258 -677.9669 2711.0 1
1134.1405 -637.9541 2551.0 1
1143.8867 -628.7011 2514.0 1
1153.3273 -619.69824 2478.0 1
1170.5829 -615.19684 2460.0 1
1187.9495 -610.94543 2443.0 1
1204.9618 -606.6941 2426.0 1
1230.2407 -606.6941 2426.0 1
1255.5197 -606.6941 2426.0 1
1280.7987 -606.6941 2426.0 1
1205.5593 -741.1225 2845.0 1
1205.6808 -723.4085 2777.0 1
1142.5876 -669.485 2570.0 1
1143.8867 -654.897 2514.0 1
1161.705 -650.208 2496.0 1
1170.5829 -640.83 2460.0 1
1187.9495 -636.4015 2443.0 1
1213.4054 -636.4015 2443.0 1
1238.8616 -636.4015 2443.0 1
1273.1156 -640.83 2460.0 1
1298.7489 -640.83 2460.0 1
1195.754 -783.77155 2893.0 1
1215.7292 -777.2694 2869.0 1
1205.6808 -752.3448 2777.0 1
1142.5876 -696.26434 2570.0 1
1143.8867 -681.09283 2514.0 1
1161.705 -676.2163 2496.0 1
1179.1481 -671.3397 2478.0 1
1187.9495 -661.85754 2443.0 1
1213.4054 -661.85754 2443.0 1
1238.8616 -661.85754 2443.0 1
1273.1156 -666.46313 2460.0 1
1205.6738 -820.6687 2917.0 1
1225.8992 -813.91656 2893.0 1
1205.6808 -781.2811 2777.0 1
1142.5876 -723.04376 2570.0 1
1152.0769 -712.35284 2532.0 1
1161.705 -702.22455 2496.0 1
1179.1481 -697.16046 2478.0 1
1204.9688 -697.16046 2478.0 1
1221.8491 -692.0963 2460.0 1
1247.4824 -692.0963 2460.0 1
1282.431 -697.16046 2478.0 1
1205.6738 -851.06396 2917.0 1
1205.5593 -830.05725 2845.0 1
1141.4242 -767.03705 2629.0 1
1151.0348 -755.3667 2589.0 1
1143.8867 -733.4847 2514.0 1
1161.705 -728.233 2496.0 1
1187.7134 -728.233 2496.0 1
1204.9688 -722.9813 2478.0 1
1230.7894 -722.9813 2478.0 1
1256.6104 -722.9813 2478.0 1
1205.6738 -881.45905 2917.0 1
1215.7292 -866.9544 2869.0 1
1141.4242 -794.4312 2629.0 1
1151.0348 -782.34406 2589.0 1
1152.0769 -765.11975 2532.0 1
1161.705 -754.2413 2496.0 1
1187.7134 -754.2413 2496.0 1
1204.9688 -748.80206 2478.0 1
1230.7894 -748.80206 2478.0 1
1256.6104 -748.80206 2478.0 1
1205.6738 -911.8542 2917.0 1
1215.7292 -896.84937 2869.0 1
1132.7408 -815.57336 2609.0 1
1151.0348 -809.3214 2589.0 1
1152.0769 -791.5032 2532.0 1
1170.0826 -785.8764 2514.0 1
1187.7134 -780.2496 2496.0 1
1213.7216 -780.2496 2496.0 1
1239.7299 -780.2496 2496.0 1
1265.7383 -780.2496 2496.0 1
1205.6738 -942.24927 2917.0 1
1205.5593 -918.9919 2845.0 1
1124.0575 -836.29877 2589.0 1
1142.5876 -830.1614 2570.0 1
1152.0769 -817.8866 2532.0 1
1170.0826 -812.07227 2514.0 1
1196.2786 -812.07227 2514.0 1
1213.7216 -806.2579 2496.0 1
1248.6702 -812.07227 2514.0 1
1216.3752 -1006.6553 3019.0 1
1205.6738 -972.6444 2917.0 1
1105.555 -869.9449 2609.0 1
1115.8083 -856.94073 2570.0 1
1142.5876 -856.94073 2570.0 1
1152.0769 -844.27 2532.0 1
1170.0826 -838.26807 2514.0 1
1187.7134 -832.2662 2496.0 1
1213.7216 -832.2662 2496.0 1
1248.6702 -838.26807 2514.0 1
1035.4701 -883.7202 2570.0 1
1062.2495 -883.7202 2570.0 1
1089.0289 -883.7202 2570.0 1
1115.8083 -883.7202 2570.0 1
1134.1405 -877.1869 2551.0 1
1152.0769 -870.65356 2532.0 1
1170.0826 -864.46405 2514.0 1
1196.2786 -864.46405 2514.0 1
1222.4744 -864.46405 2514.0 1
1267.0476 -877.1869 2551.0 1
1062.2495 -910.49963 2570.0 1
1080.9778 -903.7683 2551.0 1
1099.3099 -897.037 2532.0 1
1125.6934 -897.037 2532.0 1
1143.8867 -890.6599 2514.0 1
1170.0826 -890.6599 2514.0 1
1204.8438 -897.037 2532.0 1
1240.4662 -903.7683 2551.0 1
1043.1254 -944.2083 2589.0 1
1054.3962 -930.3497 2551.0 1
1072.9266 -923.4204 2532.0 1
1099.3099 -923.4204 2532.0 1
1117.6908 -916.8558 2514.0 1
1152.0769 -923.4204 2532.0 1
1170.0826 -916.8558 2514.0 1
1204.8438 -923.4204 2532.0 1
1016.1479 -971.1856 2589.0 1
1027.815 -956.9311 2551.0 1
1054.3962 -956.9311 2551.0 1
1072.9266 -949.8038 2532.0 1
1091.495 -943.05164 2514.0 1
1125.6934 -949.8038 2532.0 1
1152.0769 -949.8038 2532.0 1
1178.4602 -949.8038 2532.0 1
996.8119 -1005.8738 2609.0 1
1008.6907 -990.8377 2570.0 1
1027.815 -983.51245 2551.0 1
1046.5431 -976.1872 2532.0 1
1065.2992 -969.2475 2514.0 1
1091.495 -969.2475 2514.0 1
1117.6908 -969.2475 2514.0 1
1143.8867 -969.2475 2514.0 1
955.13196 -1017.61725 2570.0 1
989.1706 -1025.1405 2589.0 1
1001.2334 -1010.094 2551.0 1
1027.815 -1010.094 2551.0 1
1039.1031 -995.4435 2514.0 1
1057.6718 -988.31616 2496.0 1
1091.495 -995.4435 2514.0 1
1117.6908 -995.4435 2514.0 1
949.66486 -1068.373 2629.0 1
962.1933 -1052.1178 2589.0 1
974.65204 -1036.6754 2551.0 1
1001.2334 -1036.6754 2551.0 1
1027.815 -1036.6754 2551.0 1
1046.5431 -1028.9542 2532.0 1
1057.6718 -1014.32446 2496.0 1
1091.495 -1021.63934 2514.0 1
