ply
format ascii 1.0
comment : created from Kinect user tracker
element vertex 1076
property float x
property float y
property float z
property int userId
end_header
110.8688 182.9335 1596.0 1
126.30077 181.2142 1581.0 1
94.23852 166.30319 1596.0 1
109.34053 164.0108 1574.0 1
124.62315 162.552 1560.0 1
142.14272 164.0108 1574.0 1
159.24884 164.7402 1581.0 1
76.53835 147.60973 1574.0 1
92.52617 146.95328 1567.0 1
107.39546 144.98389 1546.0 1
122.94553 144.32744 1539.0 1
138.34984 143.67097 1532.0 1
157.13358 146.29681 1560.0 1
174.16687 146.95328 1567.0 1
190.49496 146.95328 1567.0 1
59.60242 130.0416 1560.0 1
74.83642 128.29103 1539.0 1
90.45953 127.70751 1532.0 1
105.51987 126.62383 1519.0 1
121.3478 126.62383 1519.0 1
136.5437 126.04031 1512.0 1
153.60814 127.12399 1525.0 1
170.27673 127.70751 1532.0 1
187.94206 128.87456 1546.0 1
206.82306 130.6251 1567.0 1
221.15756 129.45807 1553.0 1
58.80008 112.25467 1539.0 1
73.863884 110.79587 1519.0 1
89.278595 110.285286 1512.0 1
104.6168 109.84765 1506.0 1
119.190865 108.826485 1492.0 1
134.73756 108.826485 1492.0 1
151.69434 109.84765 1506.0 1
168.0538 110.285286 1512.0 1
184.65976 110.79587 1519.0 1
203.12744 112.25467 1539.0 1
223.15126 114.29699 1567.0 1
239.47935 114.29699 1567.0 1
27.335133 98.40646 1574.0 1
42.958145 96.6559 1546.0 1
58.265186 95.34298 1525.0 1
73.5235 94.53022 1512.0 1
89.278595 94.53022 1512.0 1
103.22746 92.9047 1486.0 1
119.190865 93.27982 1492.0 1
134.73756 93.27982 1492.0 1
150.28416 93.27982 1492.0 1
166.60889 93.71746 1499.0 1
183.07939 94.155106 1506.0 1
200.4877 94.967865 1519.0 1
222.15442 97.53118 1560.0 1
239.47935 97.96883 1567.0 1
27.335133 82.0054 1574.0 1
42.763638 80.1819 1539.0 1
57.768497 78.7752 1512.0 1
73.231735 78.4626 1506.0 1
87.743385 77.4206 1486.0 1
102.81066 77.108 1480.0 1
119.190865 77.7332 1492.0 1
134.73756 77.7332 1492.0 1
150.28416 77.7332 1492.0 1
166.60889 78.0979 1499.0 1
183.07939 78.4626 1506.0 1
200.4877 79.1399 1519.0 1
216.31575 79.1399 1519.0 1
236.27 80.5466 1546.0 1
255.80756 81.6407 1567.0 1
-5.647661 67.7717 1626.0 1
11.191122 67.14649 1611.0 1
26.970432 64.72906 1553.0 1
42.374626 63.562016 1525.0 1
57.768497 63.020172 1512.0 1
73.5235 63.020172 1512.0 1
88.92432 62.770092 1506.0 1
105.0336 63.020172 1512.0 1
119.75007 62.478333 1499.0 1
134.73756 62.186573 1492.0 1
150.98926 62.478333 1499.0 1
166.60889 62.478333 1499.0 1
183.07939 62.770092 1506.0 1
196.92406 62.186573 1492.0 1
214.46446 62.770092 1506.0 1
231.0739 63.020172 1512.0 1
251.23665 64.14553 1539.0 1
-5.543461 49.89095 1596.0 1
10.982721 49.42205 1581.0 1
26.970432 48.546772 1553.0 1
42.569134 47.890312 1532.0 1
58.035946 47.483932 1519.0 1
73.863884 47.483932 1519.0 1
89.691925 47.483932 1519.0 1
105.51987 47.483932 1519.0 1
120.30928 47.077553 1506.0 1
135.3697 46.85873 1499.0 1
150.98926 46.85873 1499.0 1
167.38692 47.077553 1506.0 1
183.80879 47.26511 1512.0 1
201.27962 47.67149 1525.0 1
215.3189 47.26511 1512.0 1
228.01736 46.63991 1492.0 1
10.934094 32.802166 1574.0 1
26.848866 32.218647 1546.0 1
43.152653 32.36453 1553.0 1
58.80008 32.072765 1539.0 1
74.83642 32.072765 1539.0 1
90.872856 32.072765 1539.0 1
105.51987 31.655968 1519.0 1
120.7886 31.510086 1512.0 1
136.5437 31.510086 1512.0 1
151.69434 31.385046 1506.0 1
167.38692 31.385046 1506.0 1
183.80879 31.510086 1512.0 1
203.12744 32.072765 1539.0 1
216.31575 31.655968 1519.0 1
11.038295 16.557364 1589.0 1
27.092 16.255184 1560.0 1
43.347157 16.255184 1560.0 1
58.80008 16.036364 1539.0 1
74.83642 16.036364 1539.0 1
91.28619 16.109304 1546.0 1
105.51987 15.827965 1519.0 1
120.7886 15.755025 1512.0 1
136.5437 15.755025 1512.0 1
152.29869 15.755025 1512.0 1
168.83182 15.827965 1519.0 1
184.65976 15.827965 1519.0 1
204.97525 16.182243 1553.0 1
-5.647661 0.0 1626.0 1
11.086922 0.0 1596.0 1
27.335133 0.0 1574.0 1
42.958145 0.0 1546.0 1
58.80008 0.0 1539.0 1
75.1768 0.0 1546.0 1
91.28619 0.0 1546.0 1
106.909195 0.0 1539.0 1
122.38633 0.0 1532.0 1
138.34984 0.0 1532.0 1
153.60814 0.0 1525.0 1
169.4987 0.0 1525.0 1
185.38916 0.0 1525.0 1
207.74696 0.0 1574.0 1
-5.6198745 -16.859543 1618.0 1
11.191122 -16.786604 1611.0 1
27.838766 -16.703243 1603.0 1
42.958145 -16.109304 1546.0 1
59.869865 -16.328125 1567.0 1
76.19797 -16.328125 1567.0 1
91.28619 -16.109304 1546.0 1
106.909195 -16.036364 1539.0 1
122.94553 -16.036364 1539.0 1
138.98198 -16.036364 1539.0 1
155.01831 -16.036364 1539.0 1
169.4987 -15.890485 1525.0 1
186.24013 -15.963425 1532.0 1
205.89915 -16.255184 1560.0 1
11.399524 -34.198406 1641.0 1
28.2382 -33.885807 1626.0 1
45.40337 -34.05253 1634.0 1
62.69716 -34.198406 1641.0 1
76.87874 -32.94801 1581.0 1
92.11284 -32.51037 1560.0 1
107.88173 -32.364487 1553.0 1
122.94553 -32.072727 1539.0 1
138.98198 -32.072727 1539.0 1
155.01831 -32.072727 1539.0 1
170.27673 -31.92685 1532.0 1
185.38916 -31.78097 1525.0 1
241.9315 -38.199684 1833.0 1
259.7498 -38.012123 1824.0 1
278.7558 -38.012123 1824.0 1
11.795485 -53.079514 1698.0 1
29.4886 -53.079514 1698.0 1
46.48705 -52.29801 1673.0 1
63.61412 -52.04793 1665.0 1
79.45595 -51.078873 1634.0 1
92.93949 -49.20327 1574.0 1
108.85426 -48.98445 1567.0 1
124.06395 -48.54681 1553.0 1
139.61412 -48.32799 1546.0 1
155.7234 -48.32799 1546.0 1
171.83278 -48.32799 1546.0 1
186.24013 -47.89035 1532.0 1
238.1039 -56.393074 1804.0 1
256.90164 -56.393074 1804.0 1
277.22754 -56.705673 1814.0 1
-5.9567895 -71.48122 1715.0 1
11.739911 -70.43922 1690.0 1
29.349667 -70.43922 1690.0 1
46.95942 -70.43922 1690.0 1
63.61412 -69.39722 1665.0 1
80.57436 -69.063774 1657.0 1
95.12422 -67.14649 1611.0 1
109.34053 -65.60433 1574.0 1
125.182365 -65.31258 1567.0 1
140.24628 -64.72906 1553.0 1
157.13358 -65.02081 1560.0 1
174.16687 -65.31258 1567.0 1
190.49496 -65.31258 1567.0 1
235.72813 -74.4405 1786.0 1
256.90164 -75.190735 1804.0 1
275.69928 -75.190735 1804.0 1
297.76196 -76.02434 1824.0 1
-41.697353 -89.3515 1715.0 1
-23.47971 -88.048996 1690.0 1
-5.8386955 -87.5801 1681.0 1
11.739911 -88.048996 1690.0 1
29.349667 -88.048996 1690.0 1
46.709343 -87.5801 1681.0 1
63.919773 -87.1633 1673.0 1
80.57436 -86.3297 1657.0 1
96.89562 -85.4961 1641.0 1
111.9108 -83.9331 1611.0 1
125.74157 -82.0054 1574.0 1
142.14272 -82.0054 1574.0 1
158.54375 -82.0054 1574.0 1
174.94489 -82.0054 1574.0 1
213.83577 -91.6439 1759.0 1
234.54025 -92.581696 1777.0 1
254.33833 -93.0506 1786.0 1
275.69928 -93.988396 1804.0 1
297.76196 -95.030396 1824.0 1
-58.699333 -105.65878 1690.0 1
-41.08952 -105.65878 1690.0 1
-23.354671 -105.0961 1681.0 1
-5.8386955 -105.0961 1681.0 1
11.677391 -105.0961 1681.0 1
29.054432 -104.59594 1673.0 1
46.48705 -104.59594 1673.0 1
63.919773 -104.59594 1673.0 1
81.35239 -104.59594 1673.0 1
97.84037 -103.59562 1657.0 1
115.10626 -103.59562 1657.0 1
133.01126 -104.09578 1665.0 1
142.14272 -98.40646 1574.0 1
159.24884 -98.8441 1581.0 1
192.50607 -108.28462 1732.0 1
211.64757 -108.8473 1741.0 1
233.35237 -110.53534 1768.0 1
254.33833 -111.6607 1786.0 1
275.69928 -112.78606 1804.0 1
299.23117 -114.59914 1833.0 1
-75.18031 -121.44507 1665.0 1
-57.830997 -121.44507 1665.0 1
-40.28718 -120.86154 1657.0 1
-23.02123 -120.86154 1657.0 1
-5.7553353 -120.86154 1657.0 1
11.566244 -121.44507 1665.0 1
28.915499 -121.44507 1665.0 1
46.264755 -121.44507 1665.0 1
63.919773 -122.02859 1673.0 1
81.35239 -122.02859 1673.0 1
98.312744 -121.44507 1665.0 1
116.21773 -122.02859 1673.0 1
134.28944 -122.61211 1681.0 1
152.61829 -123.26856 1690.0 1
171.83966 -124.4356 1706.0 1
191.50575 -125.67558 1723.0 1
210.55347 -126.33205 1732.0 1
232.16449 -128.30142 1759.0 1
253.05667 -129.61435 1777.0 1
274.32385 -130.92726 1795.0 1
299.23117 -133.69897 1833.0 1
-92.974205 -139.4613 1673.0 1
-74.819084 -138.12755 1657.0 1
-57.275265 -137.46066 1649.0 1
-40.092674 -137.46066 1649.0 1
-22.910084 -137.46066 1649.0 1
-5.7275486 -137.46066 1649.0 1
11.510671 -138.12755 1657.0 1
28.915499 -138.79443 1665.0 1
46.04246 -138.12755 1657.0 1
63.308468 -138.12755 1657.0 1
80.96338 -138.79443 1665.0 1
98.312744 -138.79443 1665.0 1
116.77347 -140.12819 1681.0 1
135.00842 -140.87843 1690.0 1
152.61829 -140.87843 1690.0 1
171.83966 -142.21219 1706.0 1
189.61626 -142.21219 1706.0 1
209.45937 -143.62932 1723.0 1
230.97662 -145.88004 1750.0 1
253.05667 -148.13075 1777.0 1
274.32385 -149.63123 1795.0 1
294.49704 -150.38147 1804.0 1
327.0143 -156.96692 1883.0 1
-111.52871 -158.48822 1690.0 1
-92.08504 -155.39348 1657.0 1
-74.457855 -154.64323 1649.0 1
-56.754265 -153.23653 1634.0 1
-39.727974 -153.23653 1634.0 1
-22.798939 -153.89299 1641.0 1
-5.699762 -153.89299 1641.0 1
11.510671 -155.39348 1657.0 1
28.776566 -155.39348 1657.0 1
46.04246 -155.39348 1657.0 1
63.308468 -155.39348 1657.0 1
80.57436 -155.39348 1657.0 1
97.84037 -155.39348 1657.0 1
115.661995 -156.1437 1665.0 1
133.65034 -156.89395 1673.0 1
152.61829 -158.48822 1690.0 1
171.03386 -159.23845 1698.0 1
189.61626 -159.9887 1706.0 1
209.45937 -161.58295 1723.0 1
230.97662 -164.11502 1750.0 1
251.77501 -165.80305 1768.0 1
274.32385 -168.33511 1795.0 1
297.76196 -171.05473 1824.0 1
334.30832 -180.52652 1925.0 1
-110.93477 -175.1602 1681.0 1
-91.64045 -171.82579 1649.0 1
-73.780556 -170.2628 1634.0 1
-56.754265 -170.2628 1634.0 1
-39.53347 -169.4292 1626.0 1
-22.701685 -170.2628 1634.0 1
-5.6754484 -170.2628 1634.0 1
11.455097 -171.82579 1649.0 1
28.637632 -171.82579 1649.0 1
46.04246 -172.6594 1657.0 1
63.308468 -172.6594 1657.0 1
80.57436 -172.6594 1657.0 1
98.312744 -173.493 1665.0 1
115.661995 -173.493 1665.0 1
133.01126 -173.493 1665.0 1
151.80553 -175.1602 1681.0 1
170.22804 -176.09799 1690.0 1
190.61658 -178.703 1715.0 1
209.45937 -179.53659 1723.0 1
230.97662 -182.34999 1750.0 1
250.49335 -183.2878 1759.0 1
272.9484 -186.1012 1786.0 1
304.12857 -194.1246 1863.0 1
332.57166 -199.543 1915.0 1
-129.13852 -193.70778 1690.0 1
-109.878876 -190.84229 1665.0 1
-91.64045 -189.00836 1649.0 1
-73.780556 -187.28906 1634.0 1
-56.4764 -186.3721 1626.0 1
-39.53347 -186.3721 1626.0 1
-22.590538 -186.3721 1626.0 1
-5.6754484 -187.28906 1634.0 1
11.399524 -188.0914 1641.0 1
28.637632 -189.00836 1649.0 1
45.820168 -189.00836 1649.0 1
63.308468 -189.92532 1657.0 1
80.57436 -189.92532 1657.0 1
98.312744 -190.84229 1665.0 1
115.661995 -190.84229 1665.0 1
133.65034 -191.75925 1673.0 1
151.80553 -192.6762 1681.0 1
170.22804 -193.70778 1690.0 1
189.61626 -195.5417 1706.0 1
210.55347 -198.52182 1732.0 1
228.60086 -198.52182 1732.0 1
250.49335 -201.61656 1759.0 1
271.57297 -203.67972 1777.0 1
307.39352 -215.82944 1883.0 1
330.66132 -218.23645 1904.0 1
-129.74983 -212.31789 1698.0 1
-110.40682 -209.19188 1673.0 1
-91.64045 -206.19092 1649.0 1
-74.09663 -205.1906 1641.0 1
-56.9974 -205.1906 1641.0 1
-39.53347 -203.315 1626.0 1
-22.701685 -204.31532 1634.0 1
-5.6754484 -204.31532 1634.0 1
11.455097 -206.19092 1649.0 1
28.776566 -207.19124 1657.0 1
46.04246 -207.19124 1657.0 1
63.308468 -207.19124 1657.0 1
80.57436 -207.19124 1657.0 1
98.312744 -208.19156 1665.0 1
115.661995 -208.19156 1665.0 1
133.65034 -209.19188 1673.0 1
151.80553 -210.1922 1681.0 1
170.22804 -211.31757 1690.0 1
189.61626 -213.3182 1706.0 1
209.45937 -215.44388 1723.0 1
228.60086 -216.56924 1732.0 1
250.49335 -219.94533 1759.0 1
270.1975 -221.07068 1768.0 1
307.39352 -235.45027 1883.0 1
-129.74983 -230.01111 1698.0 1
-109.878876 -225.54092 1665.0 1
-91.64045 -223.37357 1649.0 1
-74.09663 -222.28989 1641.0 1
-56.9974 -222.28989 1641.0 1
-39.898167 -222.28989 1641.0 1
-22.798939 -222.28989 1641.0 1
-5.699762 -222.28989 1641.0 1
11.455097 -223.37357 1649.0 1
28.637632 -223.37357 1649.0 1
46.04246 -224.45724 1657.0 1
63.308468 -224.45724 1657.0 1
80.96338 -225.54092 1665.0 1
98.312744 -225.54092 1665.0 1
115.661995 -225.54092 1665.0 1
133.65034 -226.6246 1673.0 1
152.61829 -228.92743 1690.0 1
171.03386 -230.01111 1698.0 1
189.61626 -231.09479 1706.0 1
209.45937 -233.39761 1723.0 1
228.60086 -234.61674 1732.0 1
249.21169 -237.05502 1750.0 1
270.1975 -239.49332 1768.0 1
310.8217 -257.91586 1904.0 1
-151.95833 -255.29001 1750.0 1
-129.74983 -247.70425 1698.0 1
-110.40682 -244.05725 1673.0 1
-92.08504 -241.72318 1657.0 1
-74.457855 -240.55614 1649.0 1
-57.275265 -240.55614 1649.0 1
-40.092674 -240.55614 1649.0 1
-22.798939 -239.3891 1641.0 1
-5.7275486 -240.55614 1649.0 1
11.510671 -241.72318 1657.0 1
28.776566 -241.72318 1657.0 1
46.04246 -241.72318 1657.0 1
63.308468 -241.72318 1657.0 1
80.57436 -241.72318 1657.0 1
98.312744 -242.89021 1665.0 1
115.661995 -242.89021 1665.0 1
133.65034 -244.05725 1673.0 1
152.61829 -246.53722 1690.0 1
171.83966 -248.87129 1706.0 1
190.61658 -250.18422 1715.0 1
209.45937 -251.35126 1723.0 1
228.60086 -252.66417 1732.0 1
249.21169 -255.29001 1750.0 1
268.82208 -256.60294 1759.0 1
314.24988 -280.819 1925.0 1
334.30832 -280.819 1925.0 1
-149.61383 -269.3049 1723.0 1
-129.74983 -265.3974 1698.0 1
-110.93477 -262.7403 1681.0 1
-92.52962 -260.2395 1665.0 1
-74.819084 -258.9891 1657.0 1
-57.55313 -258.9891 1657.0 1
-40.28718 -258.9891 1657.0 1
-22.910084 -257.7387 1649.0 1
-5.7275486 -257.7387 1649.0 1
11.510671 -258.9891 1657.0 1
28.776566 -258.9891 1657.0 1
46.04246 -258.9891 1657.0 1
63.308468 -258.9891 1657.0 1
80.57436 -258.9891 1657.0 1
98.312744 -260.2395 1665.0 1
116.21773 -261.4899 1673.0 1
135.00842 -264.147 1690.0 1
152.61829 -264.147 1690.0 1
171.83966 -266.6478 1706.0 1
191.50575 -269.3049 1723.0 1
210.55347 -270.7116 1732.0 1
229.78874 -272.1183 1741.0 1
250.49335 -274.9317 1759.0 1
299.2346 -306.0354 1958.0 1
316.0456 -302.5968 1936.0 1
338.129 -304.3161 1947.0 1
-149.61383 -287.25854 1723.0 1
-130.36113 -284.4243 1706.0 1
-110.93477 -280.2563 1681.0 1
-92.974205 -278.92255 1673.0 1
-75.18031 -277.58878 1665.0 1
-57.830997 -277.58878 1665.0 1
-40.28718 -276.255 1657.0 1
-23.02123 -276.255 1657.0 1
-5.7275486 -274.92126 1649.0 1
11.510671 -276.255 1657.0 1
28.776566 -276.255 1657.0 1
46.04246 -276.255 1657.0 1
63.308468 -276.255 1657.0 1
80.96338 -277.58878 1665.0 1
98.312744 -277.58878 1665.0 1
116.21773 -278.92255 1673.0 1
134.28944 -280.2563 1681.0 1
152.61829 -281.75677 1690.0 1
171.83966 -284.4243 1706.0 1
191.50575 -287.25854 1723.0 1
210.55347 -288.759 1732.0 1
232.16449 -293.26047 1759.0 1
253.05667 -296.2614 1777.0 1
297.5535 -324.60382 1947.0 1
319.63702 -326.43774 1958.0 1
340.03934 -326.43774 1958.0 1
-151.17683 -308.4007 1741.0 1
-129.74983 -300.7837 1698.0 1
-110.93477 -297.7723 1681.0 1
-92.974205 -296.3552 1673.0 1
-75.90276 -297.7723 1681.0 1
-58.386734 -297.7723 1681.0 1
-41.08952 -299.36655 1690.0 1
-23.354671 -297.7723 1681.0 1
-5.783122 -294.93805 1665.0 1
11.566244 -294.93805 1665.0 1
28.915499 -294.93805 1665.0 1
46.04246 -293.52094 1657.0 1
63.308468 -293.52094 1657.0 1
80.96338 -294.93805 1665.0 1
98.312744 -294.93805 1665.0 1
116.21773 -296.3552 1673.0 1
135.00842 -299.36655 1690.0 1
153.34074 -300.7837 1698.0 1
173.55202 -305.2122 1723.0 1
192.50607 -306.80643 1732.0 1
212.74167 -309.99496 1750.0 1
233.35237 -313.18347 1768.0 1
255.61998 -317.96625 1795.0 1
299.2346 -346.8401 1958.0 1
321.43274 -348.7886 1969.0 1
341.94965 -348.7886 1969.0 1
362.46658 -348.7886 1969.0 1
-151.17683 -326.542 1741.0 1
-129.13852 -316.97644 1690.0 1
-111.52871 -316.97644 1690.0 1
-93.41879 -315.2884 1681.0 1
-76.30914 -316.97644 1690.0 1
-58.9772 -318.4769 1698.0 1
-41.89186 -323.1659 1723.0 1
-23.702003 -319.9774 1706.0 1
-5.8699555 -316.97644 1690.0 1
11.677391 -315.2884 1681.0 1
29.054432 -313.7879 1673.0 1
46.264755 -312.2874 1665.0 1
63.61412 -312.2874 1665.0 1
80.96338 -312.2874 1665.0 1
98.312744 -312.2874 1665.0 1
116.77347 -315.2884 1681.0 1
135.00842 -316.97644 1690.0 1
154.06319 -319.9774 1706.0 1
173.55202 -323.1659 1723.0 1
192.50607 -324.85394 1732.0 1
213.83577 -329.91806 1759.0 1
234.54025 -333.29416 1777.0 1
285.24057 -375.6827 2003.0 1
302.59677 -371.36884 1980.0 1
321.43274 -369.30566 1969.0 1
341.94965 -369.30566 1969.0 1
362.46658 -369.30566 1969.0 1
-171.94391 -350.02866 1768.0 1
-151.95833 -346.465 1750.0 1
-131.04886 -339.5357 1715.0 1
-112.056656 -336.17004 1698.0 1
-93.91895 -334.5862 1690.0 1
-76.67037 -336.17004 1698.0 1
-61.72113 -351.8105 1777.0 1
-42.54832 -346.465 1750.0 1
-23.93819 -341.11954 1723.0 1
-5.925529 -337.75388 1706.0 1
11.795485 -336.17004 1698.0 1
29.349667 -334.5862 1690.0 1
46.709343 -332.80438 1681.0 1
63.61412 -329.63672 1665.0 1
80.96338 -329.63672 1665.0 1
98.78512 -331.22055 1673.0 1
117.39867 -334.5862 1690.0 1
135.6475 -336.17004 1698.0 1
154.87595 -339.5357 1715.0 1
173.55202 -341.11954 1723.0 1
193.5064 -344.6832 1741.0 1
213.83577 -348.24683 1759.0 1
235.72813 -353.5923 1786.0 1
285.24057 -396.55396 2003.0 1
304.4307 -394.37616 1992.0 1
321.43274 -389.82263 1969.0 1
341.94965 -389.82263 1969.0 1
362.46658 -389.82263 1969.0 1
-171.06862 -366.5756 1759.0 1
-151.95833 -364.69998 1750.0 1
-132.34789 -360.9488 1732.0 1
-113.70649 -359.07318 1723.0 1
-95.75288 -359.07318 1723.0 1
-77.43797 -357.406 1715.0 1
-62.346333 -374.078 1795.0 1
-42.985962 -368.4512 1768.0 1
-24.31331 -364.69998 1750.0 1
-5.984576 -359.07318 1723.0 1
11.969152 -359.07318 1723.0 1
29.627533 -355.5304 1706.0 1
47.181713 -353.8632 1698.0 1
64.56929 -352.19598 1690.0 1
82.17904 -352.19598 1690.0 1
100.261284 -353.8632 1698.0 1
117.9544 -353.8632 1698.0 1
136.2866 -355.5304 1706.0 1
154.87595 -357.406 1715.0 1
175.3651 -362.8244 1741.0 1
195.50703 -366.5756 1759.0 1
214.92986 -368.4512 1768.0 1
236.91602 -374.078 1795.0 1
285.24057 -417.4252 2003.0 1
302.59677 -412.632 1980.0 1
321.43274 -410.3396 1969.0 1
341.94965 -410.3396 1969.0 1
362.46658 -410.3396 1969.0 1
385.12323 -412.632 1980.0 1
-171.94391 -386.87375 1768.0 1
-151.95833 -382.93497 1750.0 1
-133.0356 -380.9656 1741.0 1
-114.89437 -380.9656 1741.0 1
-96.25304 -378.99622 1732.0 1
-62.65893 -394.75125 1804.0 1
-42.985962 -386.87375 1768.0 1
-24.31331 -382.93497 1750.0 1
-6.0470963 -380.9656 1741.0 1
12.0316725 -378.99622 1732.0 1
30.079065 -378.99622 1732.0 1
47.87638 -377.02682 1723.0 1
65.180595 -373.3069 1706.0 1
82.95707 -373.3069 1706.0 1
101.265076 -375.27628 1715.0 1
119.13533 -375.27628 1715.0 1
137.64468 -377.02682 1723.0 1
155.5984 -377.02682 1723.0 1
174.45856 -378.99622 1732.0 1
195.50703 -384.90436 1759.0 1
216.02396 -388.8431 1777.0 1
238.1039 -394.75125 1804.0 1
304.4307 -435.8894 1992.0 1
323.22845 -433.26358 1980.0 1
341.94965 -430.85657 1969.0 1
362.46658 -430.85657 1969.0 1
380.8441 -428.44952 1958.0 1
-171.94391 -405.29626 1768.0 1
-151.95833 -401.16995 1750.0 1
-133.72331 -401.16995 1750.0 1
-115.48831 -401.16995 1750.0 1
-97.75352 -403.23312 1759.0 1
-83.217606 -422.4893 1843.0 1
-63.3536 -418.13373 1824.0 1
-43.20478 -407.35944 1777.0 1
-24.438349 -403.23312 1759.0 1
-6.0470963 -399.1068 1741.0 1
12.156713 -401.16995 1750.0 1
30.235367 -399.1068 1741.0 1
47.87638 -394.98047 1723.0 1
65.83011 -394.98047 1723.0 1
83.78372 -394.98047 1723.0 1
101.73745 -394.98047 1723.0 1
119.69106 -394.98047 1723.0 1
137.64468 -394.98047 1723.0 1
156.41116 -397.04364 1732.0 1
175.3651 -399.1068 1741.0 1
196.50735 -405.29626 1768.0 1
218.21216 -411.48575 1795.0 1
325.1874 -456.64603 1992.0 1
341.94965 -451.3735 1969.0 1
362.46658 -451.3735 1969.0 1
385.12323 -453.89514 1980.0 1
-192.3046 -428.03278 1786.0 1
-171.94391 -423.7189 1768.0 1
-152.73984 -421.56198 1759.0 1
-134.41104 -421.56198 1759.0 1
-116.676186 -423.7189 1768.0 1
-83.217606 -441.69342 1843.0 1
-63.006264 -434.74326 1814.0 1
-43.64242 -430.18973 1795.0 1
-24.438349 -421.56198 1759.0 1
-6.0783563 -419.40503 1750.0 1
12.2192335 -421.56198 1759.0 1
30.391666 -419.40503 1750.0 1
48.37654 -417.24808 1741.0 1
66.173965 -415.09116 1732.0 1
84.22136 -415.09116 1732.0 1
102.26887 -415.09116 1732.0 1
120.31626 -415.09116 1732.0 1
138.36366 -415.09116 1732.0 1
157.22392 -417.24808 1741.0 1
177.17818 -421.56198 1759.0 1
197.50768 -425.87585 1777.0 1
219.30626 -432.34668 1804.0 1
326.98312 -480.039 2003.0 1
343.86 -474.52682 1980.0 1
364.49155 -474.52682 1980.0 1
382.98364 -471.89056 1969.0 1
-192.3046 -446.64288 1786.0 1
-171.94391 -442.14145 1768.0 1
-153.52133 -442.14145 1768.0 1
-136.4742 -446.64288 1786.0 1
-118.45801 -448.89362 1795.0 1
-83.669136 -463.39825 1853.0 1
-63.006264 -453.64514 1814.0 1
-43.4236 -446.64288 1786.0 1
-24.563389 -442.14145 1768.0 1
-6.1096168 -439.89072 1759.0 1
12.2192335 -439.89072 1759.0 1
30.547966 -439.89072 1759.0 1
48.876698 -439.89072 1759.0 1
66.86169 -437.64 1750.0 1
85.09664 -437.64 1750.0 1
102.80029 -435.38928 1741.0 1
120.31626 -433.13858 1732.0 1
139.80162 -437.64 1750.0 1
158.84944 -439.89072 1759.0 1
178.08472 -442.14145 1768.0 1
198.508 -446.64288 1786.0 1
220.52193 -453.64514 1814.0 1
328.94208 -503.91122 2015.0 1
345.944 -498.15936 1992.0 1
362.46658 -492.40753 1969.0 1
382.98364 -492.40753 1969.0 1
408.2139 -498.15936 1992.0 1
-192.3046 -465.253 1786.0 1
-171.94391 -460.564 1768.0 1
-154.30283 -462.90848 1777.0 1
-137.16193 -467.5975 1795.0 1
-118.45801 -467.5975 1795.0 1
-105.25591 -493.387 1894.0 1
-83.669136 -482.70648 1853.0 1
-63.3536 -475.15198 1824.0 1
-43.64242 -467.5975 1795.0 1
-24.688429 -462.90848 1777.0 1
-6.1096168 -458.21948 1759.0 1
12.2192335 -458.21948 1759.0 1
30.547966 -458.21948 1759.0 1
48.876698 -458.21948 1759.0 1
66.86169 -455.875 1750.0 1
85.09664 -455.875 1750.0 1
102.80029 -453.5305 1741.0 1
120.94147 -453.5305 1741.0 1
140.5206 -458.21948 1759.0 1
158.84944 -458.21948 1759.0 1
178.08472 -460.564 1768.0 1
199.50832 -467.5975 1795.0 1
222.8317 -477.4965 1833.0 1
345.944 -518.916 1992.0 1
364.49155 -515.79 1980.0 1
385.12323 -515.79 1980.0 1
405.75476 -515.79 1980.0 1
-191.33554 -481.4248 1777.0 1
-171.94391 -478.98654 1768.0 1
-154.30283 -481.4248 1777.0 1
-136.4742 -483.8631 1786.0 1
-83.669136 -502.01474 1853.0 1
-63.3536 -494.15805 1824.0 1
-43.86124 -488.73965 1804.0 1
-24.813469 -483.8631 1786.0 1
-6.172137 -481.4248 1777.0 1
12.344274 -481.4248 1777.0 1
30.704266 -478.98654 1768.0 1
48.876698 -476.54825 1759.0 1
67.20555 -476.54825 1759.0 1
85.53428 -476.54825 1759.0 1
103.86313 -476.54825 1759.0 1
122.191864 -476.54825 1759.0 1
140.5206 -476.54825 1759.0 1
159.6622 -478.98654 1768.0 1
179.8978 -483.8631 1786.0 1
200.50864 -488.73965 1804.0 1
225.26303 -502.01474 1853.0 1
366.7006 -539.6726 1992.0 1
382.98364 -533.44147 1969.0 1
403.50058 -533.44147 1969.0 1
-210.91467 -502.4732 1786.0 1
-192.3046 -502.4732 1786.0 1
-172.81918 -499.94113 1777.0 1
-155.08434 -502.4732 1786.0 1
-137.16193 -505.00525 1795.0 1
-104.088875 -526.94977 1873.0 1
-83.669136 -521.323 1853.0 1
-63.6662 -515.69617 1833.0 1
-44.347507 -513.1641 1824.0 1
-24.938509 -505.00525 1795.0 1
-6.203397 -502.4732 1786.0 1
12.406794 -502.4732 1786.0 1
30.860565 -499.94113 1777.0 1
49.126778 -497.4091 1768.0 1
67.54941 -497.4091 1768.0 1
85.971924 -497.4091 1768.0 1
104.394554 -497.4091 1768.0 1
122.81706 -497.4091 1768.0 1
141.23958 -497.4091 1768.0 1
160.47496 -499.94113 1777.0 1
180.80434 -505.00525 1795.0 1
202.73157 -513.1641 1824.0 1
234.01582 -541.57947 1925.0 1
370.93457 -566.9 2015.0 1
385.12323 -557.05316 1980.0 1
403.50058 -553.95844 1969.0 1
426.38644 -557.05316 1980.0 1
-211.97751 -523.7092 1795.0 1
-192.3046 -521.0834 1786.0 1
-173.69446 -521.0834 1786.0 1
-155.08434 -521.0834 1786.0 1
-137.84964 -526.3351 1804.0 1
-83.217606 -537.7137 1843.0 1
-63.6662 -534.7961 1833.0 1
-44.347507 -532.1703 1824.0 1
-25.063549 -526.3351 1804.0 1
-6.234657 -523.7092 1795.0 1
12.469314 -523.7092 1795.0 1
31.016867 -521.0834 1786.0 1
49.626938 -521.0834 1786.0 1
67.89327 -518.4575 1777.0 1
85.971924 -515.8317 1768.0 1
104.394554 -515.8317 1768.0 1
122.81706 -515.8317 1768.0 1
141.95856 -518.4575 1777.0 1
162.1005 -523.7092 1795.0 1
182.71814 -529.2527 1814.0 1
207.06628 -543.5489 1863.0 1
235.35306 -564.8474 1936.0 1
387.4573 -581.186 1992.0 1
403.50058 -574.47546 1969.0 1
424.01764 -574.47546 1969.0 1
-213.04034 -545.13275 1804.0 1
-192.3046 -539.6935 1786.0 1
-173.69446 -539.6935 1786.0 1
-155.86583 -542.4131 1795.0 1
-139.3779 -551.17633 1824.0 1
-84.120674 -562.96136 1863.0 1
-64.013535 -556.9177 1843.0 1
-44.347507 -551.17633 1824.0 1
-25.063549 -545.13275 1804.0 1
-6.3006506 -548.15454 1814.0 1
12.531835 -545.13275 1804.0 1
31.173166 -542.4131 1795.0 1
49.877018 -542.4131 1795.0 1
68.23713 -539.6935 1786.0 1
86.8472 -539.6935 1786.0 1
105.45739 -539.6935 1786.0 1
124.06747 -539.6935 1786.0 1
143.39651 -542.4131 1795.0 1
162.91325 -545.13275 1804.0 1
187.65375 -562.96136 1863.0 1
212.84592 -578.6747 1915.0 1
238.02753 -591.66846 1958.0 1
262.9174 -601.94257 1992.0 1
389.59686 -605.26654 2003.0 1
403.50058 -594.99243 1969.0 1
424.01764 -594.99243 1969.0 1
-213.04034 -563.9304 1804.0 1
-193.27365 -561.117 1795.0 1
-174.56975 -561.117 1795.0 1
-155.86583 -561.117 1795.0 1
-84.572205 -585.4998 1873.0 1
-64.36086 -579.2478 1853.0 1
-44.347507 -570.1824 1824.0 1
-25.063549 -563.9304 1804.0 1
-6.2659173 -563.9304 1804.0 1
12.601301 -567.0564 1814.0 1
31.503132 -567.0564 1814.0 1
50.127098 -563.9304 1804.0 1
68.92485 -563.9304 1804.0 1
87.28484 -561.117 1795.0 1
106.52023 -563.9304 1804.0 1
125.31786 -563.9304 1804.0 1
144.91437 -567.0564 1814.0 1
167.33827 -579.2478 1853.0 1
189.66829 -588.6258 1883.0 1
213.95738 -601.755 1925.0 1
238.02753 -612.0708 1958.0 1
264.36923 -626.1378 2003.0 1
387.4573 -622.6992 1992.0 1
403.50058 -615.5094 1969.0 1
424.01764 -615.5094 1969.0 1
-214.22128 -585.95825 1814.0 1
-193.27365 -579.82086 1795.0 1
-174.56975 -579.82086 1795.0 1
-156.64732 -582.728 1804.0 1
-85.023735 -608.24664 1883.0 1
-64.36086 -598.556 1853.0 1
-44.566326 -592.09564 1833.0 1
-25.341415 -589.1885 1824.0 1
-6.3006506 -585.95825 1814.0 1
12.601301 -585.95825 1814.0 1
31.503132 -585.95825 1814.0 1
50.127098 -582.728 1804.0 1
69.306915 -585.95825 1814.0 1
88.20875 -585.95825 1814.0 1
107.701164 -589.1885 1824.0 1
127.3324 -592.09564 1833.0 1
147.23108 -595.3258 1843.0 1
169.14441 -605.0164 1873.0 1
191.78354 -615.03 1904.0 1
213.95738 -621.8135 1925.0 1
238.02753 -632.47314 1958.0 1
264.36923 -647.00903 2003.0 1
385.12323 -639.5796 1980.0 1
403.50058 -636.02637 1969.0 1
424.01764 -636.02637 1969.0 1
444.53455 -636.02637 1969.0 1
-214.22128 -604.8601 1814.0 1
-194.2427 -601.5257 1804.0 1
-174.56975 -598.5248 1795.0 1
-85.023735 -627.8675 1883.0 1
-64.36086 -617.86426 1853.0 1
-44.566326 -611.1955 1833.0 1
-25.341415 -608.1945 1824.0 1
-6.335384 -608.1945 1824.0 1
12.733289 -611.1955 1833.0 1
31.8331 -611.1955 1833.0 1
50.68283 -608.1945 1824.0 1
70.032845 -611.1955 1833.0 1
89.61892 -614.52985 1843.0 1
108.82305 -614.52985 1843.0 1
129.4164 -621.19867 1863.0 1
148.82881 -621.19867 1863.0 1
170.04747 -627.8675 1883.0 1
192.89154 -638.53754 1915.0 1
215.18 -645.5398 1936.0 1
238.02753 -652.8755 1958.0 1
259.88168 -656.54333 1969.0 1
403.50058 -656.54333 1969.0 1
421.6488 -652.8755 1958.0 1
442.05112 -652.8755 1958.0 1
470.48376 -664.2124 1992.0 1
-215.4022 -627.2007 1824.0 1
-194.2427 -620.3235 1804.0 1
-175.44502 -620.3235 1804.0 1
-157.51567 -623.7621 1814.0 1
-85.023735 -647.4884 1883.0 1
-64.7082 -640.6112 1863.0 1
-44.566326 -630.2954 1833.0 1
-25.341415 -627.2007 1824.0 1
-6.335384 -627.2007 1824.0 1
12.733289 -630.2954 1833.0 1
31.8331 -630.2954 1833.0 1
50.93291 -630.2954 1833.0 1
70.41491 -633.734 1843.0 1
90.10519 -637.1726 1853.0 1
110.00399 -640.6112 1863.0 1
130.11107 -644.0498 1873.0 1
149.62767 -644.0498 1873.0 1
170.04747 -647.4884 1883.0 1
192.89154 -658.49194 1915.0 1
216.4026 -669.4954 1947.0 1
238.02753 -673.2779 1958.0 1
259.88168 -677.06036 1969.0 1
403.50058 -677.06036 1969.0 1
426.38644 -680.84283 1980.0 1
444.53455 -677.06036 1969.0 1
465.05148 -677.06036 1969.0 1
-215.4022 -646.2067 1824.0 1
-194.2427 -639.12115 1804.0 1
-175.44502 -639.12115 1804.0 1
-85.023735 -667.10925 1883.0 1
-64.36086 -656.48083 1853.0 1
-44.80946 -652.93805 1843.0 1
-25.341415 -646.2067 1824.0 1
-6.335384 -646.2067 1824.0 1
12.733289 -649.39526 1833.0 1
31.8331 -649.39526 1833.0 1
50.93291 -649.39526 1833.0 1
70.41491 -652.93805 1843.0 1
90.10519 -656.48083 1853.0 1
110.00399 -660.0236 1863.0 1
130.80573 -667.10925 1883.0 1
149.62767 -663.56647 1873.0 1
171.04085 -671.00635 1894.0 1
193.8988 -681.989 1925.0 1
215.18 -685.8861 1936.0 1
238.02753 -693.68024 1958.0 1
261.33356 -701.4744 1980.0 1
405.75476 -701.4744 1980.0 1
428.9706 -705.72577 1992.0 1
444.53455 -697.57733 1969.0 1
465.05148 -697.57733 1969.0 1
-236.85005 -672.1421 1843.0 1
-214.22128 -661.5658 1814.0 1
-194.2427 -657.91876 1804.0 1
-176.41756 -661.5658 1814.0 1
-84.572205 -683.08307 1873.0 1
-64.36086 -675.78906 1853.0 1
-44.80946 -672.1421 1843.0 1
-25.466455 -668.4951 1833.0 1
-6.335384 -665.21277 1824.0 1
12.733289 -668.4951 1833.0 1
31.8331 -668.4951 1833.0 1
50.93291 -668.4951 1833.0 1
70.41491 -672.1421 1843.0 1
90.59145 -679.4361 1863.0 1
110.59445 -683.08307 1873.0 1
130.80573 -686.7301 1883.0 1
150.42654 -686.7301 1883.0 1
171.94391 -694.3888 1904.0 1
193.8988 -702.0475 1925.0 1
213.95738 -702.0475 1925.0 1
239.36476 -718.0943 1969.0 1
262.9174 -726.48236 1992.0 1
405.75476 -722.10596 1980.0 1
428.9706 -726.48236 1992.0 1
444.53455 -718.0943 1969.0 1
462.45343 -714.0826 1958.0 1
-234.40831 -684.2189 1824.0 1
-214.22128 -680.46765 1814.0 1
-194.2427 -676.71643 1804.0 1
-175.44502 -676.71643 1804.0 1
-84.572205 -702.59973 1873.0 1
-64.7082 -698.8485 1863.0 1
-44.566326 -687.5949 1833.0 1
-25.466455 -687.5949 1833.0 1
-6.335384 -684.2189 1824.0 1
12.733289 -687.5949 1833.0 1
32.006767 -691.3461 1843.0 1
50.93291 -687.5949 1833.0 1
70.796974 -695.09735 1853.0 1
90.59145 -698.8485 1863.0 1
110.59445 -702.59973 1873.0 1
130.80573 -706.35095 1883.0 1
151.3053 -710.47723 1894.0 1
172.93729 -718.3548 1915.0 1
195.00679 -726.2323 1936.0 1
216.4026 -730.3586 1947.0 1
239.36476 -738.61127 1969.0 1
262.9174 -747.239 1992.0 1
426.38644 -742.73755 1980.0 1
442.05112 -734.4849 1958.0 1
-235.56493 -706.69476 1833.0 1
-215.4022 -703.2249 1824.0 1
-194.2427 -695.5141 1804.0 1
-177.39009 -703.2249 1824.0 1
-85.520424 -730.2127 1894.0 1
-64.7082 -718.261 1863.0 1
-44.80946 -710.5502 1843.0 1
-25.466455 -706.69476 1833.0 1
-6.335384 -703.2249 1824.0 1
12.802755 -710.5502 1843.0 1
32.006767 -710.5502 1843.0 1
51.210777 -710.5502 1843.0 1
70.796974 -714.4056 1853.0 1
90.59145 -718.261 1863.0 1
111.18492 -725.97174 1883.0 1
133.72333 -742.1644 1925.0 1
157.2968 -759.12823 1969.0 1
176.82048 -754.88727 1958.0 1
197.22278 -754.88727 1958.0 1
218.84784 -759.12823 1969.0 1
240.702 -763.36914 1980.0 1
262.9174 -767.9956 1992.0 1
-238.1352 -733.7139 1853.0 1
-215.4022 -722.2311 1824.0 1
-195.31944 -718.2715 1814.0 1
-177.39009 -722.2311 1824.0 1
-159.1655 -725.7947 1833.0 1
-85.023735 -745.5927 1883.0 1
-64.7082 -737.6735 1863.0 1
-44.80946 -729.75433 1843.0 1
-25.466455 -725.7947 1833.0 1
-6.335384 -722.2311 1824.0 1
12.802755 -729.75433 1843.0 1
32.006767 -729.75433 1843.0 1
51.210777 -729.75433 1843.0 1
70.796974 -733.7139 1853.0 1
91.07772 -741.6331 1873.0 1
118.97909 -797.85944 2015.0 1
139.14172 -793.1079 2003.0 1
158.17554 -784.00085 1980.0 1
177.81384 -779.64526 1969.0 1
198.33078 -779.64526 1969.0 1
221.4042 -788.7523 1992.0 1
240.702 -784.00085 1980.0 1
265.95306 -797.85944 2015.0 1
-264.52905 -773.7475 1904.0 1
-236.85005 -748.9584 1843.0 1
-215.4022 -741.2371 1824.0 1
-196.39618 -741.2371 1824.0 1
-177.39009 -741.2371 1824.0 1
-160.03383 -748.9584 1843.0 1
-85.520424 -769.6837 1894.0 1
-64.7082 -757.08594 1863.0 1
-45.052593 -753.02216 1853.0 1
-25.605389 -748.9584 1843.0 1
-6.3666444 -744.89453 1833.0 1
12.802755 -748.9584 1843.0 1
32.006767 -748.9584 1843.0 1
51.76651 -757.08594 1863.0 1
71.56111 -761.1497 1873.0 1
100.31679 -838.36194 2063.0 1
120.3962 -828.6088 2039.0 1
139.97533 -818.8557 2015.0 1
160.01294 -813.9791 2003.0 1
179.8909 -809.509 1992.0 1
200.64749 -809.509 1992.0 1
222.62682 -813.9791 2003.0 1
243.49803 -813.9791 2003.0 1
267.53693 -823.73224 2027.0 1
