ply
format ascii 1.0
comment : created from Kinect user tracker
element vertex 858
property float x
property float y
property float z
property int userId
end_header
106.686874 365.78366 2194.0 1
127.127525 358.94812 2153.0 1
149.56174 358.94812 2153.0 1
174.23276 363.6163 2181.0 1
194.43028 358.94812 2153.0 1
104.693184 336.5139 2153.0 1
125.592316 332.4501 2127.0 1
145.94946 328.3863 2101.0 1
169.91888 332.4501 2127.0 1
192.0823 332.4501 2127.0 1
216.86449 336.5139 2153.0 1
80.27223 306.4939 2101.0 1
102.796745 308.39035 2114.0 1
124.0571 306.4939 2101.0 1
145.94946 306.4939 2101.0 1
167.84183 306.4939 2101.0 1
192.0823 310.28677 2127.0 1
214.24559 310.28677 2127.0 1
236.40901 310.28677 2127.0 1
36.487366 284.60144 2101.0 1
59.102184 288.1234 2127.0 1
80.76892 286.36243 2114.0 1
102.796745 286.36243 2114.0 1
124.0571 284.60144 2101.0 1
145.94946 284.60144 2101.0 1
166.8033 282.84045 2088.0 1
187.47667 281.21494 2076.0 1
211.6267 284.60144 2101.0 1
234.96411 286.36243 2114.0 1
37.164665 267.5856 2140.0 1
59.824635 269.21112 2153.0 1
82.25898 269.21112 2153.0 1
102.796745 264.33456 2114.0 1
124.82471 264.33456 2114.0 1
145.94946 262.70905 2101.0 1
166.8033 261.08353 2088.0 1
188.56035 261.08353 2088.0 1
211.6267 262.70905 2101.0 1
233.5192 262.70905 2101.0 1
260.15265 267.5856 2140.0 1
37.633568 248.38152 2167.0 1
59.824635 246.77684 2153.0 1
82.25898 246.77684 2153.0 1
103.42889 243.7967 2127.0 1
124.0571 240.81659 2101.0 1
145.94946 240.81659 2101.0 1
167.84183 240.81659 2101.0 1
189.73433 240.81659 2101.0 1
212.93614 242.30666 2114.0 1
240.85487 248.38152 2167.0 1
266.71725 251.47626 2194.0 1
37.633568 225.80139 2167.0 1
59.824635 224.34259 2153.0 1
82.25898 224.34259 2153.0 1
104.693184 224.34259 2153.0 1
124.0571 218.9242 2101.0 1
146.85252 220.2788 2114.0 1
167.84183 218.9242 2101.0 1
190.90833 220.2788 2114.0 1
212.93614 220.2788 2114.0 1
242.41093 227.2602 2181.0 1
270.2427 231.6366 2223.0 1
38.3456 207.06625 2208.0 1
60.21365 203.22128 2167.0 1
82.79388 203.22128 2167.0 1
104.693184 201.90836 2153.0 1
125.592316 199.47008 2127.0 1
147.7556 199.47008 2127.0 1
167.84183 197.0318 2101.0 1
192.0823 199.47008 2127.0 1
215.55504 200.68922 2140.0 1
243.85583 205.75334 2194.0 1
268.4192 207.06625 2208.0 1
38.84923 186.4763 2237.0 1
62.158714 186.4763 2237.0 1
82.79388 180.64111 2167.0 1
104.693184 179.47406 2153.0 1
125.592316 177.3067 2127.0 1
146.85252 176.22302 2114.0 1
167.84183 175.13934 2101.0 1
193.25629 178.39038 2140.0 1
218.27466 180.64111 2167.0 1
247.0791 185.30927 2223.0 1
63.381325 166.37614 2281.0 1
87.14944 166.37614 2281.0 1
104.693184 157.03983 2153.0 1
126.359924 156.09161 2140.0 1
147.7556 155.14339 2127.0 1
168.88036 154.19518 2114.0 1
193.25629 156.09161 2140.0 1
218.27466 158.06099 2167.0 1
253.5256 166.37614 2281.0 1
-33.01053 148.5475 2376.0 1
-8.252671 148.5475 2376.0 1
16.505342 148.5475 2376.0 1
41.2632 148.5475 2376.0 1
65.104095 146.48433 2343.0 1
88.33384 144.54622 2312.0 1
107.367645 138.04413 2208.0 1
126.359924 133.79277 2140.0 1
148.65866 133.79277 2140.0 1
169.91888 132.98001 2127.0 1
193.25629 133.79277 2140.0 1
229.75749 142.6081 2281.0 1
255.30396 143.60841 2297.0 1
-33.01053 123.7896 2376.0 1
-8.138051 122.0703 2343.0 1
16.276102 122.0703 2343.0 1
40.690098 122.0703 2343.0 1
64.65951 121.236694 2327.0 1
87.76074 119.6737 2297.0 1
109.507225 117.3292 2252.0 1
128.78084 113.6301 2181.0 1
149.56174 112.171295 2153.0 1
171.99593 112.171295 2153.0 1
203.37064 117.3292 2252.0 1
229.75749 118.840096 2281.0 1
253.5256 118.840096 2281.0 1
279.23862 119.6737 2297.0 1
303.1733 119.6737 2297.0 1
-58.157475 99.698586 2392.0 1
-32.77434 98.32314 2359.0 1
-8.082478 96.98938 2327.0 1
16.276102 97.656265 2343.0 1
40.41223 96.98938 2327.0 1
64.242714 96.36418 2312.0 1
87.14944 95.0721 2281.0 1
110.9174 95.0721 2281.0 1
132.97314 93.86338 2252.0 1
155.39693 93.23818 2237.0 1
177.588 92.65466 2223.0 1
204.63493 94.4469 2266.0 1
229.75749 95.0721 2281.0 1
251.8584 94.4469 2266.0 1
277.29355 95.0721 2281.0 1
301.06152 95.0721 2281.0 1
324.82962 95.0721 2281.0 1
351.04282 95.73898 2297.0 1
382.487 97.656265 2343.0 1
-58.157475 74.77391 2392.0 1
-32.552048 73.242165 2343.0 1
-8.082478 72.742004 2327.0 1
16.164955 72.742004 2327.0 1
40.151733 72.27311 2312.0 1
63.825912 71.80421 2297.0 1
87.14944 71.30405 2281.0 1
110.9174 71.30405 2281.0 1
133.7998 70.835144 2266.0 1
157.41147 70.835144 2266.0 1
181.02312 70.835144 2266.0 1
204.63493 70.835144 2266.0 1
228.2466 70.835144 2266.0 1
251.8584 70.835144 2266.0 1
277.29355 71.30405 2281.0 1
299.08173 70.835144 2266.0 1
322.69354 70.835144 2266.0 1
348.5976 71.30405 2281.0 1
372.3657 71.30405 2281.0 1
-84.85353 50.912132 2443.0 1
-58.157475 49.849293 2392.0 1
-33.01053 49.51585 2376.0 1
-8.082478 48.49469 2327.0 1
16.164955 48.49469 2327.0 1
40.151733 48.18209 2312.0 1
63.825912 47.86949 2297.0 1
87.14944 47.53605 2281.0 1
110.187996 47.22345 2266.0 1
133.7998 47.22345 2266.0 1
157.41147 47.22345 2266.0 1
179.90471 46.93169 2252.0 1
203.37064 46.93169 2252.0 1
226.83643 46.93169 2252.0 1
250.30235 46.93169 2252.0 1
275.47006 47.22345 2266.0 1
299.08173 47.22345 2266.0 1
322.69354 47.22345 2266.0 1
346.30518 47.22345 2266.0 1
372.3657 47.53605 2281.0 1
-84.85353 25.456036 2443.0 1
-58.157475 24.924616 2392.0 1
-32.77434 24.580755 2359.0 1
-8.082478 24.247316 2327.0 1
16.164955 24.247316 2327.0 1
40.151733 24.091017 2312.0 1
63.381325 23.767998 2281.0 1
86.57633 23.611696 2266.0 1
109.507225 23.465816 2252.0 1
132.97314 23.465816 2252.0 1
155.39693 23.309517 2237.0 1
178.7064 23.309517 2237.0 1
203.37064 23.465816 2252.0 1
226.83643 23.465816 2252.0 1
251.8584 23.611696 2266.0 1
273.76813 23.465816 2252.0 1
299.08173 23.611696 2266.0 1
322.69354 23.611696 2266.0 1
346.30518 23.611696 2266.0 1
372.3657 23.767998 2281.0 1
396.13367 23.767998 2281.0 1
-84.85353 0.0 2443.0 1
-58.570805 0.0 2409.0 1
-32.77434 0.0 2359.0 1
-8.030377 0.0 2312.0 1
16.060755 0.0 2312.0 1
39.613365 0.0 2281.0 1
63.381325 0.0 2281.0 1
86.57633 0.0 2266.0 1
110.187996 0.0 2266.0 1
132.97314 0.0 2252.0 1
155.39693 0.0 2237.0 1
178.7064 0.0 2237.0 1
203.37064 0.0 2252.0 1
226.83643 0.0 2252.0 1
250.30235 0.0 2252.0 1
273.76813 0.0 2252.0 1
299.08173 0.0 2266.0 1
320.69983 0.0 2252.0 1
346.30518 0.0 2266.0 1
372.3657 0.0 2281.0 1
401.51733 0.0 2312.0 1
-111.07722 -25.633175 2460.0 1
-84.85353 -25.456036 2443.0 1
-58.98413 -25.278896 2426.0 1
-33.01053 -24.757896 2376.0 1
-8.082478 -24.247316 2327.0 1
16.060755 -24.091017 2312.0 1
39.613365 -23.767998 2281.0 1
63.381325 -23.767998 2281.0 1
86.57633 -23.611696 2266.0 1
109.507225 -23.465816 2252.0 1
132.97314 -23.465816 2252.0 1
156.43893 -23.465816 2252.0 1
178.7064 -23.309517 2237.0 1
202.01604 -23.309517 2237.0 1
225.32552 -23.309517 2237.0 1
248.63515 -23.309517 2237.0 1
273.76813 -23.465816 2252.0 1
297.23392 -23.465816 2252.0 1
322.69354 -23.611696 2266.0 1
348.5976 -23.767998 2281.0 1
374.97766 -23.934717 2297.0 1
404.1223 -24.247316 2327.0 1
-85.444 -51.26635 2460.0 1
-59.397457 -50.91207 2443.0 1
-33.94138 -50.91207 2443.0 1
-8.138051 -48.82807 2343.0 1
16.164955 -48.494633 2327.0 1
39.613365 -47.535995 2281.0 1
63.381325 -47.535995 2281.0 1
86.57633 -47.223392 2266.0 1
110.187996 -47.223392 2266.0 1
132.97314 -46.931633 2252.0 1
156.43893 -46.931633 2252.0 1
179.90471 -46.931633 2252.0 1
202.01604 -46.619034 2237.0 1
226.83643 -46.931633 2252.0 1
248.63515 -46.619034 2237.0 1
273.76813 -46.931633 2252.0 1
299.08173 -47.223392 2266.0 1
324.82962 -47.535995 2281.0 1
348.5976 -47.535995 2281.0 1
379.87506 -48.494633 2327.0 1
404.1223 -48.494633 2327.0 1
-86.6944 -78.02501 2496.0 1
-60.24842 -77.462326 2478.0 1
-34.427647 -77.462326 2478.0 1
-8.138051 -73.242226 2343.0 1
16.060755 -72.27316 2312.0 1
39.89123 -71.80427 2297.0 1
63.381325 -71.30411 2281.0 1
86.57633 -70.835205 2266.0 1
110.187996 -70.835205 2266.0 1
133.7998 -70.835205 2266.0 1
156.43893 -70.39756 2252.0 1
178.7064 -69.928665 2237.0 1
202.01604 -69.928665 2237.0 1
226.83643 -70.39756 2252.0 1
250.30235 -70.39756 2252.0 1
275.47006 -70.835205 2266.0 1
299.08173 -70.835205 2266.0 1
327.10812 -71.80427 2297.0 1
351.04282 -71.80427 2297.0 1
374.97766 -71.80427 2297.0 1
406.901 -73.242226 2343.0 1
-140.71172 -105.53378 2532.0 1
-114.328255 -105.53378 2532.0 1
-87.319595 -104.78355 2514.0 1
-61.123703 -104.78355 2514.0 1
-34.927807 -104.78355 2514.0 1
-8.082478 -96.98938 2327.0 1
16.164955 -96.98938 2327.0 1
39.89123 -95.73898 2297.0 1
63.381325 -95.0721 2281.0 1
87.14944 -95.0721 2281.0 1
110.187996 -94.4469 2266.0 1
133.7998 -94.4469 2266.0 1
156.43893 -93.86338 2252.0 1
178.7064 -93.23818 2237.0 1
203.37064 -93.86338 2252.0 1
225.32552 -93.23818 2237.0 1
251.8584 -94.4469 2266.0 1
275.47006 -94.4469 2266.0 1
303.1733 -95.73898 2297.0 1
331.38034 -96.98938 2327.0 1
355.62762 -96.98938 2327.0 1
379.87506 -96.98938 2327.0 1
406.901 -97.656265 2343.0 1
422.84702 -95.73898 2297.0 1
-143.8794 -134.8869 2589.0 1
-116.04408 -133.897 2570.0 1
-88.60473 -132.9071 2551.0 1
-62.023296 -132.9071 2551.0 1
-8.138051 -122.0703 2343.0 1
16.276102 -122.0703 2343.0 1
40.151733 -120.4552 2312.0 1
63.825912 -119.6737 2297.0 1
87.14944 -118.840096 2281.0 1
110.187996 -118.0586 2266.0 1
133.7998 -118.0586 2266.0 1
157.41147 -118.0586 2266.0 1
179.90471 -117.3292 2252.0 1
203.37064 -117.3292 2252.0 1
226.83643 -117.3292 2252.0 1
251.8584 -118.0586 2266.0 1
277.29355 -118.840096 2281.0 1
301.06152 -118.840096 2281.0 1
333.65884 -122.0703 2343.0 1
358.07285 -122.0703 2343.0 1
382.487 -122.0703 2343.0 1
409.67966 -122.9039 2359.0 1
-143.8794 -161.86426 2589.0 1
-116.90199 -161.86426 2589.0 1
-89.9246 -161.86426 2589.0 1
-62.9472 -161.86426 2589.0 1
-8.367291 -150.61066 2409.0 1
16.387249 -147.48465 2359.0 1
40.41223 -145.48401 2327.0 1
64.242714 -144.54622 2312.0 1
87.76074 -143.60841 2297.0 1
110.9174 -142.6081 2281.0 1
134.6855 -142.6081 2281.0 1
157.41147 -141.67029 2266.0 1
181.02312 -141.67029 2266.0 1
204.63493 -141.67029 2266.0 1
228.2466 -141.67029 2266.0 1
253.5256 -142.6081 2281.0 1
281.06213 -144.54622 2312.0 1
307.1329 -145.48401 2327.0 1
340.63678 -149.54782 2392.0 1
363.11612 -148.5475 2376.0 1
390.48608 -149.54782 2392.0 1
415.41064 -149.54782 2392.0 1
443.46472 -150.61066 2409.0 1
-172.17657 -190.3004 2609.0 1
-143.8794 -188.8416 2589.0 1
-116.90199 -188.8416 2589.0 1
-89.9246 -188.8416 2589.0 1
-62.023296 -186.06989 2551.0 1
-8.485386 -178.19237 2443.0 1
16.61649 -174.47243 2392.0 1
40.690098 -170.89838 2343.0 1
64.65951 -169.73132 2327.0 1
87.76074 -167.54314 2297.0 1
110.9174 -166.3761 2281.0 1
134.6855 -166.3761 2281.0 1
158.45346 -166.3761 2281.0 1
181.02312 -165.282 2266.0 1
204.63493 -165.282 2266.0 1
229.75749 -166.3761 2281.0 1
256.97116 -168.63724 2312.0 1
284.8307 -170.89838 2343.0 1
313.60025 -173.30539 2376.0 1
340.63678 -174.47243 2392.0 1
368.1594 -175.7124 2409.0 1
390.48608 -174.47243 2392.0 1
418.363 -175.7124 2409.0 1
440.33524 -174.47243 2392.0 1
-172.17657 -217.48628 2609.0 1
-143.8794 -215.81909 2589.0 1
-116.90199 -215.81909 2589.0 1
-89.9246 -215.81909 2589.0 1
-8.485386 -203.64853 2443.0 1
16.734583 -200.81429 2409.0 1
40.690098 -195.31253 2343.0 1
64.65951 -193.97876 2327.0 1
88.33384 -192.72836 2312.0 1
111.69542 -191.47797 2297.0 1
135.63025 -191.47797 2297.0 1
159.56493 -191.47797 2297.0 1
182.22142 -190.1442 2281.0 1
207.43443 -191.47797 2297.0 1
232.88002 -192.72836 2312.0 1
258.63834 -193.97876 2327.0 1
286.77576 -196.64629 2359.0 1
315.71204 -199.39717 2392.0 1
368.1594 -200.81429 2409.0 1
393.2613 -200.81429 2409.0 1
418.363 -200.81429 2409.0 1
-199.36237 -244.67204 2609.0 1
-172.17657 -244.67204 2609.0 1
-143.8794 -242.79645 2589.0 1
-117.80506 -244.67204 2609.0 1
-90.61926 -244.67204 2609.0 1
-8.485386 -229.10455 2443.0 1
16.734583 -225.91605 2409.0 1
40.967964 -221.22704 2359.0 1
64.65951 -218.22607 2327.0 1
88.33384 -216.81938 2312.0 1
110.9174 -213.9122 2281.0 1
134.6855 -213.9122 2281.0 1
158.45346 -213.9122 2281.0 1
183.4996 -215.41267 2297.0 1
208.78905 -216.81938 2312.0 1
234.39091 -218.22607 2327.0 1
260.4167 -219.72656 2343.0 1
288.8424 -222.8213 2376.0 1
315.71204 -224.32178 2392.0 1
373.3555 -229.10455 2443.0 1
393.2613 -225.91605 2409.0 1
421.31534 -227.5103 2426.0 1
443.46472 -225.91605 2409.0 1
-199.36237 -271.8578 2609.0 1
-170.8567 -269.7738 2589.0 1
-144.99086 -271.8578 2609.0 1
-117.80506 -271.8578 2609.0 1
-8.544433 -256.332 2460.0 1
16.61649 -249.2464 2392.0 1
41.2632 -247.5792 2376.0 1
64.65951 -242.47339 2327.0 1
88.906944 -242.47339 2327.0 1
112.42482 -240.9104 2312.0 1
136.51595 -240.9104 2312.0 1
159.56493 -239.3474 2297.0 1
184.6979 -240.9104 2312.0 1
210.14365 -242.47339 2327.0 1
236.00255 -244.1406 2343.0 1
260.4167 -244.1406 2343.0 1
292.8541 -251.01779 2409.0 1
317.9558 -251.01779 2409.0 1
375.95355 -256.332 2460.0 1
401.58685 -256.332 2460.0 1
424.26767 -254.5606 2443.0 1
443.46472 -251.01779 2409.0 1
-231.75816 -305.92075 2669.0 1
-199.36237 -299.04355 2609.0 1
-172.17657 -299.04355 2609.0 1
-143.8794 -296.75116 2589.0 1
-8.669473 -286.0915 2496.0 1
16.734583 -276.11954 2409.0 1
40.967964 -270.38855 2359.0 1
65.104095 -268.55463 2343.0 1
88.906944 -266.7207 2327.0 1
113.15422 -266.7207 2327.0 1
136.51595 -265.0014 2312.0 1
160.60693 -265.0014 2312.0 1
185.89621 -266.7207 2327.0 1
210.14365 -266.7207 2327.0 1
237.61417 -270.38855 2359.0 1
262.19504 -270.38855 2359.0 1
290.78748 -274.17102 2392.0 1
320.1996 -278.06808 2426.0 1
378.70444 -284.02832 2478.0 1
401.58685 -281.96518 2460.0 1
421.31534 -278.06808 2426.0 1
443.46472 -276.11954 2409.0 1
-228.28484 -328.7301 2629.0 1
-199.36237 -326.2293 2609.0 1
-172.17657 -326.2293 2609.0 1
-35.177887 -316.60123 2532.0 1
-8.731993 -314.3505 2514.0 1
16.852676 -303.347 2426.0 1
41.541065 -299.09564 2392.0 1
65.54868 -294.9693 2359.0 1
89.51825 -292.96866 2343.0 1
113.93224 -292.96866 2343.0 1
137.40166 -290.96802 2327.0 1
161.64893 -290.96802 2327.0 1
185.89621 -290.96802 2327.0 1
211.58855 -292.96866 2343.0 1
236.00255 -292.96866 2343.0 1
264.08453 -297.095 2376.0 1
292.8541 -301.2213 2409.0 1
317.9558 -301.2213 2409.0 1
378.70444 -309.84906 2478.0 1
401.58685 -307.59836 2460.0 1
424.26767 -305.47266 2443.0 1
452.85312 -307.59836 2460.0 1
-228.28484 -356.1244 2629.0 1
-199.36237 -353.4152 2609.0 1
-172.17657 -353.4152 2609.0 1
-35.177887 -342.98477 2532.0 1
-8.606953 -335.66992 2478.0 1
16.970772 -330.92883 2443.0 1
41.541065 -324.02036 2392.0 1
66.02106 -321.853 2376.0 1
90.129555 -319.55017 2359.0 1
113.93224 -317.3828 2343.0 1
138.3464 -317.3828 2343.0 1
162.76039 -317.3828 2343.0 1
187.1744 -317.3828 2343.0 1
211.58855 -317.3828 2343.0 1
239.32652 -321.853 2376.0 1
265.86288 -324.02036 2392.0 1
292.8541 -326.32318 2409.0 1
320.1996 -328.626 2426.0 1
401.58685 -333.23163 2460.0 1
427.22 -333.23163 2460.0 1
449.72366 -330.92883 2443.0 1
-226.54816 -380.60095 2609.0 1
-199.36237 -380.60095 2609.0 1
-36.247673 -380.60095 2609.0 1
-8.731993 -366.74234 2514.0 1
17.088865 -358.8648 2460.0 1
41.8363 -351.42493 2409.0 1
66.465645 -348.94498 2392.0 1
90.77907 -346.6109 2376.0 1
115.53693 -346.6109 2376.0 1
138.3464 -341.79684 2343.0 1
162.76039 -341.79684 2343.0 1
188.45258 -344.13095 2359.0 1
214.56866 -346.6109 2376.0 1
240.93816 -348.94498 2392.0 1
267.75238 -351.42493 2409.0 1
292.8541 -351.42493 2409.0 1
322.44336 -356.38486 2443.0 1
404.5253 -361.49066 2478.0 1
427.22 -358.8648 2460.0 1
-257.62408 -414.0387 2649.0 1
-226.54816 -407.78668 2609.0 1
-199.36237 -407.78668 2609.0 1
-172.17657 -407.78668 2609.0 1
-35.44186 -398.72128 2551.0 1
-8.731993 -392.9382 2514.0 1
17.213905 -387.3114 2478.0 1
42.722 -384.498 2460.0 1
66.93801 -376.5267 2409.0 1
92.03989 -376.5267 2409.0 1
116.31495 -373.8696 2392.0 1
140.29494 -371.3688 2376.0 1
163.87186 -368.7117 2359.0 1
189.81065 -371.3688 2376.0 1
216.01358 -373.8696 2392.0 1
242.6505 -376.5267 2409.0 1
267.75238 -376.5267 2409.0 1
294.92072 -379.1838 2426.0 1
322.44336 -381.84088 2443.0 1
404.5253 -387.3114 2478.0 1
430.34598 -387.3114 2478.0 1
-257.62408 -441.64124 2649.0 1
-226.54816 -434.97244 2609.0 1
-199.36237 -434.97244 2609.0 1
-172.17657 -434.97244 2609.0 1
-35.177887 -422.135 2532.0 1
-8.731993 -419.13403 2514.0 1
17.338945 -416.1331 2496.0 1
42.722 -410.13116 2460.0 1
67.88276 -407.29694 2443.0 1
92.03989 -401.62845 2409.0 1
117.14161 -401.62845 2409.0 1
142.24348 -401.62845 2409.0 1
166.16426 -398.79422 2392.0 1
191.08884 -398.79422 2392.0 1
216.01358 -398.79422 2392.0 1
242.6505 -401.62845 2409.0 1
267.75238 -401.62845 2409.0 1
294.92072 -404.46268 2426.0 1
317.9558 -401.62845 2409.0 1
407.46375 -416.1331 2496.0 1
430.34598 -413.13214 2478.0 1
446.59418 -404.46268 2426.0 1
-257.62408 -469.2438 2649.0 1
-228.28484 -465.701 2629.0 1
-200.89062 -465.701 2629.0 1
-170.8567 -458.6154 2589.0 1
-35.44186 -451.8841 2551.0 1
-8.731993 -445.3299 2514.0 1
17.463985 -445.3299 2514.0 1
43.0346 -438.95285 2478.0 1
67.88276 -432.75296 2443.0 1
92.68941 -429.74158 2426.0 1
117.14161 -426.7302 2409.0 1
142.24348 -426.7302 2409.0 1
167.3452 -426.7302 2409.0 1
192.44691 -426.7302 2409.0 1
217.54878 -426.7302 2409.0 1
242.6505 -426.7302 2409.0 1
267.75238 -426.7302 2409.0 1
296.98737 -432.75296 2443.0 1
322.44336 -432.75296 2443.0 1
407.46375 -442.1414 2496.0 1
433.472 -442.1414 2496.0 1
-255.67903 -493.09528 2629.0 1
-230.0215 -496.8465 2649.0 1
-202.4189 -496.8465 2649.0 1
-35.705833 -482.02924 2570.0 1
-8.794514 -474.90195 2532.0 1
17.589027 -474.90195 2532.0 1
43.0346 -464.7737 2478.0 1
68.35513 -461.39764 2460.0 1
93.33892 -458.2091 2443.0 1
117.96826 -455.0206 2426.0 1
142.24348 -451.8321 2409.0 1
167.3452 -451.8321 2409.0 1
192.44691 -451.8321 2409.0 1
217.54878 -451.8321 2409.0 1
240.93816 -448.64355 2392.0 1
267.75238 -451.8321 2409.0 1
296.98737 -458.2091 2443.0 1
404.5253 -464.7737 2478.0 1
433.472 -468.1498 2496.0 1
-226.54816 -516.52985 2609.0 1
-199.36237 -516.52985 2609.0 1
-35.44186 -505.047 2551.0 1
-8.794514 -501.28537 2532.0 1
17.589027 -501.28537 2532.0 1
43.3472 -494.15808 2496.0 1
68.35513 -487.03082 2460.0 1
93.33892 -483.66516 2443.0 1
117.96826 -480.2995 2426.0 1
143.24727 -480.2995 2426.0 1
167.3452 -476.93384 2409.0 1
191.08884 -473.56818 2392.0 1
216.01358 -473.56818 2392.0 1
240.93816 -473.56818 2392.0 1
267.75238 -476.93384 2409.0 1
296.98737 -483.66516 2443.0 1
386.9571 -501.28537 2532.0 1
407.46375 -494.15808 2496.0 1
433.472 -494.15808 2496.0 1
-35.705833 -535.588 2570.0 1
-8.860507 -531.6284 2551.0 1
17.721014 -531.6284 2551.0 1
43.9724 -527.66876 2532.0 1
68.85529 -516.41516 2478.0 1
93.988434 -512.664 2460.0 1
118.794914 -509.1212 2443.0 1
142.24348 -502.03558 2409.0 1
167.3452 -502.03558 2409.0 1
191.08884 -498.4928 2392.0 1
216.01358 -498.4928 2392.0 1
240.93816 -498.4928 2392.0 1
267.75238 -502.03558 2409.0 1
294.92072 -505.5784 2426.0 1
386.9571 -527.66876 2532.0 1
410.4022 -523.9176 2514.0 1
436.598 -523.9176 2514.0 1
-35.969807 -566.52496 2589.0 1
-8.9265 -562.3674 2570.0 1
17.853 -562.3674 2570.0 1
44.302364 -558.2098 2551.0 1
70.355774 -554.0522 2532.0 1
94.67615 -542.2359 2478.0 1
118.794914 -534.5772 2443.0 1
141.23969 -523.4174 2392.0 1
167.3452 -527.1373 2409.0 1
191.08884 -523.4174 2392.0 1
216.01358 -523.4174 2392.0 1
240.93816 -523.4174 2392.0 1
267.75238 -527.1373 2409.0 1
294.92072 -530.8573 2426.0 1
365.98517 -562.3674 2570.0 1
381.45532 -546.1747 2496.0 1
410.4022 -550.11346 2514.0 1
436.598 -550.11346 2514.0 1
-36.247673 -598.0871 2609.0 1
-8.992495 -593.5023 2589.0 1
17.98499 -593.5023 2589.0 1
44.63233 -589.1467 2570.0 1
71.41167 -589.1467 2570.0 1
96.73931 -580.4356 2532.0 1
120.49684 -568.05664 2478.0 1
143.24727 -556.13617 2426.0 1
167.3452 -552.2391 2409.0 1
191.08884 -548.34204 2392.0 1
214.56866 -544.6742 2376.0 1
240.93816 -548.34204 2392.0 1
267.75238 -552.2391 2409.0 1
386.9571 -580.4356 2532.0 1
410.4022 -576.3093 2514.0 1
439.724 -580.4356 2532.0 1
-36.247673 -625.273 2609.0 1
-9.061961 -625.273 2609.0 1
18.123922 -625.273 2609.0 1
45.30963 -625.273 2609.0 1
72.495346 -625.273 2609.0 1
98.91709 -620.4798 2589.0 1
120.49684 -593.8775 2478.0 1
143.24727 -581.4152 2426.0 1
167.3452 -577.341 2409.0 1
191.08884 -573.2668 2392.0 1
216.01358 -573.2668 2392.0 1
240.93816 -573.2668 2392.0 1
267.75238 -577.341 2409.0 1
294.92072 -581.4152 2426.0 1
389.86078 -611.3727 2551.0 1
419.544 -615.9263 2570.0 1
-9.061961 -652.45874 2609.0 1
18.262856 -657.4603 2629.0 1
45.30963 -652.45874 2609.0 1
73.05108 -657.4603 2629.0 1
100.44536 -657.4603 2629.0 1
121.37212 -624.1997 2496.0 1
143.24727 -606.6941 2426.0 1
167.3452 -602.44275 2409.0 1
191.08884 -598.19135 2392.0 1
216.01358 -598.19135 2392.0 1
240.93816 -598.19135 2392.0 1
269.64188 -606.6941 2426.0 1
-9.200895 -690.0645 2649.0 1
18.40179 -690.0645 2649.0 1
45.656967 -684.8545 2629.0 1
73.05108 -684.8545 2629.0 1
101.973625 -695.2745 2669.0 1
120.49684 -645.519 2478.0 1
143.24727 -631.97296 2426.0 1
167.3452 -627.5445 2409.0 1
191.08884 -623.11597 2392.0 1
214.56866 -618.948 2376.0 1
240.93816 -623.11597 2392.0 1
267.75238 -627.5445 2409.0 1
-9.270362 -723.08545 2669.0 1
18.540724 -723.08545 2669.0 1
46.35163 -723.08545 2669.0 1
74.74606 -728.7748 2690.0 1
102.77597 -728.7748 2690.0 1
120.49684 -671.3397 2478.0 1
143.24727 -657.2519 2426.0 1
167.3452 -652.64624 2409.0 1
191.08884 -648.0406 2392.0 1
216.01358 -648.0406 2392.0 1
240.93816 -648.0406 2392.0 1
265.86288 -648.0406 2392.0 1
-9.343302 -756.8045 2690.0 1
18.832485 -762.71265 2711.0 1
47.08103 -762.71265 2711.0 1
75.32958 -762.71265 2711.0 1
103.57831 -762.71265 2711.0 1
119.62157 -692.0963 2460.0 1
142.24348 -677.748 2409.0 1
167.3452 -677.748 2409.0 1
191.08884 -672.9652 2392.0 1
216.01358 -672.9652 2392.0 1
242.6505 -677.748 2409.0 1
18.985312 -797.3801 2733.0 1
47.4631 -797.3801 2733.0 1
75.94089 -797.3801 2733.0 1
104.41885 -797.3801 2733.0 1
117.96826 -707.8098 2426.0 1
142.24348 -702.84985 2409.0 1
166.16426 -697.88995 2392.0 1
191.08884 -697.88995 2392.0 1
216.01358 -697.88995 2392.0 1
242.6505 -702.84985 2409.0 1
265.86288 -697.88995 2392.0 1
19.131193 -832.20374 2754.0 1
47.8278 -832.20374 2754.0 1
77.1635 -839.1539 2777.0 1
106.099945 -839.1539 2777.0 1
118.794914 -738.22577 2443.0 1
142.24348 -727.95166 2409.0 1
167.3452 -727.95166 2409.0 1
192.44691 -727.95166 2409.0 1
217.54878 -727.95166 2409.0 1
240.93816 -722.8146 2392.0 1
19.443794 -874.9674 2799.0 1
48.6093 -874.9674 2799.0 1
77.7748 -874.9674 2799.0 1
105.22119 -860.9004 2754.0 1
121.37212 -780.2496 2496.0 1
142.24348 -753.0534 2409.0 1
167.3452 -753.0534 2409.0 1
192.44691 -753.0534 2409.0 1
217.54878 -753.0534 2409.0 1
240.93816 -747.7392 2392.0 1
49.00873 -911.5624 2822.0 1
78.413895 -911.5624 2822.0 1
106.9405 -904.13293 2799.0 1
119.62157 -794.62915 2460.0 1
143.24727 -783.6465 2426.0 1
166.16426 -772.6638 2392.0 1
192.44691 -778.15515 2409.0 1
217.54878 -778.15515 2409.0 1
244.36285 -783.6465 2426.0 1
49.824966 -956.6393 2869.0 1
79.71987 -956.6393 2869.0 1
108.698006 -948.6367 2845.0 1
119.62157 -820.2623 2460.0 1
143.24727 -808.92535 2426.0 1
167.3452 -803.2569 2409.0 1
192.44691 -803.2569 2409.0 1
219.084 -808.92535 2426.0 1
249.60065 -826.2643 2478.0 1
50.241764 -994.78705 2893.0 1
80.38675 -994.78705 2893.0 1
109.61496 -986.53436 2869.0 1
120.49684 -852.08514 2478.0 1
144.25107 -840.05 2443.0 1
167.3452 -828.35876 2409.0 1
192.44691 -828.35876 2409.0 1
220.61922 -840.05 2443.0 1
249.60065 -852.08514 2478.0 1
50.658566 -1033.4348 2917.0 1
80.38675 -1024.932 2893.0 1
110.53192 -1024.932 2893.0 1
120.49684 -877.9058 2478.0 1
145.25487 -871.5288 2460.0 1
168.52612 -859.4833 2426.0 1
193.805 -859.4833 2426.0 1
222.15443 -871.5288 2460.0 1
247.78757 -871.5288 2460.0 1
50.658566 -1063.8298 2917.0 1
80.38675 -1055.077 2893.0 1
111.44888 -1063.8298 2917.0 1
121.37212 -910.2912 2496.0 1
145.25487 -897.162 2460.0 1
169.70706 -890.9621 2443.0 1
195.16306 -890.9621 2443.0 1
222.15443 -897.162 2460.0 1
249.60065 -903.72656 2478.0 1
50.658566 -1094.225 2917.0 1
80.38675 -1085.2222 2893.0 1
111.44888 -1094.225 2917.0 1
124.04659 -956.9311 2551.0 1
149.50623 -949.8038 2532.0 1
172.1384 -929.5473 2478.0 1
197.95909 -929.5473 2478.0 1
223.77995 -929.5473 2478.0 1
255.03989 -949.8038 2532.0 1
20.791452 -1153.9211 2993.0 1
51.09273 -1134.2585 2942.0 1
80.38675 -1115.3672 2893.0 1
113.359215 -1143.8971 2967.0 1
126.866936 -1005.8738 2609.0 1
150.62811 -983.51245 2551.0 1
175.8896 -976.1872 2532.0 1
200.835 -969.2475 2514.0 1
227.03099 -969.2475 2514.0 1
-10.395726 -1185.1083 2993.0 1
20.43717 -1164.9143 2942.0 1
50.658566 -1155.0154 2917.0 1
81.74829 -1164.9143 2942.0 1
113.359215 -1174.8134 2967.0 1
127.83947 -1040.9789 2629.0 1
152.87189 -1025.1405 2589.0 1
177.20946 -1010.094 2551.0 1
202.27296 -1002.57074 2532.0 1
228.65651 -1002.57074 2532.0 1
-41.22148 -1205.7295 2967.0 1
-10.131752 -1185.4105 2917.0 1
20.263504 -1185.4105 2917.0 1
51.09273 -1195.57 2942.0 1
81.05363 -1185.4105 2917.0 1
113.359215 -1205.7295 2967.0 1
128.812 -1076.5006 2649.0 1
154.05283 -1060.2455 2609.0 1
179.8492 -1052.1178 2589.0 1
203.79082 -1036.6754 2551.0 1
235.61012 -1060.2455 2609.0 1
