ply
format ascii 1.0
comment : created from Kinect user tracker
element vertex 683
property float x
property float y
property float z
property int userId
end_header
1001.2334 451.88416 2551.0 1
1035.4701 455.24982 2570.0 1
1054.3962 451.88416 2551.0 1
977.05914 438.30685 2629.0 1
1001.2334 425.30267 2551.0 1
1020.15967 422.135 2532.0 1
1046.5431 422.135 2532.0 1
1057.6718 416.1331 2496.0 1
977.05914 410.9127 2629.0 1
981.9113 401.69098 2570.0 1
1001.2334 398.72128 2551.0 1
1020.15967 395.7516 2532.0 1
1039.1031 392.9382 2514.0 1
1065.2992 392.9382 2514.0 1
1091.495 392.9382 2514.0 1
962.1933 377.68335 2589.0 1
996.8119 380.60095 2609.0 1
1008.6907 374.91162 2570.0 1
1027.815 372.1399 2551.0 1
1039.1031 366.74234 2514.0 1
1057.6718 364.1165 2496.0 1
1091.495 366.74234 2514.0 1
1142.5876 374.91162 2570.0 1
977.05914 356.12433 2629.0 1
1004.45325 356.12433 2629.0 1
1016.1479 350.70593 2589.0 1
1020.15967 342.9847 2532.0 1
1039.1031 340.54642 2514.0 1
1065.2992 340.54642 2514.0 1
1099.3099 342.9847 2532.0 1
1134.1405 345.55844 2551.0 1
1007.5342 338.98346 2711.0 1
1004.45325 328.73016 2629.0 1
1008.6907 321.3528 2570.0 1
1027.815 318.97705 2551.0 1
1046.5431 316.6013 2532.0 1
1080.9778 318.97705 2551.0 1
1107.5592 318.97705 2551.0 1
1142.5876 321.3528 2570.0 1
991.925 305.92075 2669.0 1
1012.0946 303.62836 2649.0 1
1008.6907 294.57336 2570.0 1
1027.815 292.3956 2551.0 1
1039.1031 288.15466 2514.0 1
1080.9778 292.3956 2551.0 1
1115.8083 294.57336 2570.0 1
1159.9265 299.04355 2609.0 1
1196.2125 301.33594 2629.0 1
1035.7827 282.4862 2711.0 1
1031.8474 273.9418 2629.0 1
1035.4701 267.794 2570.0 1
1054.3962 265.8142 2551.0 1
1080.9778 265.8142 2551.0 1
1115.8083 267.794 2570.0 1
1159.9265 271.8578 2609.0 1
1014.8837 271.30557 2893.0 1
1036.3593 269.05484 2869.0 1
1048.787 264.6472 2822.0 1
1060.9991 260.4271 2777.0 1
1047.5469 250.29884 2669.0 1
1035.4701 241.01462 2570.0 1
1054.3962 239.2328 2551.0 1
1080.9778 239.2328 2551.0 1
1141.4242 246.54764 2629.0 1
1168.8182 246.54764 2629.0 1
984.7385 241.16046 2893.0 1
989.97644 235.2419 2822.0 1
1019.3816 235.2419 2822.0 1
1032.0629 231.4907 2777.0 1
1044.1882 227.82286 2733.0 1
1072.666 227.82286 2733.0 1
1075.3579 222.48782 2669.0 1
1086.6357 219.15343 2629.0 1
1114.03 219.15343 2629.0 1
1150.1074 220.82062 2649.0 1
1168.8182 219.15343 2629.0 1
1196.2125 219.15343 2629.0 1
1223.6067 219.15343 2629.0 1
1251.001 219.15343 2629.0 1
984.7385 211.01543 2893.0 1
989.97644 205.83669 2822.0 1
1003.1264 202.5544 2777.0 1
1015.7104 199.34503 2733.0 1
1035.7827 197.74036 2711.0 1
1064.0312 197.74036 2711.0 1
1083.819 196.2086 2690.0 1
1094.9023 193.21806 2649.0 1
1122.505 193.21806 2649.0 1
1150.1074 193.21806 2649.0 1
1168.8182 191.75926 2629.0 1
1196.2125 191.75926 2629.0 1
1223.6067 191.75926 2629.0 1
1241.484 190.30048 2609.0 1
1288.1204 193.21806 2649.0 1
938.7551 177.86937 2845.0 1
976.5693 179.36984 2869.0 1
981.9079 174.99345 2799.0 1
1003.1264 173.61801 2777.0 1
1015.7104 170.86713 2733.0 1
1035.7827 169.49168 2711.0 1
1064.0312 169.49168 2711.0 1
1075.3579 166.86584 2669.0 1
1094.9023 165.61545 2649.0 1
1122.505 165.61545 2649.0 1
1141.4242 164.36505 2629.0 1
1168.8182 164.36505 2629.0 1
1187.1124 163.11465 2609.0 1
1204.9896 161.86426 2589.0 1
1231.967 161.86426 2589.0 1
1268.6697 163.11465 2609.0 1
1295.8555 163.11465 2609.0 1
962.51276 151.9757 2917.0 1
968.39996 148.2245 2845.0 1
981.9079 145.8279 2799.0 1
994.8182 143.4834 2754.0 1
1015.7104 142.3893 2733.0 1
1035.7827 141.2431 2711.0 1
1055.7891 140.149 2690.0 1
1067.2998 138.0129 2649.0 1
1086.6357 136.9709 2629.0 1
1114.03 136.9709 2629.0 1
1132.7408 135.9289 2609.0 1
1168.8182 136.9709 2629.0 1
1178.0123 134.8869 2589.0 1
1196.1465 133.897 2570.0 1
1222.926 133.897 2570.0 1
1258.9443 134.8869 2589.0 1
1276.4846 133.897 2570.0 1
970.7619 122.62259 2942.0 1
968.39996 118.57963 2845.0 1
981.9079 116.662346 2799.0 1
987.2324 113.91147 2733.0 1
1015.7104 113.91147 2733.0 1
1035.7827 112.99451 2711.0 1
1039.6971 110.41035 2649.0 1
1067.2998 110.41035 2649.0 1
1094.9023 110.41035 2649.0 1
1114.03 109.576744 2629.0 1
1132.7408 108.74314 2609.0 1
1159.9265 108.74314 2609.0 1
1187.1124 108.74314 2609.0 1
1196.1465 107.11762 2570.0 1
1222.926 107.11762 2570.0 1
1258.9443 107.909546 2589.0 1
1285.9216 107.909546 2589.0 1
1353.4677 111.24394 2669.0 1
970.7619 91.9669 2942.0 1
976.5693 89.68492 2869.0 1
974.1901 86.809006 2777.0 1
987.2324 85.43356 2733.0 1
1007.5342 84.74584 2711.0 1
1035.7827 84.74584 2711.0 1
1047.5469 83.43292 2669.0 1
1075.3579 83.43292 2669.0 1
1086.6357 82.182526 2629.0 1
1114.03 82.182526 2629.0 1
1132.7408 81.55733 2609.0 1
1151.0348 80.93213 2589.0 1
1169.3672 80.33819 2570.0 1
1196.1465 80.33819 2570.0 1
1213.8849 79.74425 2551.0 1
1268.6697 81.55733 2609.0 1
1285.9216 80.93213 2589.0 1
1343.3256 82.807724 2649.0 1
999.8616 65.208374 3129.0 1
987.5902 62.374134 2993.0 1
992.90784 60.790295 2917.0 1
966.1216 57.39337 2754.0 1
987.2324 56.955734 2733.0 1
1007.5342 56.497253 2711.0 1
1035.7827 56.497253 2711.0 1
1047.5469 55.62197 2669.0 1
1075.3579 55.62197 2669.0 1
1086.6357 54.788372 2629.0 1
1114.03 54.788372 2629.0 1
1132.7408 54.37157 2609.0 1
1151.0348 53.954773 2589.0 1
1178.0123 53.954773 2589.0 1
1204.9896 53.954773 2589.0 1
1222.926 53.55881 2570.0 1
1268.6697 54.37157 2609.0 1
1285.9216 53.954773 2589.0 1
1323.0413 54.37157 2609.0 1
964.7114 31.457949 3019.0 1
987.5902 31.187029 2993.0 1
1001.4175 30.655611 2942.0 1
974.1901 28.936312 2777.0 1
987.2324 28.477833 2733.0 1
1015.7104 28.477833 2733.0 1
1027.7593 28.029772 2690.0 1
1039.6971 27.602552 2649.0 1
1067.2998 27.602552 2649.0 1
1094.9023 27.602552 2649.0 1
1114.03 27.394154 2629.0 1
1132.7408 27.185753 2609.0 1
1151.0348 26.977354 2589.0 1
1178.0123 26.977354 2589.0 1
1214.2981 27.185753 2609.0 1
1231.967 26.977354 2589.0 1
1268.6697 27.185753 2609.0 1
1285.9216 26.977354 2589.0 1
1312.8992 26.977354 2589.0 1
964.7114 0.0 3019.0 1
987.5902 0.0 2993.0 1
1001.4175 0.0 2942.0 1
981.9079 0.0 2799.0 1
994.8182 0.0 2754.0 1
1015.7104 0.0 2733.0 1
1035.7827 0.0 2711.0 1
1055.7891 0.0 2690.0 1
1067.2998 0.0 2649.0 1
1086.6357 0.0 2629.0 1
1105.555 0.0 2609.0 1
1132.7408 0.0 2609.0 1
1151.0348 0.0 2589.0 1
1187.1124 0.0 2609.0 1
1223.6067 0.0 2629.0 1
1251.001 0.0 2629.0 1
1268.6697 0.0 2609.0 1
1285.9216 0.0 2589.0 1
958.60175 -32.31239 3101.0 1
964.7114 -31.457949 3019.0 1
996.1694 -31.457949 3019.0 1
992.90784 -30.395111 2917.0 1
989.97644 -29.40521 2822.0 1
994.8182 -28.696651 2754.0 1
1015.7104 -28.477833 2733.0 1
1035.7827 -28.248592 2711.0 1
1055.7891 -28.029772 2690.0 1
1075.3579 -27.810953 2669.0 1
1086.6357 -27.394154 2629.0 1
1114.03 -27.394154 2629.0 1
1141.4242 -27.394154 2629.0 1
1168.8182 -27.394154 2629.0 1
1205.3126 -27.602552 2649.0 1
1232.9152 -27.602552 2649.0 1
1251.001 -27.394154 2629.0 1
1288.1204 -27.602552 2649.0 1
1285.9216 -26.977354 2589.0 1
917.9256 -64.04126 3073.0 1
949.94617 -64.04126 3073.0 1
981.967 -64.04126 3073.0 1
996.1694 -62.915897 3019.0 1
984.7385 -60.290062 2893.0 1
989.97644 -58.81042 2822.0 1
1003.1264 -57.872623 2777.0 1
1015.7104 -56.955666 2733.0 1
1035.7827 -56.497185 2711.0 1
1055.7891 -56.059544 2690.0 1
1075.3579 -55.621906 2669.0 1
1094.9023 -55.205105 2649.0 1
1114.03 -54.788307 2629.0 1
1150.1074 -55.205105 2649.0 1
1177.71 -55.205105 2649.0 1
1214.4128 -55.621906 2669.0 1
1251.9977 -56.059544 2690.0 1
1260.5178 -55.205105 2649.0 1
1278.395 -54.788307 2629.0 1
1305.7892 -54.788307 2629.0 1
909.86053 -95.21802 3046.0 1
941.5998 -95.21802 3046.0 1
973.33923 -95.21802 3046.0 1
968.39996 -88.93475 2845.0 1
989.97644 -88.215775 2822.0 1
1003.1264 -86.809074 2777.0 1
1015.7104 -85.43363 2733.0 1
1035.7827 -84.74591 2711.0 1
1064.0312 -84.74591 2711.0 1
1083.819 -84.089455 2690.0 1
1103.1688 -83.43299 2669.0 1
1122.505 -82.80779 2649.0 1
1150.1074 -82.80779 2649.0 1
1177.71 -82.80779 2649.0 1
1214.4128 -83.43299 2669.0 1
1261.7716 -84.74591 2711.0 1
1251.001 -82.182594 2629.0 1
1288.1204 -82.80779 2649.0 1
1295.8555 -81.55739 2609.0 1
1303.2642 -80.33825 2570.0 1
902.0489 -130.41675 3129.0 1
926.28937 -129.24971 3101.0 1
941.5998 -126.957306 3046.0 1
973.33923 -126.957306 3046.0 1
984.7385 -120.58027 2893.0 1
989.97644 -117.62099 2822.0 1
1003.1264 -115.745384 2777.0 1
1023.51495 -114.78674 2754.0 1
1044.1882 -113.91147 2733.0 1
1055.7891 -112.119225 2690.0 1
1075.3579 -111.24394 2669.0 1
1103.1688 -111.24394 2669.0 1
1130.9799 -111.24394 2669.0 1
1150.1074 -110.41035 2649.0 1
1195.938 -112.119225 2690.0 1
1223.9679 -112.119225 2690.0 1
1261.7716 -112.99451 2711.0 1
1251.001 -109.576744 2629.0 1
1278.395 -109.576744 2629.0 1
1305.7892 -109.576744 2629.0 1
1343.3256 -110.41035 2649.0 1
893.97687 -161.5621 3101.0 1
909.86053 -158.6966 3046.0 1
949.94617 -160.1033 3073.0 1
976.5693 -149.4749 2869.0 1
989.97644 -147.0262 2822.0 1
1003.1264 -144.6817 2777.0 1
1023.51495 -143.4834 2754.0 1
1044.1882 -142.3893 2733.0 1
1064.0312 -141.2431 2711.0 1
1092.28 -141.2431 2711.0 1
1111.8486 -140.149 2690.0 1
1130.9799 -139.0549 2669.0 1
1167.9083 -140.149 2690.0 1
1186.6017 -139.0549 2669.0 1
1233.5231 -141.2431 2711.0 1
1261.7716 -141.2431 2711.0 1
1251.001 -136.9709 2629.0 1
1288.1204 -138.0129 2649.0 1
1305.7892 -136.9709 2629.0 1
1333.1835 -136.9709 2629.0 1
869.44476 -195.62505 3129.0 1
885.90485 -192.12393 3073.0 1
917.9256 -192.12393 3073.0 1
984.7385 -180.87033 2893.0 1
989.97644 -176.43141 2822.0 1
1011.07336 -174.99345 2799.0 1
1023.51495 -172.18005 2754.0 1
1044.1882 -170.86713 2733.0 1
1064.0312 -169.49168 2711.0 1
1101.1439 -170.86713 2733.0 1
1120.5286 -169.49168 2711.0 1
1148.7772 -169.49168 2711.0 1
1177.0258 -169.49168 2711.0 1
1205.2744 -169.49168 2711.0 1
1233.5231 -169.49168 2711.0 1
1261.7716 -169.49168 2711.0 1
1270.0348 -166.86584 2669.0 1
1297.8457 -166.86584 2669.0 1
1315.7229 -165.61545 2649.0 1
1323.0413 -163.11465 2609.0 1
861.6645 -226.18687 3101.0 1
885.90485 -224.14456 3073.0 1
970.7619 -214.58942 2942.0 1
984.7385 -211.01537 2893.0 1
989.97644 -205.83662 2822.0 1
1011.07336 -204.159 2799.0 1
1023.51495 -200.87671 2754.0 1
1044.1882 -199.34496 2733.0 1
1072.666 -199.34496 2733.0 1
1092.28 -197.74028 2711.0 1
1120.5286 -197.74028 2711.0 1
1158.0997 -199.34496 2733.0 1
1186.5775 -199.34496 2733.0 1
1205.2744 -197.74028 2711.0 1
1233.5231 -197.74028 2711.0 1
1272.011 -199.34496 2733.0 1
1251.001 -191.7592 2629.0 1
1288.1204 -193.218 2649.0 1
1315.7229 -193.218 2649.0 1
829.3522 -258.49942 3101.0 1
861.6645 -258.49942 3101.0 1
987.5902 -249.49654 2993.0 1
984.7385 -241.16054 2893.0 1
989.97644 -235.24197 2822.0 1
1011.07336 -233.32469 2799.0 1
1040.2391 -233.32469 2799.0 1
1052.2115 -229.57349 2754.0 1
1080.9082 -229.57349 2754.0 1
1092.28 -225.98901 2711.0 1
1129.6217 -227.82294 2733.0 1
1158.0997 -227.82294 2733.0 1
1186.5775 -227.82294 2733.0 1
1205.2744 -225.98901 2711.0 1
1243.5332 -227.82294 2733.0 1
1272.011 -227.82294 2733.0 1
1260.5178 -220.8207 2649.0 1
1288.1204 -220.8207 2649.0 1
1325.6566 -222.48788 2669.0 1
829.3522 -290.8118 3101.0 1
853.8843 -288.18597 3073.0 1
987.5902 -280.68356 2993.0 1
992.90784 -273.55627 2917.0 1
1006.46436 -269.05484 2869.0 1
1027.6898 -266.80414 2845.0 1
1048.787 -264.6472 2822.0 1
1060.9991 -260.4271 2777.0 1
1089.9354 -260.4271 2777.0 1
1101.1439 -256.30075 2733.0 1
1129.6217 -256.30075 2733.0 1
1158.0997 -256.30075 2733.0 1
1177.0258 -254.23761 2711.0 1
1215.0553 -256.30075 2733.0 1
1243.5332 -256.30075 2733.0 1
1232.9152 -248.42325 2649.0 1
1251.001 -246.54764 2629.0 1
1288.1204 -248.42325 2649.0 1
1315.7229 -248.42325 2649.0 1
821.86365 -320.2066 3073.0 1
861.6645 -323.1242 3101.0 1
987.5902 -311.8706 2993.0 1
992.90784 -303.9514 2917.0 1
1014.8837 -301.4506 2893.0 1
1027.6898 -296.449 2845.0 1
1040.2391 -291.6558 2799.0 1
1069.4045 -291.6558 2799.0 1
1080.9082 -286.9668 2754.0 1
1109.605 -286.9668 2754.0 1
1129.6217 -284.7786 2733.0 1
1158.0997 -284.7786 2733.0 1
1186.5775 -284.7786 2733.0 1
1215.0553 -284.7786 2733.0 1
1243.5332 -284.7786 2733.0 1
1232.9152 -276.0258 2649.0 1
1251.001 -273.9418 2629.0 1
1278.395 -273.9418 2629.0 1
1295.8555 -271.8578 2609.0 1
811.4331 -361.85532 3157.0 1
836.8407 -358.64594 3129.0 1
861.6645 -355.43658 3101.0 1
970.7619 -337.212 2942.0 1
992.90784 -334.3465 2917.0 1
1006.46436 -328.84476 2869.0 1
1027.6898 -326.09387 2845.0 1
1048.787 -323.4576 2822.0 1
1069.4045 -320.82135 2799.0 1
1089.9354 -318.2997 2777.0 1
1118.8718 -318.2997 2777.0 1
1129.6217 -313.25644 2733.0 1
1158.0997 -313.25644 2733.0 1
1186.5775 -313.25644 2733.0 1
1215.0553 -313.25644 2733.0 1
1233.5231 -310.7348 2711.0 1
1232.9152 -303.62836 2649.0 1
1251.001 -301.33594 2629.0 1
1288.1204 -303.62836 2649.0 1
829.3522 -387.74896 3101.0 1
853.8843 -384.24786 3073.0 1
970.7619 -367.8676 2942.0 1
992.90784 -364.7416 2917.0 1
1006.46436 -358.7397 2869.0 1
1019.3816 -352.86282 2822.0 1
1040.2391 -349.9869 2799.0 1
1069.4045 -349.9869 2799.0 1
1089.9354 -347.23602 2777.0 1
1109.605 -344.3601 2754.0 1
1138.3016 -344.3601 2754.0 1
1158.0997 -341.73425 2733.0 1
1195.695 -344.3601 2754.0 1
1224.3916 -344.3601 2754.0 1
1233.5231 -338.98337 2711.0 1
1223.6067 -328.7301 2629.0 1
1251.001 -328.7301 2629.0 1
964.7114 -408.9538 3019.0 1
979.0111 -401.90988 2967.0 1
1001.4175 -398.52338 2942.0 1
1023.30304 -395.13687 2917.0 1
1027.6898 -385.38376 2845.0 1
1048.787 -382.26816 2822.0 1
1069.4045 -379.1526 2799.0 1
1080.9082 -373.0569 2754.0 1
1101.1439 -370.21222 2733.0 1
1129.6217 -370.21222 2733.0 1
1148.7772 -367.23212 2711.0 1
1186.5775 -370.21222 2733.0 1
1224.3916 -373.0569 2754.0 1
1214.4128 -361.5428 2669.0 1
1223.6067 -356.1244 2629.0 1
1251.001 -356.1244 2629.0 1
956.40326 -436.61887 2993.0 1
987.5902 -436.61887 2993.0 1
1001.4175 -429.179 2942.0 1
1023.30304 -425.53198 2917.0 1
1036.3593 -418.52975 2869.0 1
1048.787 -411.67337 2822.0 1
1069.4045 -408.31815 2799.0 1
1080.9082 -401.75354 2754.0 1
1101.1439 -398.69006 2733.0 1
1129.6217 -398.69006 2733.0 1
1158.0997 -398.69006 2733.0 1
1186.5775 -398.69006 2733.0 1
1215.0553 -398.69006 2733.0 1
1205.3126 -386.43613 2649.0 1
1223.6067 -383.51852 2629.0 1
973.33923 -476.08978 3046.0 1
996.1694 -471.8697 3019.0 1
1018.7772 -467.80588 2993.0 1
1040.8434 -463.7421 2967.0 1
1045.0287 -452.1759 2893.0 1
1048.787 -441.07858 2822.0 1
1069.4045 -437.4837 2799.0 1
1072.666 -427.16788 2733.0 1
1101.1439 -427.16788 2733.0 1
1129.6217 -427.16788 2733.0 1
1158.0997 -427.16788 2733.0 1
1177.0258 -423.72928 2711.0 1
1195.938 -420.447 2690.0 1
1196.2125 -410.9127 2629.0 1
1223.6067 -410.9127 2629.0 1
996.1694 -503.32764 3019.0 1
1018.7772 -498.99292 2993.0 1
1049.9644 -498.99292 2993.0 1
1053.6981 -486.3222 2917.0 1
1048.787 -470.4838 2822.0 1
1060.9991 -462.9814 2777.0 1
1072.666 -455.64572 2733.0 1
1101.1439 -455.64572 2733.0 1
1120.5286 -451.97787 2711.0 1
1158.0997 -455.64572 2733.0 1
1158.7908 -444.97565 2669.0 1
1177.71 -441.64124 2649.0 1
1196.2125 -438.30685 2629.0 1
1214.2981 -434.97244 2609.0 1
996.1694 -534.7856 3019.0 1
1027.6272 -534.7856 3019.0 1
1049.9644 -530.17993 2993.0 1
1071.7595 -525.57434 2967.0 1
1048.787 -499.889 2822.0 1
1060.9991 -491.91772 2777.0 1
1072.666 -484.12357 2733.0 1
1109.605 -487.8435 2754.0 1
1129.6217 -484.12357 2733.0 1
1148.7772 -480.22647 2711.0 1
1150.1074 -469.2438 2649.0 1
1177.71 -469.2438 2649.0 1
1205.3126 -469.2438 2649.0 1
1223.6067 -465.701 2629.0 1
1013.98755 -576.37195 3073.0 1
1027.6272 -566.2437 3019.0 1
1059.0853 -566.2437 3019.0 1
1071.7595 -556.49054 2967.0 1
1048.787 -529.2944 2822.0 1
1060.9991 -520.8542 2777.0 1
1072.666 -512.6015 2733.0 1
1101.1439 -512.6015 2733.0 1
1120.5286 -508.47522 2711.0 1
1130.9799 -500.5977 2669.0 1
1150.1074 -496.8465 2649.0 1
1177.71 -496.8465 2649.0 1
1205.3126 -496.8465 2649.0 1
1302.7291 -524.98047 2799.0 1
1023.2266 -613.936 3101.0 1
1036.8176 -603.0471 3046.0 1
1068.5571 -603.0471 3046.0 1
1071.7595 -587.4067 2967.0 1
1048.787 -558.6996 2822.0 1
1060.9991 -549.79047 2777.0 1
1080.9082 -545.23694 2754.0 1
1109.605 -545.23694 2754.0 1
1129.6217 -541.07935 2733.0 1
1139.8785 -532.5662 2690.0 1
1150.1074 -524.44904 2649.0 1
1177.71 -524.44904 2649.0 1
1205.3126 -524.44904 2649.0 1
1013.98755 -640.4132 3073.0 1
1046.0082 -640.4132 3073.0 1
1068.5571 -634.7864 3046.0 1
1053.6981 -607.9028 2917.0 1
1048.787 -588.1048 2822.0 1
1060.9991 -578.7268 2777.0 1
1089.9354 -578.7268 2777.0 1
1118.8718 -578.7268 2777.0 1
1138.3016 -573.9336 2754.0 1
1158.0997 -569.5572 2733.0 1
1158.7908 -556.2196 2669.0 1
1013.98755 -672.43384 3073.0 1
1046.0082 -672.43384 3073.0 1
1059.0853 -660.61755 3019.0 1
1062.7288 -643.7684 2942.0 1
1048.787 -617.51 2822.0 1
1060.9991 -607.6631 2777.0 1
1089.9354 -607.6631 2777.0 1
1118.8718 -607.6631 2777.0 1
1147.8081 -607.6631 2777.0 1
1176.7445 -607.6631 2777.0 1
1023.2266 -710.87317 3101.0 1
1055.539 -710.87317 3101.0 1
1068.5571 -698.26495 3046.0 1
1053.6981 -668.693 2917.0 1
1048.787 -646.9152 2822.0 1
1069.4045 -641.6427 2799.0 1
1089.9354 -636.5994 2777.0 1
1109.605 -631.3269 2754.0 1
1147.8081 -636.5994 2777.0 1
1065.0698 -749.8962 3129.0 1
1078.0289 -736.4752 3073.0 1
1036.3593 -687.5846 2869.0 1
1048.787 -676.32056 2822.0 1
1069.4045 -670.8084 2799.0 1
1098.5701 -670.8084 2799.0 1
1118.8718 -665.5359 2777.0 1
1129.6217 -654.99084 2733.0 1
1074.6006 -789.50256 3157.0 1
1087.8514 -775.4981 3101.0 1
1036.3593 -717.47955 2869.0 1
1048.787 -705.72577 2822.0 1
1069.4045 -699.97394 2799.0 1
1098.5701 -699.97394 2799.0 1
1127.7357 -699.97394 2799.0 1
1147.8081 -694.47217 2777.0 1
1097.6741 -815.1045 3129.0 1
1027.6898 -741.1225 2845.0 1
1048.787 -735.131 2822.0 1
1078.1921 -735.131 2822.0 1
1098.5701 -729.13947 2799.0 1
1137.0027 -735.131 2822.0 1
1065.0698 -847.7086 3129.0 1
1107.4967 -855.2944 3157.0 1
1045.0287 -783.77155 2893.0 1
1048.787 -764.5362 2822.0 1
1069.4045 -758.30505 2799.0 1
1098.5701 -758.30505 2799.0 1
1137.0027 -764.5362 2822.0 1
1166.4078 -764.5362 2822.0 1
1117.67 -896.3492 3186.0 1
1062.7288 -827.7022 2942.0 1
1057.3348 -800.41223 2845.0 1
1078.1921 -793.9414 2822.0 1
1116.6245 -800.41223 2845.0 1
1146.2695 -800.41223 2845.0 1
1117.67 -929.5474 3186.0 1
1081.1514 -873.23773 2993.0 1
1075.1738 -844.0617 2893.0 1
1086.9796 -830.05725 2845.0 1
1135.4639 -844.0617 2893.0 1
1146.2695 -830.05725 2845.0 1
1104.895 -980.8763 3246.0 1
1117.67 -962.7455 3186.0 1
1071.7595 -896.56805 2967.0 1
1084.0934 -881.45905 2917.0 1
1096.1493 -866.9544 2869.0 1
1126.0442 -866.9544 2869.0 1
1155.9392 -866.9544 2869.0 1
1117.67 -995.9436 3186.0 1
1090.5432 -943.7394 3019.0 1
1084.0934 -911.8542 2917.0 1
1114.4884 -911.8542 2917.0 1
1135.4639 -904.3518 2893.0 1
1165.609 -904.3518 2893.0 1
1107.4967 -1019.7741 3157.0 1
1100.2964 -983.9189 3046.0 1
1093.3845 -950.32477 2942.0 1
1124.0402 -950.32477 2942.0 1
1144.8835 -942.24927 2917.0 1
1185.3514 -950.32477 2942.0 1
1090.5432 -1006.6553 3019.0 1
1102.6757 -989.3164 2967.0 1
1124.0402 -980.9804 2942.0 1
1144.8835 -972.6444 2917.0 1
1090.5432 -1038.1134 3019.0 1
1112.3385 -1029.173 2993.0 1
1124.0402 -1011.63617 2942.0 1
1154.6957 -1011.63617 2942.0 1
1195.4241 -1020.23267 2967.0 1
1087.8514 -1098.6223 3101.0 1
1090.5432 -1069.5713 3019.0 1
1102.6757 -1051.1488 2967.0 1
1133.5918 -1051.1488 2967.0 1
1174.7125 -1060.3601 2993.0 1
1068.5571 -1110.8762 3046.0 1
1081.1514 -1091.5471 2993.0 1
1102.6757 -1082.0648 2967.0 1
1133.5918 -1082.0648 2967.0 1
1184.9171 -1101.0293 3019.0 1
1078.0289 -1152.7437 3073.0 1
1081.1514 -1122.7341 2993.0 1
1102.6757 -1112.981 2967.0 1
1133.5918 -1112.981 2967.0 1
1027.6272 -1163.9452 3019.0 1
1049.9644 -1153.9211 2993.0 1
1081.1514 -1153.9211 2993.0 1
1112.3385 -1153.9211 2993.0 1
1143.5255 -1153.9211 2993.0 1
1195.5143 -1174.3547 3046.0 1
1018.7772 -1185.1083 2993.0 1
1049.9644 -1185.1083 2993.0 1
1071.7595 -1174.8134 2967.0 1
1093.3845 -1164.9143 2942.0 1
1133.5918 -1174.8134 2967.0 1
964.7114 -1226.8612 3019.0 1
970.7619 -1195.57 2942.0 1
1001.4175 -1195.57 2942.0 1
1032.0732 -1195.57 2942.0 1
1053.6981 -1185.4105 2917.0 1
