ply
format ascii 1.0
comment : created from Kinect user tracker
element vertex 350
property float x
property float y
property float z
property int userId
end_header
1415.366 219.15343 2629.0 1
1409.0897 194.67686 2669.0 1
1415.366 191.75926 2629.0 1
1414.4003 170.86713 2733.0 1
1409.0897 166.86584 2669.0 1
1393.8313 161.86426 2589.0 1
1403.0148 141.2431 2711.0 1
1387.9718 136.9709 2629.0 1
1383.6023 133.897 2570.0 1
1408.2352 115.745384 2777.0 1
1370.9281 110.41035 2649.0 1
1366.854 107.909546 2589.0 1
1373.3733 106.32571 2551.0 1
1390.2258 87.49673 2799.0 1
1408.2352 86.809006 2777.0 1
1360.5775 82.182526 2629.0 1
1356.823 80.33819 2570.0 1
1373.3733 79.74425 2551.0 1
1406.7694 60.290134 2893.0 1
1401.6497 58.810493 2822.0 1
1385.9225 56.955734 2733.0 1
1350.227 54.37157 2609.0 1
1356.823 53.55881 2570.0 1
1353.4537 52.391773 2514.0 1
1395.099 29.89495 2869.0 1
1401.6497 29.40521 2822.0 1
1364.117 28.029772 2690.0 1
1350.227 27.185753 2609.0 1
1346.792 26.581394 2551.0 1
1343.7632 26.008295 2496.0 1
1399.9409 0.0 2942.0 1
1395.099 0.0 2869.0 1
1401.6497 0.0 2822.0 1
1343.3256 0.0 2649.0 1
1339.8765 0.0 2589.0 1
1346.792 0.0 2551.0 1
1343.7632 0.0 2496.0 1
1388.0448 -30.395111 2917.0 1
1395.099 -29.89495 2869.0 1
1401.6497 -29.40521 2822.0 1
1343.3256 -27.602552 2649.0 1
1330.0435 -26.779373 2570.0 1
1346.792 -26.581394 2551.0 1
1343.7632 -26.008295 2496.0 1
1399.9409 -61.311222 2942.0 1
1406.7694 -60.290062 2893.0 1
1346.5175 -56.497185 2711.0 1
1333.1835 -54.788307 2629.0 1
1320.2104 -53.16279 2551.0 1
1327.2579 -52.39171 2514.0 1
1334.0726 -51.641468 2478.0 1
1376.6245 -90.435234 2893.0 1
1406.7694 -90.435234 2893.0 1
1336.087 -84.089455 2690.0 1
1333.1835 -82.182594 2629.0 1
1320.2104 -79.74431 2551.0 1
1327.2579 -78.58769 2514.0 1
1334.0726 -77.462326 2478.0 1
1318.2689 -112.99451 2711.0 1
1325.6566 -111.24394 2669.0 1
1333.1835 -109.576744 2629.0 1
1320.2104 -106.32571 2551.0 1
1327.2579 -104.78355 2514.0 1
1334.0726 -103.283066 2478.0 1
1328.9668 -142.3893 2733.0 1
1325.6566 -139.0549 2669.0 1
1333.1835 -136.9709 2629.0 1
1320.2104 -132.9071 2551.0 1
1327.2579 -130.9794 2514.0 1
1324.382 -128.166 2460.0 1
1300.489 -170.86713 2733.0 1
1318.2689 -169.49168 2711.0 1
1315.7229 -165.61545 2649.0 1
1312.8992 -161.86426 2589.0 1
1330.0435 -160.67638 2570.0 1
1336.761 -158.30061 2532.0 1
1324.382 -153.79918 2460.0 1
1300.489 -199.34496 2733.0 1
1308.0573 -196.20854 2690.0 1
1315.7229 -193.218 2649.0 1
1312.8992 -188.8416 2589.0 1
1320.2104 -186.06989 2551.0 1
1327.2579 -183.37111 2514.0 1
1343.7632 -182.05818 2496.0 1
1300.489 -227.82294 2733.0 1
1308.0573 -224.23845 2690.0 1
1305.7892 -219.15349 2629.0 1
1312.8992 -215.81909 2589.0 1
1301.062 -209.5671 2514.0 1
1317.7549 -208.0666 2496.0 1
1343.7632 -208.0666 2496.0 1
1272.011 -256.30075 2733.0 1
1290.0204 -254.23761 2711.0 1
1297.8457 -250.29884 2669.0 1
1295.8555 -244.67204 2609.0 1
1303.2642 -241.01462 2570.0 1
1310.3774 -237.45097 2532.0 1
1317.7549 -234.0749 2496.0 1
1334.0726 -232.38686 2478.0 1
1272.011 -284.7786 2733.0 1
1270.0348 -278.1098 2669.0 1
1288.1204 -276.0258 2649.0 1
1285.9216 -269.7738 2589.0 1
1303.2642 -267.794 2570.0 1
1310.3774 -263.83438 2532.0 1
1327.2579 -261.9588 2514.0 1
1343.7632 -260.0832 2496.0 1
1272.011 -313.25644 2733.0 1
1270.0348 -305.92075 2669.0 1
1288.1204 -303.62836 2649.0 1
1285.9216 -296.75116 2589.0 1
1293.6292 -292.3956 2551.0 1
1301.062 -288.15466 2514.0 1
1317.7549 -286.0915 2496.0 1
1334.0726 -284.02832 2478.0 1
1263.5535 -347.23602 2777.0 1
1272.011 -341.73425 2733.0 1
1270.0348 -333.7317 2669.0 1
1278.395 -328.7301 2629.0 1
1285.9216 -323.72852 2589.0 1
1293.6292 -318.977 2551.0 1
1301.062 -314.3505 2514.0 1
1317.7549 -312.0998 2496.0 1
1334.0726 -309.84906 2478.0 1
1253.0884 -373.0569 2754.0 1
1272.011 -370.21222 2733.0 1
1270.0348 -361.5428 2669.0 1
1288.1204 -358.8336 2649.0 1
1285.9216 -350.706 2589.0 1
1283.9941 -342.98477 2532.0 1
1301.062 -340.54648 2514.0 1
1317.7549 -338.10822 2496.0 1
1334.0726 -335.66992 2478.0 1
1253.0884 -401.75354 2754.0 1
1272.011 -398.69006 2733.0 1
1270.0348 -389.35373 2669.0 1
1278.395 -383.51852 2629.0 1
1285.9216 -377.68335 2589.0 1
1303.2642 -374.91162 2570.0 1
1301.062 -366.74234 2514.0 1
1317.7549 -364.1165 2496.0 1
1343.7632 -364.1165 2496.0 1
1272.011 -427.16788 2733.0 1
1270.0348 -417.1647 2669.0 1
1288.1204 -414.0387 2649.0 1
1285.9216 -404.6607 2589.0 1
1293.6292 -398.72128 2551.0 1
1310.3774 -395.7516 2532.0 1
1327.2579 -392.9382 2514.0 1
1343.7632 -390.1248 2496.0 1
1294.494 -474.31836 2845.0 1
1292.4897 -462.9814 2777.0 1
1280.0276 -448.47678 2690.0 1
1288.1204 -441.64124 2649.0 1
1285.9216 -431.63806 2589.0 1
1303.2642 -428.47037 2570.0 1
1320.2104 -425.30267 2551.0 1
1327.2579 -419.13403 2514.0 1
1343.7632 -416.1331 2496.0 1
1316.3344 -512.46594 2893.0 1
1302.7291 -495.8148 2799.0 1
1310.4818 -487.8435 2754.0 1
1297.8457 -472.7866 2669.0 1
1285.9216 -458.6154 2589.0 1
1312.8992 -458.6154 2589.0 1
1330.0435 -455.24973 2570.0 1
1327.2579 -445.3299 2514.0 1
1343.7632 -442.1414 2496.0 1
1294.494 -533.6083 2845.0 1
1313.434 -529.2944 2822.0 1
1321.4263 -520.8542 2777.0 1
1308.0573 -504.53644 2690.0 1
1295.8555 -489.3441 2609.0 1
1312.8992 -485.5929 2589.0 1
1330.0435 -482.02924 2570.0 1
1327.2579 -471.52588 2514.0 1
1353.4537 -471.52588 2514.0 1
1316.3344 -572.75616 2893.0 1
1324.1388 -563.2531 2845.0 1
1331.8949 -554.14606 2799.0 1
1339.1783 -545.23694 2754.0 1
1315.7229 -524.44904 2649.0 1
1312.8992 -512.57025 2589.0 1
1330.0435 -508.80862 2570.0 1
1336.761 -501.28537 2532.0 1
1353.4537 -497.72174 2514.0 1
1316.3344 -602.9012 2893.0 1
1324.1388 -592.898 2845.0 1
1342.8394 -588.1048 2822.0 1
1339.1783 -573.9336 2754.0 1
1357.4446 -569.5572 2733.0 1
1323.0413 -543.7156 2609.0 1
1330.0435 -535.588 2570.0 1
1336.761 -527.66876 2532.0 1
1363.1444 -527.66876 2532.0 1
1327.2545 -638.2979 2917.0 1
1324.1388 -622.54285 2845.0 1
1342.8394 -617.51 2822.0 1
1350.3625 -607.6631 2777.0 1
1390.2258 -612.4771 2799.0 1
1353.4677 -584.0305 2669.0 1
1360.5775 -575.2778 2629.0 1
1356.823 -562.3674 2570.0 1
1373.3733 -558.2098 2551.0 1
1327.2545 -668.693 2917.0 1
1324.1388 -652.18774 2845.0 1
1331.8949 -641.6427 2799.0 1
1350.3625 -636.5994 2777.0 1
1379.2988 -636.5994 2777.0 1
1408.2352 -636.5994 2777.0 1
1381.2786 -611.8415 2669.0 1
1377.4128 -598.0871 2609.0 1
1383.6023 -589.1467 2570.0 1
1319.0885 -711.0713 2967.0 1
1316.3344 -693.3364 2893.0 1
1324.1388 -681.83276 2845.0 1
1342.8394 -676.32056 2822.0 1
1372.2445 -676.32056 2822.0 1
1390.2258 -670.8084 2799.0 1
1419.3916 -670.8084 2799.0 1
1398.5308 -634.8594 2649.0 1
1393.8313 -620.4798 2589.0 1
1296.8593 -729.4834 2917.0 1
1327.2545 -729.4834 2917.0 1
1335.3091 -717.47955 2869.0 1
1353.7838 -711.4776 2845.0 1
1372.2445 -705.72577 2822.0 1
1401.6497 -705.72577 2822.0 1
1398.5308 -662.4619 2649.0 1
1415.366 -657.4603 2629.0 1
1307.9739 -766.391 2942.0 1
1305.4142 -747.3745 2869.0 1
1335.3091 -747.3745 2869.0 1
1353.7838 -741.1225 2845.0 1
1372.2445 -735.131 2822.0 1
1401.6497 -735.131 2822.0 1
1398.5308 -690.0645 2649.0 1
1415.366 -684.8545 2629.0 1
1288.1725 -803.8196 2967.0 1
1307.9739 -797.0466 2942.0 1
1316.3344 -783.77155 2893.0 1
1335.3091 -777.2694 2869.0 1
1353.7838 -770.76733 2845.0 1
1383.4286 -770.76733 2845.0 1
1436.9006 -723.08545 2669.0 1
1288.1725 -834.7357 2967.0 1
1296.8593 -820.6687 2917.0 1
1327.2545 -820.6687 2917.0 1
1335.3091 -807.16437 2869.0 1
1353.7838 -800.41223 2845.0 1
1436.9006 -750.8964 2669.0 1
1268.2738 -873.23773 2993.0 1
1277.3184 -858.358 2942.0 1
1307.9739 -858.358 2942.0 1
1316.3344 -844.0617 2893.0 1
1346.4792 -844.0617 2893.0 1
1365.2041 -837.0595 2869.0 1
1442.8783 -797.3801 2733.0 1
1436.9006 -778.70746 2669.0 1
1257.2565 -896.56805 2967.0 1
1277.3184 -889.01355 2942.0 1
1296.8593 -881.45905 2917.0 1
1316.3344 -874.2067 2893.0 1
1346.4792 -874.2067 2893.0 1
1442.8783 -825.858 2733.0 1
1436.9006 -806.51843 2669.0 1
1268.2738 -935.61176 2993.0 1
1277.3184 -919.6692 2942.0 1
1296.8593 -911.8542 2917.0 1
1316.3344 -904.3518 2893.0 1
1346.4792 -904.3518 2893.0 1
1442.8783 -854.33575 2733.0 1
1448.2063 -840.894 2690.0 1
1237.0867 -966.7988 2993.0 1
1246.6627 -950.32477 2942.0 1
1266.4641 -942.24927 2917.0 1
1296.8593 -942.24927 2917.0 1
1327.2545 -942.24927 2917.0 1
1442.8783 -882.8136 2733.0 1
1448.2063 -868.92377 2690.0 1
1247.8331 -1006.6553 3019.0 1
1246.6627 -980.9804 2942.0 1
1277.3184 -980.9804 2942.0 1
1296.8593 -972.6444 2917.0 1
1316.3344 -964.64185 2893.0 1
1442.8783 -911.29144 2733.0 1
1448.2063 -896.95355 2690.0 1
1247.8331 -1038.1134 3019.0 1
1236.0691 -1003.0397 2917.0 1
1277.3184 -1011.63617 2942.0 1
1296.8593 -1003.0397 2917.0 1
1327.2545 -1003.0397 2917.0 1
1425.2684 -946.9905 2754.0 1
1453.9652 -946.9905 2754.0 1
1471.3561 -939.7694 2733.0 1
1226.3402 -1051.1488 2967.0 1
1236.0691 -1033.4348 2917.0 1
1266.4641 -1033.4348 2917.0 1
1307.9739 -1042.2917 2942.0 1
1385.9503 -1079.1368 3046.0 1
1437.1715 -983.8356 2777.0 1
1466.1079 -983.8356 2777.0 1
1482.6617 -975.68713 2754.0 1
1237.0867 -1091.5471 2993.0 1
1246.6627 -1072.9474 2942.0 1
1277.3184 -1072.9474 2942.0 1
1319.0885 -1082.0648 2967.0 1
1423.7158 -1141.1462 3129.0 1
1469.3519 -1151.3579 3157.0 1
1437.1715 -1012.7719 2777.0 1
1466.1079 -1012.7719 2777.0 1
1482.6617 -1004.3838 2754.0 1
1227.2538 -1142.6155 3046.0 1
1226.3402 -1112.981 2967.0 1
1257.2565 -1112.981 2967.0 1
1288.1725 -1112.981 2967.0 1
1319.0885 -1112.981 2967.0 1
1398.2355 -1152.7437 3073.0 1
1417.6896 -1142.6155 3046.0 1
1449.429 -1142.6155 3046.0 1
1448.5571 -1049.9608 2799.0 1
1477.7228 -1049.9608 2799.0 1
1506.8883 -1049.9608 2799.0 1
1205.8997 -1153.9211 2993.0 1
1226.3402 -1143.8971 2967.0 1
1257.2565 -1143.8971 2967.0 1
1310.7491 -1163.9452 3019.0 1
1330.6478 -1153.9211 2993.0 1
1373.6652 -1163.9452 3019.0 1
1405.123 -1163.9452 3019.0 1
1449.429 -1174.3547 3046.0 1
1460.4602 -1087.9938 2822.0 1
1477.7228 -1079.1263 2799.0 1
1519.2708 -1087.9938 2822.0 1
1216.3752 -1195.4033 3019.0 1
1237.0867 -1185.1083 2993.0 1
1257.2565 -1174.8134 2967.0 1
1310.7491 -1195.4033 3019.0 1
1342.207 -1195.4033 3019.0 1
1373.6652 -1195.4033 3019.0 1
1424.2091 -1185.1083 2993.0 1
1509.6252 -1155.0154 2917.0 1
1489.8656 -1117.3992 2822.0 1
1519.2708 -1117.3992 2822.0 1
1247.8331 -1226.8612 3019.0 1
1268.2738 -1216.2953 2993.0 1
1462.2769 -1248.8058 3073.0 1
1497.2046 -1175.6573 2893.0 1
1514.6791 -1165.9042 2869.0 1
1531.6532 -1156.1511 2845.0 1
