ply
format ascii 1.0
comment : created from Kinect user tracker
element vertex 641
property float x
property float y
property float z
property int userId
end_header
777.1444 445.32996 2514.0 1
719.5634 416.1331 2496.0 1
745.57184 416.1331 2496.0 1
766.0158 413.13214 2478.0 1
786.08484 410.13116 2460.0 1
806.1086 407.29694 2443.0 1
825.77795 404.46268 2426.0 1
667.54694 390.1248 2496.0 1
683.552 384.498 2460.0 1
709.1851 384.498 2460.0 1
734.8184 384.498 2460.0 1
755.1964 381.84088 2443.0 1
780.6525 381.84088 2443.0 1
806.1086 381.84088 2443.0 1
831.5646 381.84088 2443.0 1
672.36096 366.74234 2514.0 1
688.5536 361.49066 2478.0 1
714.37427 361.49066 2478.0 1
729.7404 356.38486 2443.0 1
755.1964 356.38486 2443.0 1
775.2203 353.9049 2426.0 1
806.1086 356.38486 2443.0 1
831.5646 356.38486 2443.0 1
655.675 345.55844 2551.0 1
682.25653 345.55844 2551.0 1
693.5552 338.10815 2496.0 1
714.37427 335.66986 2478.0 1
729.7404 330.92877 2443.0 1
755.1964 330.92877 2443.0 1
780.6525 330.92877 2443.0 1
806.1086 330.92877 2443.0 1
682.25653 318.97705 2551.0 1
693.5552 312.09985 2496.0 1
714.37427 309.84912 2478.0 1
734.8184 307.59842 2460.0 1
760.45154 307.59842 2460.0 1
786.08484 307.59842 2460.0 1
811.71796 307.59842 2460.0 1
682.25653 292.3956 2551.0 1
693.5552 286.0915 2496.0 1
719.5634 286.0915 2496.0 1
734.8184 281.96518 2460.0 1
760.45154 281.96518 2460.0 1
786.08484 281.96518 2460.0 1
817.6574 284.02832 2478.0 1
849.60504 286.0915 2496.0 1
875.61346 286.0915 2496.0 1
692.4195 269.7738 2589.0 1
698.55676 261.9588 2514.0 1
719.5634 260.0832 2496.0 1
734.8184 256.332 2460.0 1
760.45154 256.332 2460.0 1
791.8367 258.20758 2478.0 1
817.6574 258.20758 2478.0 1
855.732 261.9588 2514.0 1
869.29895 258.20758 2478.0 1
703.1174 246.54764 2629.0 1
708.8378 239.2328 2551.0 1
719.5634 234.0749 2496.0 1
740.1951 232.38686 2478.0 1
766.0158 232.38686 2478.0 1
797.5885 234.0749 2496.0 1
823.5968 234.0749 2496.0 1
868.3263 239.2328 2551.0 1
742.69946 231.4907 2777.0 1
753.2965 225.98894 2711.0 1
724.7526 209.56702 2514.0 1
740.1951 206.56607 2478.0 1
771.58014 208.06654 2496.0 1
815.1636 212.65134 2551.0 1
841.74493 212.65134 2551.0 1
874.79364 214.23518 2570.0 1
713.4331 211.01543 2893.0 1
725.3292 205.83669 2822.0 1
736.54816 200.87677 2754.0 1
759.4096 199.34503 2733.0 1
740.89667 187.45581 2570.0 1
756.3253 184.68408 2532.0 1
788.5821 186.06995 2551.0 1
821.235 187.45581 2570.0 1
848.01434 187.45581 2570.0 1
874.79364 187.45581 2570.0 1
908.23846 188.84167 2589.0 1
707.5145 179.36984 2869.0 1
713.763 173.61801 2777.0 1
725.048 169.49168 2711.0 1
741.6261 166.86584 2669.0 1
757.9056 164.36505 2629.0 1
785.29987 164.36505 2629.0 1
806.5114 163.11465 2609.0 1
821.235 160.67638 2570.0 1
848.01434 160.67638 2570.0 1
868.3263 159.4885 2551.0 1
894.90784 159.4885 2551.0 1
914.62585 158.30061 2532.0 1
690.2521 145.8279 2799.0 1
713.763 144.6817 2777.0 1
725.048 141.2431 2711.0 1
736.0688 138.0129 2649.0 1
763.6713 138.0129 2649.0 1
785.29987 136.9709 2629.0 1
806.5114 135.9289 2609.0 1
821.235 133.897 2570.0 1
841.74493 132.9071 2551.0 1
861.85895 131.91719 2532.0 1
888.2425 131.91719 2532.0 1
908.1238 130.9794 2514.0 1
927.6301 130.0416 2496.0 1
690.2521 116.662346 2799.0 1
702.45386 113.91147 2733.0 1
719.4316 112.119225 2690.0 1
741.6261 111.24394 2669.0 1
757.9056 109.576744 2629.0 1
785.29987 109.576744 2629.0 1
794.4555 107.11762 2570.0 1
815.1636 106.32571 2551.0 1
841.74493 106.32571 2551.0 1
861.85895 105.53378 2532.0 1
875.61346 104.0333 2496.0 1
901.6217 104.0333 2496.0 1
920.9405 103.283066 2478.0 1
953.63837 104.0333 2496.0 1
986.71136 104.78355 2514.0 1
679.1548 86.09003 2754.0 1
702.45386 85.43356 2733.0 1
713.8152 83.43292 2669.0 1
736.0688 82.807724 2649.0 1
757.9056 82.182526 2629.0 1
767.67615 80.33819 2570.0 1
788.5821 79.74425 2551.0 1
815.1636 79.74425 2551.0 1
841.74493 79.74425 2551.0 1
855.732 78.58762 2514.0 1
875.61346 78.02495 2496.0 1
895.1196 77.462265 2478.0 1
920.9405 77.462265 2478.0 1
946.76117 77.462265 2478.0 1
979.6466 78.02495 2496.0 1
673.9761 56.955734 2733.0 1
696.79926 56.497253 2711.0 1
708.46625 55.205173 2649.0 1
730.5115 54.788372 2629.0 1
752.13983 54.37157 2609.0 1
767.67615 53.55881 2570.0 1
794.4555 53.55881 2570.0 1
815.1636 53.162853 2551.0 1
841.74493 53.162853 2551.0 1
855.732 52.391773 2514.0 1
875.61346 52.01665 2496.0 1
895.1196 51.641533 2478.0 1
920.9405 51.641533 2478.0 1
953.63837 52.01665 2496.0 1
979.6466 52.01665 2496.0 1
673.9761 28.477833 2733.0 1
696.79926 28.248592 2711.0 1
713.8152 27.810953 2669.0 1
736.0688 27.602552 2649.0 1
757.9056 27.394154 2629.0 1
773.35156 26.977354 2589.0 1
794.4555 26.779373 2570.0 1
815.1636 26.581394 2551.0 1
835.4756 26.383415 2532.0 1
855.732 26.195854 2514.0 1
875.61346 26.008295 2496.0 1
895.1196 25.820734 2478.0 1
920.9405 25.820734 2478.0 1
953.63837 26.008295 2496.0 1
979.6466 26.008295 2496.0 1
679.1548 0.0 2754.0 1
696.79926 0.0 2711.0 1
719.4316 0.0 2690.0 1
730.5115 0.0 2629.0 1
752.13983 0.0 2609.0 1
767.67615 0.0 2570.0 1
794.4555 0.0 2570.0 1
815.1636 0.0 2551.0 1
835.4756 0.0 2532.0 1
855.732 0.0 2514.0 1
875.61346 0.0 2496.0 1
901.6217 0.0 2496.0 1
920.9405 0.0 2478.0 1
953.63837 0.0 2496.0 1
986.71136 0.0 2514.0 1
679.1548 -28.696651 2754.0 1
696.79926 -28.248592 2711.0 1
713.8152 -27.810953 2669.0 1
730.5115 -27.394154 2629.0 1
752.13983 -27.185753 2609.0 1
767.67615 -26.779373 2570.0 1
794.4555 -26.779373 2570.0 1
815.1636 -26.581394 2551.0 1
835.4756 -26.383415 2532.0 1
861.85895 -26.383415 2532.0 1
875.61346 -26.008295 2496.0 1
901.6217 -26.008295 2496.0 1
927.6301 -26.008295 2496.0 1
953.63837 -26.008295 2496.0 1
993.7762 -26.383415 2532.0 1
1020.15967 -26.383415 2532.0 1
684.8267 -57.872623 2777.0 1
696.79926 -56.497185 2711.0 1
719.4316 -56.059544 2690.0 1
730.5115 -54.788307 2629.0 1
752.13983 -54.371506 2609.0 1
767.67615 -53.558746 2570.0 1
794.4555 -53.558746 2570.0 1
821.235 -53.558746 2570.0 1
841.74493 -53.16279 2551.0 1
868.3263 -53.16279 2551.0 1
888.2425 -52.76683 2532.0 1
908.1238 -52.39171 2514.0 1
927.6301 -52.01659 2496.0 1
953.63837 -52.01659 2496.0 1
986.71136 -52.39171 2514.0 1
991.1504 -51.26635 2460.0 1
679.1548 -86.090096 2754.0 1
696.79926 -84.74591 2711.0 1
719.4316 -84.089455 2690.0 1
736.0688 -82.80779 2649.0 1
757.9056 -82.182594 2629.0 1
779.3257 -81.55739 2609.0 1
794.4555 -80.33825 2570.0 1
821.235 -80.33825 2570.0 1
848.01434 -80.33825 2570.0 1
874.79364 -80.33825 2570.0 1
901.5732 -80.33825 2570.0 1
908.1238 -78.58769 2514.0 1
934.31976 -78.58769 2514.0 1
960.51556 -78.58769 2514.0 1
986.71136 -78.58769 2514.0 1
1005.655 -78.02501 2496.0 1
719.4245 -126.957306 3046.0 1
684.8267 -115.745384 2777.0 1
696.79926 -112.99451 2711.0 1
719.4316 -112.119225 2690.0 1
736.0688 -110.41035 2649.0 1
757.9056 -109.576744 2629.0 1
785.29987 -109.576744 2629.0 1
812.694 -109.576744 2629.0 1
827.3064 -107.909546 2589.0 1
854.2837 -107.909546 2589.0 1
881.261 -107.909546 2589.0 1
915.25464 -108.74314 2609.0 1
928.3525 -107.11762 2570.0 1
948.0707 -106.32571 2551.0 1
974.65204 -106.32571 2551.0 1
993.7762 -105.53378 2532.0 1
1027.815 -106.32571 2551.0 1
725.8015 -160.1033 3073.0 1
690.2521 -145.8279 2799.0 1
696.79926 -141.2431 2711.0 1
719.4316 -140.149 2690.0 1
736.0688 -138.0129 2649.0 1
763.6713 -138.0129 2649.0 1
791.274 -138.0129 2649.0 1
812.694 -136.9709 2629.0 1
833.6973 -135.9289 2609.0 1
860.883 -135.9289 2609.0 1
888.0687 -135.9289 2609.0 1
922.27075 -136.9709 2629.0 1
928.3525 -133.897 2570.0 1
948.0707 -132.9071 2551.0 1
974.65204 -132.9071 2551.0 1
1001.2334 -132.9071 2551.0 1
1051.1835 -135.9289 2609.0 1
700.1024 -193.87448 3101.0 1
719.4245 -190.43588 3046.0 1
684.8267 -173.61801 2777.0 1
702.45386 -170.86713 2733.0 1
719.4316 -168.17877 2690.0 1
741.6261 -166.86584 2669.0 1
763.6713 -165.61545 2649.0 1
785.29987 -164.36505 2629.0 1
812.694 -164.36505 2629.0 1
840.08826 -164.36505 2629.0 1
867.48236 -164.36505 2629.0 1
894.87646 -164.36505 2629.0 1
922.27075 -164.36505 2629.0 1
935.21576 -161.86426 2589.0 1
955.13196 -160.67638 2570.0 1
974.65204 -159.4885 2551.0 1
1008.6907 -160.67638 2570.0 1
700.1024 -226.18687 3101.0 1
725.8015 -224.14456 3073.0 1
684.8267 -202.55432 2777.0 1
702.45386 -199.34496 2733.0 1
725.048 -197.74028 2711.0 1
741.6261 -194.6768 2669.0 1
763.6713 -193.218 2649.0 1
791.274 -193.218 2649.0 1
818.87646 -193.218 2649.0 1
840.08826 -191.7592 2629.0 1
867.48236 -191.7592 2629.0 1
894.87646 -191.7592 2629.0 1
929.28687 -193.218 2649.0 1
949.66486 -191.7592 2629.0 1
962.1933 -188.8416 2589.0 1
974.65204 -186.06989 2551.0 1
1001.2334 -186.06989 2551.0 1
700.1024 -258.49942 3101.0 1
732.41473 -258.49942 3101.0 1
690.2521 -233.32469 2799.0 1
707.8514 -229.57349 2754.0 1
725.048 -225.98901 2711.0 1
747.4613 -224.23845 2690.0 1
769.437 -222.48788 2669.0 1
791.274 -220.8207 2649.0 1
818.87646 -220.8207 2649.0 1
846.4792 -220.8207 2649.0 1
867.48236 -219.15349 2629.0 1
894.87646 -219.15349 2629.0 1
929.28687 -220.8207 2649.0 1
949.66486 -219.15349 2629.0 1
969.6262 -217.48628 2609.0 1
981.9113 -214.23524 2570.0 1
1023.9976 -217.48628 2609.0 1
679.8495 -296.06348 3157.0 1
700.1024 -290.8118 3101.0 1
725.8015 -288.18597 3073.0 1
695.924 -264.6472 2822.0 1
707.8514 -258.27014 2754.0 1
730.9318 -256.30075 2733.0 1
747.4613 -252.26822 2690.0 1
775.491 -252.26822 2690.0 1
797.2481 -250.29884 2669.0 1
818.87646 -248.42325 2649.0 1
846.4792 -248.42325 2649.0 1
874.08167 -248.42325 2649.0 1
901.6842 -248.42325 2649.0 1
929.28687 -248.42325 2649.0 1
956.8894 -248.42325 2649.0 1
962.1933 -242.79645 2589.0 1
981.9113 -241.01462 2570.0 1
1023.9976 -244.67204 2609.0 1
667.7901 -323.1242 3101.0 1
700.1024 -323.1242 3101.0 1
706.9066 -311.8706 2993.0 1
701.596 -296.449 2845.0 1
713.763 -289.3634 2777.0 1
730.9318 -284.7786 2733.0 1
759.4096 -284.7786 2733.0 1
781.54504 -282.4862 2711.0 1
797.2481 -278.1098 2669.0 1
825.059 -278.1098 2669.0 1
852.8701 -278.1098 2669.0 1
874.08167 -276.0258 2649.0 1
901.6842 -276.0258 2649.0 1
929.28687 -276.0258 2649.0 1
956.8894 -276.0258 2649.0 1
955.13196 -267.794 2570.0 1
981.9113 -267.794 2570.0 1
673.81976 -358.64594 3129.0 1
693.78094 -352.22723 3073.0 1
701.596 -326.09387 2845.0 1
719.4176 -320.82135 2799.0 1
742.69946 -318.2997 2777.0 1
759.4096 -313.25644 2733.0 1
781.54504 -310.7348 2711.0 1
797.2481 -305.92075 2669.0 1
825.059 -305.92075 2669.0 1
852.8701 -305.92075 2669.0 1
874.08167 -303.62836 2649.0 1
901.6842 -303.62836 2649.0 1
929.28687 -303.62836 2649.0 1
949.66486 -301.33594 2629.0 1
962.1933 -296.75116 2589.0 1
981.9113 -294.57336 2570.0 1
679.8495 -394.75122 3157.0 1
706.4239 -391.2501 3129.0 1
701.596 -355.73874 2845.0 1
725.3292 -352.86282 2822.0 1
736.54816 -344.3601 2754.0 1
759.4096 -341.73425 2733.0 1
781.54504 -338.98337 2711.0 1
803.52094 -336.35754 2690.0 1
825.059 -333.7317 2669.0 1
846.4792 -331.2309 2649.0 1
874.08167 -331.2309 2649.0 1
915.6401 -336.35754 2690.0 1
951.03687 -338.98337 2711.0 1
949.66486 -328.7301 2629.0 1
962.1933 -323.72852 2589.0 1
989.1706 -323.72852 2589.0 1
679.8495 -427.64728 3157.0 1
706.4239 -423.8544 3129.0 1
707.5145 -388.6348 2869.0 1
719.4176 -379.1526 2799.0 1
736.54816 -373.0569 2754.0 1
759.4096 -370.21222 2733.0 1
781.54504 -367.23212 2711.0 1
809.7938 -367.23212 2711.0 1
831.55066 -364.38745 2690.0 1
852.8701 -361.5428 2669.0 1
880.681 -361.5428 2669.0 1
915.6401 -364.38745 2690.0 1
958.75464 -370.21222 2733.0 1
949.66486 -356.1244 2629.0 1
969.6262 -353.4152 2609.0 1
996.8119 -353.4152 2609.0 1
1001.2334 -345.5585 2551.0 1
707.5145 -418.52975 2869.0 1
713.763 -405.1088 2777.0 1
736.54816 -401.75354 2754.0 1
759.4096 -398.69006 2733.0 1
781.54504 -395.4807 2711.0 1
809.7938 -395.4807 2711.0 1
831.55066 -392.4172 2690.0 1
859.58057 -392.4172 2690.0 1
887.6103 -392.4172 2690.0 1
922.78815 -395.4807 2711.0 1
949.66486 -383.51852 2629.0 1
969.6262 -380.60095 2609.0 1
701.596 -444.6735 2845.0 1
713.763 -434.0451 2777.0 1
730.9318 -427.16788 2733.0 1
753.2965 -423.72928 2711.0 1
781.54504 -423.72928 2711.0 1
803.52094 -420.447 2690.0 1
831.55066 -420.447 2690.0 1
866.2911 -423.72928 2711.0 1
901.7989 -427.16788 2733.0 1
930.2767 -427.16788 2733.0 1
949.66486 -410.9127 2629.0 1
977.05914 -410.9127 2629.0 1
695.924 -470.4838 2822.0 1
713.763 -462.9814 2777.0 1
730.9318 -455.64572 2733.0 1
753.2965 -451.97787 2711.0 1
781.54504 -451.97787 2711.0 1
809.7938 -451.97787 2711.0 1
838.04236 -451.97787 2711.0 1
873.3211 -455.64572 2733.0 1
901.7989 -455.64572 2733.0 1
929.28687 -441.64124 2649.0 1
956.8894 -441.64124 2649.0 1
984.49207 -441.64124 2649.0 1
695.924 -499.889 2822.0 1
713.763 -491.91772 2777.0 1
730.9318 -484.12357 2733.0 1
759.4096 -484.12357 2733.0 1
781.54504 -480.22647 2711.0 1
809.7938 -480.22647 2711.0 1
838.04236 -480.22647 2711.0 1
873.3211 -484.12357 2733.0 1
894.5396 -480.22647 2711.0 1
922.78815 -480.22647 2711.0 1
936.30304 -472.7866 2669.0 1
956.8894 -469.2438 2649.0 1
984.49207 -469.2438 2649.0 1
690.2521 -524.98047 2799.0 1
713.763 -520.8542 2777.0 1
730.9318 -512.6015 2733.0 1
759.4096 -512.6015 2733.0 1
781.54504 -508.47522 2711.0 1
816.36536 -512.6015 2733.0 1
844.84314 -512.6015 2733.0 1
873.3211 -512.6015 2733.0 1
930.2767 -512.6015 2733.0 1
943.6699 -504.53644 2690.0 1
956.8894 -496.8465 2649.0 1
984.49207 -496.8465 2649.0 1
677.61945 -568.00464 2869.0 1
695.924 -558.6996 2822.0 1
713.763 -549.79047 2777.0 1
736.54816 -545.23694 2754.0 1
765.2448 -545.23694 2754.0 1
787.8874 -541.07935 2733.0 1
822.6382 -545.23694 2754.0 1
858.4447 -549.79047 2777.0 1
922.78815 -536.7238 2711.0 1
936.30304 -528.4086 2669.0 1
964.1139 -528.4086 2669.0 1
991.925 -528.4086 2669.0 1
677.61945 -597.8996 2869.0 1
690.2521 -583.3116 2799.0 1
713.763 -578.7268 2777.0 1
736.54816 -573.9336 2754.0 1
765.2448 -573.9336 2754.0 1
800.57196 -578.7268 2777.0 1
829.5084 -578.7268 2777.0 1
933.25336 -629.1596 3019.0 1
930.2767 -569.5572 2733.0 1
943.6699 -560.596 2690.0 1
964.1139 -556.2196 2669.0 1
984.49207 -552.0516 2649.0 1
671.951 -622.54285 2845.0 1
690.2521 -612.4771 2799.0 1
719.4176 -612.4771 2799.0 1
742.69946 -607.6631 2777.0 1
771.63574 -607.6631 2777.0 1
800.57196 -607.6631 2777.0 1
842.95026 -617.51 2822.0 1
941.5998 -666.5257 3046.0 1
964.7114 -660.61755 3019.0 1
930.2767 -598.03503 2733.0 1
943.6699 -588.62573 2690.0 1
964.1139 -584.0305 2669.0 1
647.72455 -657.6895 2869.0 1
671.951 -652.18774 2845.0 1
695.924 -646.9152 2822.0 1
719.4176 -641.6427 2799.0 1
748.58325 -641.6427 2799.0 1
777.7488 -641.6427 2799.0 1
806.9143 -641.6427 2799.0 1
909.86053 -698.26495 3046.0 1
941.5998 -698.26495 3046.0 1
981.967 -704.45447 3073.0 1
1032.4657 -717.2919 3129.0 1
647.72455 -687.5846 2869.0 1
677.61945 -687.5846 2869.0 1
695.924 -676.32056 2822.0 1
719.4176 -670.8084 2799.0 1
748.58325 -670.8084 2799.0 1
784.1397 -676.32056 2822.0 1
893.97687 -743.1857 3101.0 1
917.9256 -736.4752 3073.0 1
949.94617 -736.4752 3073.0 1
981.967 -736.4752 3073.0 1
1023.2266 -743.1857 3101.0 1
647.72455 -717.47955 2869.0 1
677.61945 -717.47955 2869.0 1
695.924 -705.72577 2822.0 1
725.3292 -705.72577 2822.0 1
754.73456 -705.72577 2822.0 1
784.1397 -705.72577 2822.0 1
893.97687 -775.4981 3101.0 1
943.01697 -789.50256 3157.0 1
958.60175 -775.4981 3101.0 1
990.9143 -775.4981 3101.0 1
1013.98755 -768.49585 3073.0 1
1074.6006 -789.50256 3157.0 1
647.72455 -747.3745 2869.0 1
677.61945 -747.3745 2869.0 1
701.596 -741.1225 2845.0 1
731.24084 -741.1225 2845.0 1
760.8858 -741.1225 2845.0 1
790.53064 -741.1225 2845.0 1
943.01697 -822.3985 3157.0 1
967.25726 -815.1045 3129.0 1
990.9143 -807.8105 3101.0 1
1023.2266 -807.8105 3101.0 1
1065.0698 -815.1045 3129.0 1
653.14294 -783.77155 2893.0 1
683.28796 -783.77155 2893.0 1
707.5145 -777.2694 2869.0 1
743.5781 -783.77155 2893.0 1
773.72327 -783.77155 2893.0 1
824.43036 -803.8196 2967.0 1
1008.8089 -855.2944 3157.0 1
1023.2266 -840.12286 3101.0 1
1055.539 -840.12286 3101.0 1
1087.8514 -840.12286 3101.0 1
653.14294 -813.91656 2893.0 1
683.28796 -813.91656 2893.0 1
713.4331 -813.91656 2893.0 1
743.5781 -813.91656 2893.0 1
773.72327 -813.91656 2893.0 1
810.53705 -820.6687 2917.0 1
1027.6621 -904.78937 3216.0 1
1032.4657 -880.3128 3129.0 1
1065.0698 -880.3128 3129.0 1
1107.4967 -888.1903 3157.0 1
658.56134 -851.06396 2917.0 1
683.28796 -844.0617 2893.0 1
707.5145 -837.0595 2869.0 1
743.5781 -844.0617 2893.0 1
1037.2485 -947.053 3246.0 1
1041.7047 -921.08636 3157.0 1
1074.6006 -921.08636 3157.0 1
1107.4967 -921.08636 3157.0 1
1140.3926 -921.08636 3157.0 1
628.1663 -881.45905 2917.0 1
658.56134 -881.45905 2917.0 1
688.9564 -881.45905 2917.0 1
713.4331 -874.2067 2893.0 1
749.7467 -881.45905 2917.0 1
1061.1727 -971.8109 3216.0 1
1094.6835 -971.8109 3216.0 1
1117.67 -962.7455 3186.0 1
1161.705 -971.8109 3216.0 1
1206.3651 -980.8763 3246.0 1
638.93365 -927.4842 2967.0 1
653.14294 -904.3518 2893.0 1
688.9564 -911.8542 2917.0 1
713.4331 -904.3518 2893.0 1
743.5781 -904.3518 2893.0 1
1071.0718 -1014.6996 3246.0 1
1094.6835 -1005.3216 3216.0 1
1117.67 -995.9436 3186.0 1
1161.705 -1005.3216 3216.0 1
1195.2157 -1005.3216 3216.0 1
633.55 -950.32477 2942.0 1
664.2055 -950.32477 2942.0 1
694.8611 -950.32477 2942.0 1
725.51685 -950.32477 2942.0 1
1071.0718 -1048.5228 3246.0 1
1094.6835 -1038.8323 3216.0 1
1117.67 -1029.1417 3186.0 1
1161.705 -1038.8323 3216.0 1
1195.2157 -1038.8323 3216.0 1
618.6736 -1006.6553 3019.0 1
638.93365 -989.3164 2967.0 1
664.2055 -980.9804 2942.0 1
700.76575 -989.3164 2967.0 1
731.682 -989.3164 2967.0 1
1094.6835 -1072.3429 3216.0 1
1128.1942 -1072.3429 3216.0 1
1161.705 -1072.3429 3216.0 1
1195.2157 -1072.3429 3216.0 1
613.34546 -1029.173 2993.0 1
638.93365 -1020.23267 2967.0 1
664.2055 -1011.63617 2942.0 1
706.9066 -1029.173 2993.0 1
1094.6835 -1105.8538 3216.0 1
592.46735 -1079.1368 3046.0 1
613.34546 -1060.3601 2993.0 1
644.53265 -1060.3601 2993.0 1
669.8497 -1051.1488 2967.0 1
713.0474 -1069.5713 3019.0 1
576.0071 -1141.1462 3129.0 1
587.21564 -1101.0293 3019.0 1
618.6736 -1101.0293 3019.0 1
638.93365 -1082.0648 2967.0 1
669.8497 -1082.0648 2967.0 1
713.0474 -1101.0293 3019.0 1
555.75757 -1132.4872 3019.0 1
587.21564 -1132.4872 3019.0 1
618.6736 -1132.4872 3019.0 1
655.94604 -1142.6155 3046.0 1
528.98865 -1174.3547 3046.0 1
555.75757 -1163.9452 3019.0 1
613.34546 -1153.9211 2993.0 1
650.13165 -1163.9452 3019.0 1
687.68524 -1174.3547 3046.0 1
488.59735 -1185.1083 2993.0 1
519.7843 -1185.1083 2993.0 1
546.18506 -1174.8134 2967.0 1
582.1585 -1185.1083 2993.0 1
613.34546 -1185.1083 2993.0 1
644.53265 -1185.1083 2993.0 1
515.269 -1205.7295 2967.0 1
