ply
format ascii 1.0
comment : created from Kinect user tracker
element vertex 830
property float x
property float y
property float z
property int userId
end_header
1083.2736 340.8903 2181.0 1
1085.2083 334.482 2140.0 1
1076.32 316.12198 2167.0 1
1078.6158 310.28677 2127.0 1
1094.0513 308.39035 2114.0 1
1057.8071 301.12756 2223.0 1
1060.5476 295.43823 2181.0 1
1069.3663 291.64536 2153.0 1
1091.8007 291.64536 2153.0 1
1041.1594 279.71448 2237.0 1
1044.0076 274.33777 2194.0 1
1046.9321 269.21112 2153.0 1
1056.4525 265.96008 2127.0 1
1078.6158 265.96008 2127.0 1
1107.507 267.5856 2140.0 1
1116.0793 264.33456 2114.0 1
1124.1096 261.08353 2088.0 1
1011.47986 254.80023 2223.0 1
1021.14606 251.47626 2194.0 1
1031.1598 248.38152 2167.0 1
1046.9321 246.77684 2153.0 1
1062.9094 245.28677 2140.0 1
1072.0236 242.30666 2114.0 1
1080.5956 239.32654 2088.0 1
1096.0173 237.9511 2076.0 1
1131.1084 240.81659 2101.0 1
1001.2091 234.6584 2252.0 1
1004.6547 230.0736 2208.0 1
1021.14606 228.61479 2194.0 1
1031.1598 225.80139 2167.0 1
1040.6106 222.98799 2140.0 1
1049.9955 220.2788 2114.0 1
1072.0236 220.2788 2114.0 1
1080.5956 217.5696 2088.0 1
1096.0173 216.3192 2076.0 1
1124.1096 217.5696 2088.0 1
992.36957 204.5342 2181.0 1
1021.14606 205.75334 2194.0 1
1031.1598 203.22128 2167.0 1
1040.6106 200.68922 2140.0 1
1056.4525 199.47008 2127.0 1
1072.0236 198.25093 2114.0 1
1087.3235 197.0318 2101.0 1
1102.3527 195.81265 2088.0 1
1124.1096 195.81265 2088.0 1
998.2846 182.89183 2194.0 1
1021.14606 182.89183 2194.0 1
1031.1598 180.64111 2167.0 1
1021.64624 175.13934 2101.0 1
1049.9955 176.22302 2114.0 1
1078.6158 177.3067 2127.0 1
1087.3235 175.13934 2101.0 1
1109.216 175.13934 2101.0 1
1131.1084 175.13934 2101.0 1
981.6473 161.05153 2208.0 1
998.2846 160.03036 2194.0 1
1021.14606 160.03036 2194.0 1
1018.3119 156.09161 2140.0 1
1040.6106 156.09161 2140.0 1
1056.4525 155.14339 2127.0 1
1085.2083 156.09161 2140.0 1
1094.0513 154.19518 2114.0 1
1122.9426 155.14339 2127.0 1
1152.1046 156.09161 2140.0 1
1001.2091 140.79501 2252.0 1
1011.47986 138.98193 2223.0 1
1021.14606 137.16885 2194.0 1
1018.3119 133.79277 2140.0 1
1046.9321 134.60553 2153.0 1
1056.4525 132.98001 2127.0 1
1085.2083 133.79277 2140.0 1
1100.7792 132.98001 2127.0 1
1129.8059 133.79277 2140.0 1
1166.6405 135.48082 2167.0 1
895.2969 125.508896 2409.0 1
913.90344 124.6232 2392.0 1
919.5962 122.0703 2343.0 1
931.5202 120.4552 2312.0 1
949.4113 119.6737 2297.0 1
966.56616 118.840096 2281.0 1
990.33417 118.840096 2281.0 1
1001.2091 117.3292 2252.0 1
1011.47986 115.8183 2223.0 1
1027.662 115.0368 2208.0 1
1037.8217 113.6301 2181.0 1
1053.7399 112.900696 2167.0 1
1083.2736 113.6301 2181.0 1
1105.9996 113.6301 2181.0 1
1128.7256 113.6301 2181.0 1
1151.4517 113.6301 2181.0 1
1166.6405 112.900696 2167.0 1
870.195 100.40714 2409.0 1
883.03253 99.0317 2376.0 1
895.1822 97.656265 2343.0 1
907.4291 96.36418 2312.0 1
925.4766 95.73898 2297.0 1
942.7981 95.0721 2281.0 1
960.20996 94.4469 2266.0 1
971.23083 93.23818 2237.0 1
994.5403 93.23818 2237.0 1
1017.8499 93.23818 2237.0 1
1027.662 92.02946 2208.0 1
1044.0076 91.44594 2194.0 1
1080.9708 92.65466 2223.0 1
1104.1344 92.65466 2223.0 1
1119.6915 92.02946 2208.0 1
1142.6989 92.02946 2208.0 1
1165.7063 92.02946 2208.0 1
845.09326 75.30533 2409.0 1
852.13367 73.742325 2359.0 1
870.7682 73.242165 2343.0 1
889.0691 72.742004 2327.0 1
907.4291 72.27311 2312.0 1
919.0301 71.30405 2281.0 1
936.5982 70.835144 2266.0 1
947.9213 69.928604 2237.0 1
971.23083 69.928604 2237.0 1
981.6473 69.022064 2208.0 1
998.2846 68.58443 2194.0 1
1015.0955 68.17805 2181.0 1
1037.8217 68.17805 2181.0 1
1073.6768 69.022064 2208.0 1
1165.47 70.39751 2252.0 1
845.09326 50.20357 2409.0 1
858.27454 49.51585 2376.0 1
870.7682 48.828133 2343.0 1
883.33813 48.18209 2312.0 1
895.262 47.53605 2281.0 1
919.0301 47.53605 2281.0 1
930.8116 46.93169 2252.0 1
947.9213 46.61909 2237.0 1
971.23083 46.61909 2237.0 1
975.4231 45.72297 2194.0 1
998.2846 45.72297 2194.0 1
1015.0955 45.45205 2181.0 1
1024.4979 44.86853 2153.0 1
1053.7399 45.16029 2167.0 1
1062.9094 44.59761 2140.0 1
819.9914 25.101755 2409.0 1
839.1296 24.924616 2392.0 1
852.13367 24.580755 2359.0 1
870.7682 24.414036 2343.0 1
883.33813 24.091017 2312.0 1
895.262 23.767998 2281.0 1
912.9865 23.611696 2266.0 1
930.8116 23.465816 2252.0 1
941.9889 23.163637 2223.0 1
958.63995 23.007338 2208.0 1
975.4231 22.861458 2194.0 1
985.99945 22.580118 2167.0 1
1008.5795 22.580118 2167.0 1
1024.4979 22.434238 2153.0 1
1040.6106 22.298779 2140.0 1
1062.9094 22.298779 2140.0 1
1078.6158 22.163319 2127.0 1
825.77795 0.0 2426.0 1
839.1296 0.0 2392.0 1
852.13367 0.0 2359.0 1
864.82184 0.0 2327.0 1
877.6071 0.0 2297.0 1
895.262 0.0 2281.0 1
912.9865 0.0 2266.0 1
930.8116 0.0 2252.0 1
941.9889 0.0 2223.0 1
958.63995 0.0 2208.0 1
975.4231 0.0 2194.0 1
985.99945 0.0 2167.0 1
1008.5795 0.0 2167.0 1
1024.4979 0.0 2153.0 1
1034.2892 0.0 2127.0 1
1056.4525 0.0 2127.0 1
1072.0236 0.0 2114.0 1
1087.3235 0.0 2101.0 1
1109.216 0.0 2101.0 1
811.71796 -25.633175 2460.0 1
825.77795 -25.278896 2426.0 1
839.1296 -24.924616 2392.0 1
852.13367 -24.580755 2359.0 1
864.82184 -24.247316 2327.0 1
883.33813 -24.091017 2312.0 1
895.262 -23.767998 2281.0 1
912.9865 -23.611696 2266.0 1
924.6117 -23.309517 2237.0 1
941.9889 -23.163637 2223.0 1
958.63995 -23.007338 2208.0 1
969.64343 -22.725998 2181.0 1
985.99945 -22.580118 2167.0 1
1002.06354 -22.434238 2153.0 1
1018.3119 -22.298779 2140.0 1
1034.2892 -22.163319 2127.0 1
1049.9955 -22.027859 2114.0 1
1058.8387 -21.756939 2088.0 1
1080.5956 -21.756939 2088.0 1
1102.3527 -21.756939 2088.0 1
806.1086 -50.91207 2443.0 1
831.5646 -50.91207 2443.0 1
845.09326 -50.20351 2409.0 1
852.13367 -49.16151 2359.0 1
870.7682 -48.82807 2343.0 1
877.6071 -47.869434 2297.0 1
895.262 -47.535995 2281.0 1
912.9865 -47.223392 2266.0 1
924.6117 -46.619034 2237.0 1
941.9889 -46.327274 2223.0 1
952.56165 -45.722916 2194.0 1
969.64343 -45.451996 2181.0 1
985.99945 -45.160236 2167.0 1
996.013 -44.597557 2140.0 1
1018.3119 -44.597557 2140.0 1
1027.9678 -44.055717 2114.0 1
1037.0817 -43.513878 2088.0 1
1058.8387 -43.513878 2088.0 1
1074.3853 -43.263798 2076.0 1
1096.0173 -43.263798 2076.0 1
1117.6492 -43.263798 2076.0 1
811.71796 -76.89965 2460.0 1
831.5646 -76.368225 2443.0 1
851.057 -75.83681 2426.0 1
858.27454 -74.2738 2376.0 1
870.7682 -73.242226 2343.0 1
877.6071 -71.80427 2297.0 1
895.262 -71.30411 2281.0 1
912.9865 -70.835205 2266.0 1
924.6117 -69.928665 2237.0 1
935.6327 -69.022125 2208.0 1
952.56165 -68.58448 2194.0 1
963.41925 -67.74046 2167.0 1
979.62933 -67.30282 2153.0 1
996.013 -66.89644 2140.0 1
1018.3119 -66.89644 2140.0 1
1027.9678 -66.08368 2114.0 1
1037.0817 -65.27092 2088.0 1
1058.8387 -65.27092 2088.0 1
1074.3853 -64.8958 2076.0 1
1089.154 -64.48942 2063.0 1
1117.6492 -64.8958 2076.0 1
797.5885 -104.0333 2496.0 1
817.6574 -103.283066 2478.0 1
831.5646 -101.824265 2443.0 1
862.98444 -102.53282 2460.0 1
870.195 -100.40714 2409.0 1
870.7682 -97.656265 2343.0 1
883.33813 -96.36418 2312.0 1
895.262 -95.0721 2281.0 1
907.3458 -93.86338 2252.0 1
924.6117 -93.23818 2237.0 1
935.6327 -92.02946 2208.0 1
952.56165 -91.44594 2194.0 1
963.41925 -90.32058 2167.0 1
973.7143 -89.19522 2140.0 1
989.96246 -88.65338 2127.0 1
1012.1259 -88.65338 2127.0 1
1027.9678 -88.11154 2114.0 1
1037.0817 -87.02786 2088.0 1
1058.8387 -87.02786 2088.0 1
1074.3853 -86.5277 2076.0 1
1089.154 -85.985855 2063.0 1
1117.6492 -86.5277 2076.0 1
797.5885 -130.0416 2496.0 1
817.6574 -129.10379 2478.0 1
837.35114 -128.166 2460.0 1
869.29895 -129.10379 2478.0 1
864.05414 -124.6232 2392.0 1
870.7682 -122.0703 2343.0 1
883.33813 -120.4552 2312.0 1
901.5418 -119.6737 2297.0 1
912.9865 -118.0586 2266.0 1
924.6117 -116.5477 2237.0 1
935.6327 -115.0368 2208.0 1
952.56165 -114.307396 2194.0 1
963.41925 -112.900696 2167.0 1
979.62933 -112.171295 2153.0 1
996.013 -111.493996 2140.0 1
1005.9399 -110.1394 2114.0 1
1027.9678 -110.1394 2114.0 1
1037.0817 -108.7848 2088.0 1
1052.7534 -108.1596 2076.0 1
1074.3853 -108.1596 2076.0 1
1096.0173 -108.1596 2076.0 1
1124.1096 -108.7848 2088.0 1
797.5885 -156.0499 2496.0 1
817.6574 -154.92453 2478.0 1
843.4781 -154.92453 2478.0 1
869.29895 -154.92453 2478.0 1
852.13367 -147.48465 2359.0 1
870.7682 -146.48433 2343.0 1
889.0691 -145.48401 2327.0 1
895.262 -142.6081 2281.0 1
912.9865 -141.67029 2266.0 1
924.6117 -139.85721 2237.0 1
941.9889 -138.98193 2223.0 1
952.56165 -137.16885 2194.0 1
969.64343 -136.3561 2181.0 1
985.99945 -135.48082 2167.0 1
996.013 -133.79277 2140.0 1
1012.1259 -132.98001 2127.0 1
1027.9678 -132.16725 2114.0 1
1037.0817 -130.54173 2088.0 1
1052.7534 -129.7915 2076.0 1
1074.3853 -129.7915 2076.0 1
1096.0173 -129.7915 2076.0 1
1124.1096 -130.54173 2088.0 1
803.3404 -183.37111 2514.0 1
823.5968 -182.05818 2496.0 1
849.60504 -182.05818 2496.0 1
862.98444 -179.43234 2460.0 1
858.27454 -173.30539 2376.0 1
870.7682 -170.89838 2343.0 1
895.1822 -170.89838 2343.0 1
901.5418 -167.54314 2297.0 1
912.9865 -165.282 2266.0 1
930.8116 -164.26083 2252.0 1
947.9213 -163.16673 2237.0 1
965.15247 -162.14557 2223.0 1
969.64343 -159.08209 2181.0 1
985.99945 -158.06093 2167.0 1
1002.06354 -157.03978 2153.0 1
1018.3119 -156.09155 2140.0 1
1021.64624 -153.2469 2101.0 1
1037.0817 -152.29868 2088.0 1
1052.7534 -151.4234 2076.0 1
1074.3853 -151.4234 2076.0 1
1096.0173 -151.4234 2076.0 1
1117.6492 -151.4234 2076.0 1
788.5821 -212.65141 2551.0 1
809.0922 -211.06757 2532.0 1
835.4756 -211.06757 2532.0 1
849.60504 -208.0666 2496.0 1
845.09326 -200.81429 2409.0 1
864.05414 -199.39717 2392.0 1
883.03253 -198.0634 2376.0 1
895.1822 -195.31253 2343.0 1
907.4291 -192.72836 2312.0 1
919.0301 -190.1442 2281.0 1
930.8116 -187.72676 2252.0 1
947.9213 -186.47636 2237.0 1
965.15247 -185.30933 2223.0 1
975.4231 -182.89188 2194.0 1
992.36957 -181.8082 2181.0 1
1015.0955 -181.8082 2181.0 1
1024.4979 -179.47412 2153.0 1
1034.2892 -177.30676 2127.0 1
1037.0817 -174.05573 2088.0 1
1052.7534 -173.0554 2076.0 1
1080.5956 -174.05573 2088.0 1
1102.3527 -174.05573 2088.0 1
1110.6504 -171.97171 2063.0 1
788.5821 -239.2328 2551.0 1
809.0922 -237.45097 2532.0 1
835.4756 -237.45097 2532.0 1
851.057 -227.5103 2426.0 1
870.195 -225.91605 2409.0 1
883.03253 -222.8213 2376.0 1
901.2952 -221.22704 2359.0 1
907.4291 -216.81938 2312.0 1
907.3458 -211.19258 2252.0 1
936.5982 -212.5055 2266.0 1
954.2775 -211.19258 2252.0 1
971.23083 -209.78587 2237.0 1
975.4231 -205.75334 2194.0 1
998.2846 -205.75334 2194.0 1
1015.0955 -204.5342 2181.0 1
1037.8217 -204.5342 2181.0 1
1027.9678 -198.25093 2114.0 1
1037.0817 -195.81265 2088.0 1
1058.8387 -195.81265 2088.0 1
1074.3853 -194.6873 2076.0 1
1102.3527 -195.81265 2088.0 1
1110.6504 -193.46815 2063.0 1
800.3289 -269.7738 2589.0 1
815.1636 -265.8142 2551.0 1
841.74493 -265.8142 2551.0 1
861.85895 -263.83438 2532.0 1
851.057 -252.7892 2426.0 1
870.195 -251.01779 2409.0 1
876.71454 -245.8078 2359.0 1
895.1822 -244.1406 2343.0 1
907.4291 -240.9104 2312.0 1
907.3458 -234.6584 2252.0 1
930.8116 -234.6584 2252.0 1
947.9213 -233.0954 2237.0 1
965.15247 -231.6366 2223.0 1
975.4231 -228.61479 2194.0 1
998.2846 -228.61479 2194.0 1
1021.14606 -228.61479 2194.0 1
1031.1598 -225.80139 2167.0 1
1034.2892 -221.63339 2127.0 1
1043.5386 -218.9242 2101.0 1
1052.7534 -216.3192 2076.0 1
1074.3853 -216.3192 2076.0 1
1102.3527 -217.5696 2088.0 1
800.3289 -296.75116 2589.0 1
821.235 -294.57336 2570.0 1
841.74493 -292.3956 2551.0 1
868.3263 -292.3956 2551.0 1
857.0207 -280.01663 2443.0 1
870.195 -276.11954 2409.0 1
883.03253 -272.3371 2376.0 1
901.2952 -270.38855 2359.0 1
907.4291 -265.0014 2312.0 1
919.0301 -261.44818 2281.0 1
930.8116 -258.1242 2252.0 1
947.9213 -256.4049 2237.0 1
977.7433 -258.1242 2252.0 1
994.5403 -256.4049 2237.0 1
1011.47986 -254.80023 2223.0 1
1034.6434 -254.80023 2223.0 1
1037.8217 -249.98619 2181.0 1
1034.2892 -243.7967 2127.0 1
1037.0817 -239.32654 2088.0 1
1052.7534 -237.9511 2076.0 1
1074.3853 -237.9511 2076.0 1
1096.0173 -237.9511 2076.0 1
806.5114 -326.2293 2609.0 1
827.3064 -323.72852 2589.0 1
841.74493 -318.977 2551.0 1
862.98444 -307.59836 2460.0 1
876.3358 -303.347 2426.0 1
883.03253 -297.095 2376.0 1
895.1822 -292.96866 2343.0 1
907.4291 -289.09244 2312.0 1
919.0301 -285.2162 2281.0 1
930.8116 -281.59003 2252.0 1
947.9213 -279.71442 2237.0 1
983.82166 -283.34058 2266.0 1
1001.2091 -281.59003 2252.0 1
1017.8499 -279.71442 2237.0 1
1034.6434 -277.96387 2223.0 1
1044.0076 -274.3377 2194.0 1
1034.2892 -265.96002 2127.0 1
1037.0817 -261.08347 2088.0 1
1052.7534 -259.583 2076.0 1
1074.3853 -259.583 2076.0 1
1122.9426 -265.96002 2127.0 1
812.694 -356.1244 2629.0 1
833.6973 -353.4152 2609.0 1
860.883 -353.4152 2609.0 1
849.60504 -338.10822 2496.0 1
862.98444 -333.23163 2460.0 1
876.3358 -328.626 2426.0 1
888.9789 -324.02036 2392.0 1
901.2952 -319.55017 2359.0 1
919.5962 -317.3828 2343.0 1
925.4766 -311.15167 2297.0 1
930.8116 -305.05597 2252.0 1
947.9213 -303.02405 2237.0 1
977.7433 -305.05597 2252.0 1
1001.2091 -305.05597 2252.0 1
1017.8499 -303.02405 2237.0 1
1041.1594 -303.02405 2237.0 1
1057.8071 -301.12762 2223.0 1
1034.2892 -288.12344 2127.0 1
1037.0817 -282.8405 2088.0 1
1052.7534 -281.215 2076.0 1
1080.5956 -282.8405 2088.0 1
818.87646 -386.43613 2649.0 1
840.08826 -383.51852 2629.0 1
874.08167 -386.43613 2649.0 1
855.732 -366.74234 2514.0 1
857.0207 -356.38486 2443.0 1
870.195 -351.42493 2409.0 1
888.9789 -348.94498 2392.0 1
907.7904 -346.6109 2376.0 1
919.5962 -341.79684 2343.0 1
931.5202 -337.27457 2312.0 1
942.7981 -332.7523 2281.0 1
960.20996 -330.5641 2266.0 1
977.7433 -328.5218 2252.0 1
994.5403 -326.3336 2237.0 1
1017.8499 -326.3336 2237.0 1
1048.1407 -328.5218 2252.0 1
1064.469 -326.3336 2237.0 1
1040.6106 -312.18323 2140.0 1
1037.0817 -304.59744 2088.0 1
1058.8387 -304.59744 2088.0 1
1074.3853 -302.8469 2076.0 1
818.87646 -414.0387 2649.0 1
852.8701 -417.1647 2669.0 1
887.6103 -420.447 2690.0 1
857.0207 -381.84088 2443.0 1
870.195 -376.5267 2409.0 1
883.03253 -371.3688 2376.0 1
901.2952 -368.7117 2359.0 1
919.5962 -366.2109 2343.0 1
925.4766 -359.0211 2297.0 1
942.7981 -356.5203 2281.0 1
960.20996 -354.17578 2266.0 1
983.82166 -354.17578 2266.0 1
994.5403 -349.6431 2237.0 1
1024.675 -351.98758 2252.0 1
1048.1407 -351.98758 2252.0 1
1057.8071 -347.4549 2223.0 1
1034.2892 -332.4501 2127.0 1
1043.5386 -328.3863 2101.0 1
1058.8387 -326.3544 2088.0 1
1080.5956 -326.3544 2088.0 1
1102.3527 -326.3544 2088.0 1
1117.6492 -324.4788 2076.0 1
816.36536 -455.64572 2733.0 1
831.55066 -448.47678 2690.0 1
859.58057 -448.47678 2690.0 1
849.60504 -416.1331 2496.0 1
862.98444 -410.13116 2460.0 1
876.3358 -404.46268 2426.0 1
883.03253 -396.12668 2376.0 1
901.2952 -393.29245 2359.0 1
913.3164 -387.9574 2327.0 1
925.4766 -382.9558 2297.0 1
942.7981 -380.2883 2281.0 1
954.2775 -375.4534 2252.0 1
983.82166 -377.78748 2266.0 1
1001.2091 -375.4534 2252.0 1
1024.675 -375.4534 2252.0 1
1048.1407 -375.4534 2252.0 1
1064.469 -372.9526 2237.0 1
1046.9321 -358.94812 2153.0 1
1043.5386 -350.2787 2101.0 1
1058.8387 -348.11133 2088.0 1
1074.3853 -346.1107 2076.0 1
1096.0173 -346.1107 2076.0 1
1124.1096 -348.11133 2088.0 1
809.7938 -480.22647 2711.0 1
831.55066 -476.50653 2690.0 1
859.58057 -476.50653 2690.0 1
887.6103 -476.50653 2690.0 1
862.98444 -435.76434 2460.0 1
870.195 -426.7302 2409.0 1
876.71454 -417.8732 2359.0 1
895.1822 -415.03897 2343.0 1
907.4291 -409.54764 2312.0 1
919.0301 -404.05627 2281.0 1
942.7981 -404.05627 2281.0 1
954.2775 -398.91922 2252.0 1
983.82166 -401.3992 2266.0 1
1001.2091 -398.91922 2252.0 1
1024.675 -398.91922 2252.0 1
1048.1407 -398.91922 2252.0 1
1064.469 -396.26212 2237.0 1
1087.7786 -396.26212 2237.0 1
1043.5386 -372.17108 2101.0 1
1058.8387 -369.8683 2088.0 1
1080.5956 -369.8683 2088.0 1
1102.3527 -369.8683 2088.0 1
1117.6492 -367.74258 2076.0 1
816.36536 -512.6015 2733.0 1
838.04236 -508.47522 2711.0 1
852.8701 -500.5977 2669.0 1
880.681 -500.5977 2669.0 1
869.29895 -464.7737 2478.0 1
870.195 -451.8321 2409.0 1
876.71454 -442.45407 2359.0 1
895.1822 -439.45312 2343.0 1
907.4291 -433.63876 2312.0 1
919.0301 -427.8244 2281.0 1
936.5982 -425.011 2266.0 1
954.2775 -422.38516 2252.0 1
983.82166 -425.011 2266.0 1
1001.2091 -422.38516 2252.0 1
1024.675 -422.38516 2252.0 1
1041.1594 -419.57175 2237.0 1
1078.2686 -425.011 2266.0 1
1101.8802 -425.011 2266.0 1
1076.32 -406.44257 2167.0 1
1058.8387 -391.6253 2088.0 1
1074.3853 -389.3746 2076.0 1
1096.0173 -389.3746 2076.0 1
1117.6492 -389.3746 2076.0 1
816.36536 -541.07935 2733.0 1
844.84314 -541.07935 2733.0 1
859.58057 -532.5662 2690.0 1
901.7989 -541.07935 2733.0 1
869.29895 -490.59445 2478.0 1
876.3358 -480.2995 2426.0 1
888.9789 -473.56818 2392.0 1
895.1822 -463.86716 2343.0 1
919.5962 -463.86716 2343.0 1
925.4766 -454.76007 2297.0 1
942.7981 -451.5924 2281.0 1
960.20996 -448.62268 2266.0 1
983.82166 -448.62268 2266.0 1
1001.2091 -445.85098 2252.0 1
1024.675 -445.85098 2252.0 1
1048.1407 -445.85098 2252.0 1
1071.6067 -445.85098 2252.0 1
1124.2485 -457.72977 2312.0 1
1058.8387 -413.38226 2088.0 1
1080.5956 -413.38226 2088.0 1
1102.3527 -413.38226 2088.0 1
1117.6492 -411.0065 2076.0 1
838.04236 -564.9724 2711.0 1
866.2911 -564.9724 2711.0 1
894.90784 -531.6284 2551.0 1
876.3358 -505.5784 2426.0 1
888.9789 -498.4928 2392.0 1
895.1822 -488.2812 2343.0 1
913.3164 -484.94678 2327.0 1
925.4766 -478.6948 2297.0 1
949.4113 -478.6948 2297.0 1
966.56616 -475.36038 2281.0 1
990.33417 -475.36038 2281.0 1
1014.1021 -475.36038 2281.0 1
1037.8702 -475.36038 2281.0 1
1048.1407 -469.3168 2252.0 1
1071.6067 -469.3168 2252.0 1
1109.1742 -475.36038 2281.0 1
1072.0236 -440.5576 2114.0 1
1087.3235 -437.8484 2101.0 1
1102.3527 -435.1392 2088.0 1
1124.1096 -435.1392 2088.0 1
901.6217 -546.1747 2496.0 1
888.9789 -523.4174 2392.0 1
901.2952 -516.19635 2359.0 1
913.3164 -509.19412 2327.0 1
925.4766 -502.62952 2297.0 1
949.4113 -502.62952 2297.0 1
966.56616 -499.1284 2281.0 1
997.2808 -502.62952 2297.0 1
1021.2155 -502.62952 2297.0 1
1045.1503 -502.62952 2297.0 1
1061.6382 -499.1284 2281.0 1
1078.2686 -495.8461 2266.0 1
1116.9545 -502.62952 2297.0 1
1085.2083 -468.27478 2140.0 1
1100.7792 -465.4301 2127.0 1
1122.9426 -465.4301 2127.0 1
1131.1084 -459.74078 2101.0 1
921.4892 -584.7912 2551.0 1
914.25085 -563.93036 2460.0 1
907.7904 -544.6742 2376.0 1
919.5962 -537.10925 2343.0 1
931.5202 -530.0028 2312.0 1
949.4113 -526.5642 2297.0 1
966.56616 -522.89636 2281.0 1
997.2808 -526.5642 2297.0 1
1021.2155 -526.5642 2297.0 1
1045.1503 -526.5642 2297.0 1
1069.085 -526.5642 2297.0 1
1071.6067 -516.2484 2252.0 1
1124.2485 -530.0028 2312.0 1
1122.9426 -487.5934 2127.0 1
1131.1084 -481.63318 2101.0 1
928.3525 -615.9263 2570.0 1
934.31976 -602.50525 2514.0 1
926.89374 -581.4152 2426.0 1
925.876 -565.358 2359.0 1
937.56384 -557.68884 2327.0 1
949.4113 -550.4991 2297.0 1
973.3461 -550.4991 2297.0 1
997.2808 -550.4991 2297.0 1
1021.2155 -550.4991 2297.0 1
1045.1503 -550.4991 2297.0 1
1069.085 -550.4991 2297.0 1
1093.0198 -550.4991 2297.0 1
1124.2485 -554.09393 2312.0 1
1131.1084 -503.5257 2101.0 1
969.6262 -652.45874 2609.0 1
981.9113 -642.7056 2570.0 1
932.5482 -594.19006 2376.0 1
944.0103 -585.93744 2343.0 1
961.8111 -581.93616 2327.0 1
979.70233 -578.185 2312.0 1
1003.79333 -578.185 2312.0 1
1021.2155 -574.4338 2297.0 1
1045.1503 -574.4338 2297.0 1
1069.085 -574.4338 2297.0 1
1100.1576 -578.185 2312.0 1
1124.2485 -578.185 2312.0 1
1015.7104 -711.9465 2733.0 1
1004.45325 -684.8545 2629.0 1
945.5003 -627.5445 2409.0 1
950.45685 -614.5195 2359.0 1
968.4243 -610.3515 2343.0 1
979.70233 -602.276 2312.0 1
1003.79333 -602.276 2312.0 1
1027.8843 -602.276 2312.0 1
1051.9755 -602.276 2312.0 1
1076.0664 -602.276 2312.0 1
1100.1576 -602.276 2312.0 1
1019.3816 -764.5362 2822.0 1
1015.7104 -740.4243 2733.0 1
1027.7593 -728.7748 2690.0 1
945.5003 -652.64624 2409.0 1
963.75275 -648.0406 2392.0 1
975.03754 -639.1002 2359.0 1
986.05853 -630.4308 2327.0 1
1003.79333 -626.367 2312.0 1
1027.8843 -626.367 2312.0 1
1051.9755 -626.367 2312.0 1
1083.0479 -630.4308 2327.0 1
1114.9088 -634.7655 2343.0 1
1011.07336 -787.4706 2799.0 1
1015.7104 -768.90216 2733.0 1
1035.7827 -762.71265 2711.0 1
952.17255 -682.53076 2426.0 1
970.6022 -677.748 2409.0 1
982.0641 -668.4638 2376.0 1
992.8385 -659.17957 2343.0 1
1017.2525 -659.17957 2343.0 1
1048.7799 -663.681 2359.0 1
1066.0807 -659.17957 2343.0 1
1097.9414 -663.681 2359.0 1
1107.2953 -654.6781 2327.0 1
966.1216 -803.5071 2754.0 1
994.8182 -803.5071 2754.0 1
1015.7104 -797.3801 2733.0 1
1027.7593 -784.8344 2690.0 1
958.84485 -712.7697 2443.0 1
970.6022 -702.84985 2409.0 1
982.0641 -693.2218 2376.0 1
992.8385 -683.5937 2343.0 1
1024.1991 -688.2619 2359.0 1
1048.7799 -688.2619 2359.0 1
1073.3607 -688.2619 2359.0 1
1105.8538 -693.2218 2376.0 1
966.1216 -832.20374 2754.0 1
994.8182 -832.20374 2754.0 1
1015.7104 -825.858 2733.0 1
981.9113 -776.6026 2570.0 1
958.84485 -738.22577 2443.0 1
970.6022 -727.95166 2409.0 1
988.6773 -722.8146 2392.0 1
999.6184 -712.84265 2359.0 1
1031.58 -717.9797 2376.0 1
1063.4512 -722.8146 2392.0 1
1081.0958 -717.9797 2376.0 1
952.7422 -874.9674 2799.0 1
966.1216 -860.9004 2754.0 1
987.2324 -854.33575 2733.0 1
1015.7104 -854.33575 2733.0 1
967.39276 -791.5032 2532.0 1
958.84485 -763.68176 2443.0 1
970.6022 -753.0534 2409.0 1
995.7039 -753.0534 2409.0 1
1013.60205 -747.7392 2392.0 1
1038.5266 -747.7392 2392.0 1
1063.4512 -747.7392 2392.0 1
1103.8462 -758.3676 2426.0 1
1129.125 -758.3676 2426.0 1
952.7422 -904.13293 2799.0 1
966.1216 -889.59705 2754.0 1
987.2324 -882.8136 2733.0 1
1015.7104 -882.8136 2733.0 1
974.65204 -824.024 2551.0 1
972.58185 -800.44354 2478.0 1
977.4516 -783.6465 2426.0 1
995.7039 -778.15515 2409.0 1
1013.60205 -772.6638 2392.0 1
1038.5266 -772.6638 2392.0 1
1063.4512 -772.6638 2392.0 1
1088.376 -772.6638 2392.0 1
952.7422 -933.29846 2799.0 1
966.1216 -918.2937 2754.0 1
987.2324 -911.29144 2733.0 1
1007.5342 -903.95575 2711.0 1
967.39276 -844.27 2532.0 1
965.5171 -820.2623 2460.0 1
977.4516 -808.92535 2426.0 1
1002.73047 -808.92535 2426.0 1
1020.8058 -803.2569 2409.0 1
1053.2883 -808.92535 2426.0 1
1086.1251 -814.5939 2443.0 1
952.7422 -962.4642 2799.0 1
966.1216 -946.9905 2754.0 1
987.2324 -939.7694 2733.0 1
962.1933 -890.2536 2589.0 1
953.63837 -858.2746 2496.0 1
965.5171 -845.8956 2460.0 1
984.301 -840.05 2443.0 1
1002.73047 -834.2044 2426.0 1
1028.0094 -834.2044 2426.0 1
1060.6692 -840.05 2443.0 1
1086.1251 -840.05 2443.0 1
952.7422 -991.6297 2799.0 1
974.1901 -983.8356 2777.0 1
987.2324 -968.24725 2733.0 1
941.0094 -897.037 2532.0 1
953.63837 -884.2829 2496.0 1
972.58185 -877.9058 2478.0 1
984.301 -865.50604 2443.0 1
1002.73047 -859.4833 2426.0 1
1028.0094 -859.4833 2426.0 1
1060.6692 -865.50604 2443.0 1
938.7551 -1037.5715 2845.0 1
945.25366 -1012.7719 2777.0 1
958.75464 -996.7251 2733.0 1
979.28546 -988.70166 2711.0 1
941.0094 -923.4204 2532.0 1
946.76117 -903.72656 2478.0 1
972.58185 -903.72656 2478.0 1
984.301 -890.9621 2443.0 1
1009.757 -890.9621 2443.0 1
1028.0094 -884.7622 2426.0 1
923.57666 -1049.9608 2799.0 1
952.7422 -1049.9608 2799.0 1
958.75464 -1025.2029 2733.0 1
971.6997 -1009.07275 2690.0 1
927.6301 -936.2995 2496.0 1
946.76117 -929.5473 2478.0 1
965.5171 -922.79517 2460.0 1
991.1504 -922.79517 2460.0 1
1009.757 -916.4181 2443.0 1
1050.0443 -929.5473 2478.0 1
923.57666 -1079.1263 2799.0 1
952.7422 -1079.1263 2799.0 1
966.1216 -1061.7771 2754.0 1
921.4892 -983.51245 2551.0 1
927.6301 -962.3078 2496.0 1
946.76117 -955.36804 2478.0 1
965.5171 -948.42834 2460.0 1
991.1504 -948.42834 2460.0 1
1002.73047 -935.31995 2426.0 1
1042.4169 -948.42834 2460.0 1
923.57666 -1108.2921 2799.0 1
945.25366 -1099.5809 2777.0 1
922.27075 -1040.9789 2629.0 1
921.4892 -1010.094 2551.0 1
927.6301 -988.31616 2496.0 1
939.884 -974.06165 2460.0 1
965.5171 -974.06165 2460.0 1
991.1504 -974.06165 2460.0 1
1009.757 -967.3303 2443.0 1
916.31744 -1128.5172 2777.0 1
930.2767 -1110.6366 2733.0 1
894.90784 -1036.6754 2551.0 1
901.6217 -1014.32446 2496.0 1
927.6301 -1014.32446 2496.0 1
946.76117 -1007.00964 2478.0 1
958.84485 -992.7863 2443.0 1
984.301 -992.7863 2443.0 1
1009.757 -992.7863 2443.0 1
