ply
format ascii 1.0
comment : created from Kinect user tracker
element vertex 660
property float x
property float y
property float z
property int userId
end_header
1001.2334 478.46555 2551.0 1
969.6262 462.15826 2609.0 1
996.8119 462.15826 2609.0 1
993.7762 448.5185 2532.0 1
1099.3099 448.5185 2532.0 1
935.21576 431.63806 2589.0 1
955.13196 428.47037 2570.0 1
981.9113 428.47037 2570.0 1
986.71136 419.13403 2514.0 1
1005.655 416.1331 2496.0 1
1039.1031 419.13403 2514.0 1
1107.5592 425.30267 2551.0 1
949.66486 410.9127 2629.0 1
962.1933 404.6607 2589.0 1
981.9113 401.69098 2570.0 1
986.71136 392.9382 2514.0 1
1005.655 390.1248 2496.0 1
1046.5431 395.7516 2532.0 1
1057.6718 390.1248 2496.0 1
1099.3099 395.7516 2532.0 1
949.66486 383.51852 2629.0 1
955.13196 374.91162 2570.0 1
974.65204 372.1399 2551.0 1
993.7762 369.36816 2532.0 1
1020.15967 369.36816 2532.0 1
1046.5431 369.36816 2532.0 1
1065.2992 366.74234 2514.0 1
1107.5592 372.1399 2551.0 1
956.8894 358.83353 2649.0 1
962.1933 350.70593 2589.0 1
981.9113 348.13217 2570.0 1
1001.2334 345.55844 2551.0 1
1020.15967 342.9847 2532.0 1
1031.6633 338.10815 2496.0 1
1080.9778 345.55844 2551.0 1
1115.8083 348.13217 2570.0 1
956.8894 331.23096 2649.0 1
969.6262 326.22937 2609.0 1
974.65204 318.97705 2551.0 1
993.7762 316.6013 2532.0 1
1020.15967 316.6013 2532.0 1
1054.3962 318.97705 2551.0 1
1080.9778 318.97705 2551.0 1
1124.0575 323.72858 2589.0 1
979.28546 310.7348 2711.0 1
969.6262 299.04355 2609.0 1
981.9113 294.57336 2570.0 1
993.7762 290.2178 2532.0 1
1020.15967 290.2178 2532.0 1
1054.3962 292.3956 2551.0 1
1089.0289 294.57336 2570.0 1
1150.1074 303.62836 2649.0 1
984.49207 276.0258 2649.0 1
989.1706 269.7738 2589.0 1
1001.2334 265.8142 2551.0 1
1035.4701 267.794 2570.0 1
1062.2495 267.794 2570.0 1
1114.03 273.9418 2629.0 1
1014.8837 271.30557 2893.0 1
1027.6898 266.80414 2845.0 1
1040.2391 262.49023 2799.0 1
996.8119 244.67204 2609.0 1
1001.2334 239.2328 2551.0 1
1027.815 239.2328 2551.0 1
1078.3693 244.67204 2609.0 1
1114.03 246.54764 2629.0 1
1150.1074 248.42325 2649.0 1
938.7551 237.15918 2845.0 1
960.5711 235.2419 2822.0 1
989.97644 235.2419 2822.0 1
1011.07336 233.32462 2799.0 1
1023.51495 229.57343 2754.0 1
1035.7827 225.98894 2711.0 1
1039.6971 220.82062 2649.0 1
1059.2417 219.15343 2629.0 1
1094.9023 220.82062 2649.0 1
1122.505 220.82062 2649.0 1
1141.4242 219.15343 2629.0 1
1168.8182 219.15343 2629.0 1
1187.1124 217.48622 2609.0 1
938.7551 207.51431 2845.0 1
968.39996 207.51431 2845.0 1
989.97644 205.83669 2822.0 1
994.8182 200.87677 2754.0 1
1015.7104 199.34503 2733.0 1
1035.7827 197.74036 2711.0 1
1055.7891 196.2086 2690.0 1
1075.3579 194.67686 2669.0 1
1094.9023 193.21806 2649.0 1
1122.505 193.21806 2649.0 1
1141.4242 191.75926 2629.0 1
1168.8182 191.75926 2629.0 1
1187.1124 190.30048 2609.0 1
1204.9896 188.84167 2589.0 1
1222.926 187.45581 2570.0 1
924.44855 180.87033 2893.0 1
946.6744 179.36984 2869.0 1
960.5711 176.43141 2822.0 1
974.1901 173.61801 2777.0 1
987.2324 170.86713 2733.0 1
1007.5342 169.49168 2711.0 1
1035.7827 169.49168 2711.0 1
1055.7891 168.17877 2690.0 1
1067.2998 165.61545 2649.0 1
1094.9023 165.61545 2649.0 1
1114.03 164.36505 2629.0 1
1132.7408 163.11465 2609.0 1
1159.9265 163.11465 2609.0 1
1178.0123 161.86426 2589.0 1
1196.1465 160.67638 2570.0 1
1213.8849 159.4885 2551.0 1
932.1177 151.9757 2917.0 1
938.7551 148.2245 2845.0 1
952.7422 145.8279 2799.0 1
974.1901 144.6817 2777.0 1
987.2324 142.3893 2733.0 1
1007.5342 141.2431 2711.0 1
1027.7593 140.149 2690.0 1
1039.6971 138.0129 2649.0 1
1067.2998 138.0129 2649.0 1
1086.6357 136.9709 2629.0 1
1114.03 136.9709 2629.0 1
1132.7408 135.9289 2609.0 1
1159.9265 135.9289 2609.0 1
1169.3672 133.897 2570.0 1
1187.3033 132.9071 2551.0 1
1222.926 133.897 2570.0 1
1258.9443 134.8869 2589.0 1
948.09503 123.66459 2967.0 1
946.6744 119.57995 2869.0 1
952.7422 116.662346 2799.0 1
966.1216 114.78674 2754.0 1
987.2324 113.91147 2733.0 1
1007.5342 112.99451 2711.0 1
1019.7359 111.24394 2669.0 1
1039.6971 110.41035 2649.0 1
1067.2998 110.41035 2649.0 1
1086.6357 109.576744 2629.0 1
1114.03 109.576744 2629.0 1
1124.0575 107.909546 2589.0 1
1151.0348 107.909546 2589.0 1
1169.3672 107.11762 2570.0 1
1196.1465 107.11762 2570.0 1
1222.926 107.11762 2570.0 1
1258.9443 107.909546 2589.0 1
948.09503 92.748405 2967.0 1
954.59357 90.435165 2893.0 1
952.7422 87.49673 2799.0 1
958.75464 85.43356 2733.0 1
987.2324 85.43356 2733.0 1
999.7296 84.089386 2690.0 1
1027.7593 84.089386 2690.0 1
1039.6971 82.807724 2649.0 1
1067.2998 82.807724 2649.0 1
1086.6357 82.182526 2629.0 1
1105.555 81.55733 2609.0 1
1132.7408 81.55733 2609.0 1
1142.5876 80.33819 2570.0 1
1169.3672 80.33819 2570.0 1
1196.1465 80.33819 2570.0 1
1222.926 80.33819 2570.0 1
1258.9443 80.93213 2589.0 1
956.40326 62.374134 2993.0 1
954.59357 60.290134 2893.0 1
952.7422 58.331173 2799.0 1
958.75464 56.955734 2733.0 1
987.2324 56.955734 2733.0 1
1007.5342 56.497253 2711.0 1
1019.7359 55.62197 2669.0 1
1039.6971 55.205173 2649.0 1
1059.2417 54.788372 2629.0 1
1078.3693 54.37157 2609.0 1
1097.0802 53.954773 2589.0 1
1132.7408 54.37157 2609.0 1
1142.5876 53.55881 2570.0 1
1169.3672 53.55881 2570.0 1
1196.1465 53.55881 2570.0 1
1213.8849 53.162853 2551.0 1
1249.7053 53.55881 2570.0 1
1285.9216 53.954773 2589.0 1
956.40326 31.187029 2993.0 1
962.51276 30.395111 2917.0 1
952.7422 29.165552 2799.0 1
958.75464 28.477833 2733.0 1
987.2324 28.477833 2733.0 1
1007.5342 28.248592 2711.0 1
1019.7359 27.810953 2669.0 1
1039.6971 27.602552 2649.0 1
1059.2417 27.394154 2629.0 1
1086.6357 27.394154 2629.0 1
1097.0802 26.977354 2589.0 1
1124.0575 26.977354 2589.0 1
1151.0348 26.977354 2589.0 1
1169.3672 26.779373 2570.0 1
1204.9896 26.977354 2589.0 1
1222.926 26.779373 2570.0 1
1258.9443 26.977354 2589.0 1
941.5998 0.0 3046.0 1
964.7114 0.0 3019.0 1
970.7619 0.0 2942.0 1
952.7422 0.0 2799.0 1
966.1216 0.0 2754.0 1
987.2324 0.0 2733.0 1
1007.5342 0.0 2711.0 1
1027.7593 0.0 2690.0 1
1039.6971 0.0 2649.0 1
1059.2417 0.0 2629.0 1
1086.6357 0.0 2629.0 1
1114.03 0.0 2629.0 1
1141.4242 0.0 2629.0 1
1159.9265 0.0 2609.0 1
1187.1124 0.0 2609.0 1
1214.2981 0.0 2609.0 1
1222.926 0.0 2570.0 1
1249.7053 0.0 2570.0 1
1305.7892 0.0 2629.0 1
909.86053 -31.739288 3046.0 1
949.94617 -32.02063 3073.0 1
964.7114 -31.457949 3019.0 1
979.0111 -30.91611 2967.0 1
952.7422 -29.165552 2799.0 1
966.1216 -28.696651 2754.0 1
987.2324 -28.477833 2733.0 1
1007.5342 -28.248592 2711.0 1
1027.7593 -28.029772 2690.0 1
1039.6971 -27.602552 2649.0 1
1067.2998 -27.602552 2649.0 1
1086.6357 -27.394154 2629.0 1
1114.03 -27.394154 2629.0 1
1141.4242 -27.394154 2629.0 1
1168.8182 -27.394154 2629.0 1
1205.3126 -27.602552 2649.0 1
1223.6067 -27.394154 2629.0 1
1222.926 -26.779373 2570.0 1
1258.9443 -26.977354 2589.0 1
917.9256 -64.04126 3073.0 1
949.94617 -64.04126 3073.0 1
973.33923 -63.478577 3046.0 1
970.7619 -61.311222 2942.0 1
960.5711 -58.81042 2822.0 1
966.1216 -57.393303 2754.0 1
987.2324 -56.955666 2733.0 1
1007.5342 -56.497185 2711.0 1
1035.7827 -56.497185 2711.0 1
1047.5469 -55.621906 2669.0 1
1075.3579 -55.621906 2669.0 1
1094.9023 -55.205105 2649.0 1
1122.505 -55.205105 2649.0 1
1150.1074 -55.205105 2649.0 1
1186.6017 -55.621906 2669.0 1
1205.3126 -55.205105 2649.0 1
1223.6067 -54.788307 2629.0 1
1251.001 -54.788307 2629.0 1
1278.395 -54.788307 2629.0 1
1295.8555 -54.371506 2609.0 1
902.0489 -97.8126 3129.0 1
926.28937 -96.93732 3101.0 1
949.94617 -96.06204 3073.0 1
973.33923 -95.21802 3046.0 1
946.6744 -89.685 2869.0 1
960.5711 -88.215775 2822.0 1
974.1901 -86.809074 2777.0 1
987.2324 -85.43363 2733.0 1
1007.5342 -84.74591 2711.0 1
1027.7593 -84.089455 2690.0 1
1047.5469 -83.43299 2669.0 1
1075.3579 -83.43299 2669.0 1
1103.1688 -83.43299 2669.0 1
1122.505 -82.80779 2649.0 1
1150.1074 -82.80779 2649.0 1
1186.6017 -83.43299 2669.0 1
1223.9679 -84.089455 2690.0 1
1232.9152 -82.80779 2649.0 1
1251.001 -82.182594 2629.0 1
1278.395 -82.182594 2629.0 1
902.0489 -130.41675 3129.0 1
926.28937 -129.24971 3101.0 1
958.60175 -129.24971 3101.0 1
938.7551 -118.57963 2845.0 1
960.5711 -117.62099 2822.0 1
981.9079 -116.662346 2799.0 1
987.2324 -113.91147 2733.0 1
1007.5342 -112.99451 2711.0 1
1035.7827 -112.99451 2711.0 1
1047.5469 -111.24394 2669.0 1
1075.3579 -111.24394 2669.0 1
1111.8486 -112.119225 2690.0 1
1130.9799 -111.24394 2669.0 1
1158.7908 -111.24394 2669.0 1
1195.938 -112.119225 2690.0 1
1223.9679 -112.119225 2690.0 1
1223.6067 -109.576744 2629.0 1
1251.001 -109.576744 2629.0 1
1288.1204 -110.41035 2649.0 1
1295.8555 -108.74314 2609.0 1
861.6645 -161.5621 3101.0 1
893.97687 -161.5621 3101.0 1
917.9256 -160.1033 3073.0 1
954.59357 -150.7253 2893.0 1
960.5711 -147.0262 2822.0 1
981.9079 -145.8279 2799.0 1
987.2324 -142.3893 2733.0 1
1015.7104 -142.3893 2733.0 1
1035.7827 -141.2431 2711.0 1
1055.7891 -140.149 2690.0 1
1092.28 -141.2431 2711.0 1
1111.8486 -140.149 2690.0 1
1139.8785 -140.149 2690.0 1
1167.9083 -140.149 2690.0 1
1195.938 -140.149 2690.0 1
1233.5231 -141.2431 2711.0 1
1214.2981 -135.9289 2609.0 1
1251.001 -136.9709 2629.0 1
1288.1204 -138.0129 2649.0 1
1315.7229 -138.0129 2649.0 1
861.6645 -193.87448 3101.0 1
885.90485 -192.12393 3073.0 1
909.86053 -190.43588 3046.0 1
948.09503 -185.49681 2967.0 1
954.59357 -180.87033 2893.0 1
960.5711 -176.43141 2822.0 1
981.9079 -174.99345 2799.0 1
987.2324 -170.86713 2733.0 1
1015.7104 -170.86713 2733.0 1
1035.7827 -169.49168 2711.0 1
1064.0312 -169.49168 2711.0 1
1092.28 -169.49168 2711.0 1
1120.5286 -169.49168 2711.0 1
1139.8785 -168.17877 2690.0 1
1177.0258 -169.49168 2711.0 1
1205.2744 -169.49168 2711.0 1
1243.5332 -170.86713 2733.0 1
1223.6067 -164.36505 2629.0 1
1251.001 -164.36505 2629.0 1
1288.1204 -165.61545 2649.0 1
1276.4846 -160.67638 2570.0 1
829.3522 -226.18687 3101.0 1
861.6645 -226.18687 3101.0 1
885.90485 -224.14456 3073.0 1
956.40326 -218.30936 2993.0 1
954.59357 -211.01537 2893.0 1
960.5711 -205.83662 2822.0 1
981.9079 -204.159 2799.0 1
1003.1264 -202.55432 2777.0 1
1015.7104 -199.34496 2733.0 1
1044.1882 -199.34496 2733.0 1
1064.0312 -197.74028 2711.0 1
1092.28 -197.74028 2711.0 1
1120.5286 -197.74028 2711.0 1
1148.7772 -197.74028 2711.0 1
1186.5775 -199.34496 2733.0 1
1215.0553 -199.34496 2733.0 1
1233.5231 -197.74028 2711.0 1
1232.9152 -193.218 2649.0 1
1241.484 -190.3004 2609.0 1
1288.1204 -193.218 2649.0 1
1285.9216 -188.8416 2589.0 1
836.8407 -260.8335 3129.0 1
861.6645 -258.49942 3101.0 1
940.1064 -245.24518 2942.0 1
962.51276 -243.16118 2917.0 1
968.39996 -237.15926 2845.0 1
981.9079 -233.32469 2799.0 1
1011.07336 -233.32469 2799.0 1
1032.0629 -231.49077 2777.0 1
1044.1882 -227.82294 2733.0 1
1080.9082 -229.57349 2754.0 1
1101.1439 -227.82294 2733.0 1
1120.5286 -225.98901 2711.0 1
1158.0997 -227.82294 2733.0 1
1186.5775 -227.82294 2733.0 1
1215.0553 -227.82294 2733.0 1
1223.9679 -224.23845 2690.0 1
1232.9152 -220.8207 2649.0 1
1251.001 -219.15349 2629.0 1
1268.6697 -217.48628 2609.0 1
811.4331 -296.06348 3157.0 1
829.3522 -290.8118 3101.0 1
831.6549 -280.68356 2993.0 1
956.40326 -280.68356 2993.0 1
970.7619 -275.9008 2942.0 1
976.5693 -269.05484 2869.0 1
989.97644 -264.6472 2822.0 1
1019.3816 -264.6472 2822.0 1
1040.2391 -262.49023 2799.0 1
1044.1882 -256.30075 2733.0 1
1072.666 -256.30075 2733.0 1
1101.1439 -256.30075 2733.0 1
1129.6217 -256.30075 2733.0 1
1158.0997 -256.30075 2733.0 1
1186.5775 -256.30075 2733.0 1
1224.3916 -258.27014 2754.0 1
1205.3126 -248.42325 2649.0 1
1223.6067 -246.54764 2629.0 1
1241.484 -244.67204 2609.0 1
804.2364 -326.0418 3129.0 1
829.3522 -323.1242 3101.0 1
846.38184 -317.3932 3046.0 1
956.40326 -311.8706 2993.0 1
970.7619 -306.5564 2942.0 1
968.39996 -296.449 2845.0 1
989.97644 -294.0524 2822.0 1
1019.3816 -294.0524 2822.0 1
1040.2391 -291.6558 2799.0 1
1060.9991 -289.3634 2777.0 1
1072.666 -284.7786 2733.0 1
1101.1439 -284.7786 2733.0 1
1120.5286 -282.4862 2711.0 1
1148.7772 -282.4862 2711.0 1
1186.5775 -284.7786 2733.0 1
1215.0553 -284.7786 2733.0 1
1205.3126 -276.0258 2649.0 1
1223.6067 -273.9418 2629.0 1
1231.967 -269.7738 2589.0 1
804.2364 -358.64594 3129.0 1
829.3522 -355.43658 3101.0 1
853.8843 -352.22723 3073.0 1
956.40326 -343.05762 2993.0 1
962.51276 -334.3465 2917.0 1
984.7385 -331.5956 2893.0 1
989.97644 -323.4576 2822.0 1
1019.3816 -323.4576 2822.0 1
1040.2391 -320.82135 2799.0 1
1052.2115 -315.66345 2754.0 1
1080.9082 -315.66345 2754.0 1
1101.1439 -313.25644 2733.0 1
1129.6217 -313.25644 2733.0 1
1158.0997 -313.25644 2733.0 1
1195.695 -315.66345 2754.0 1
1186.6017 -305.92075 2669.0 1
1196.2125 -301.33594 2629.0 1
1214.2981 -299.04355 2609.0 1
811.4331 -394.75122 3157.0 1
814.64264 -380.87177 3046.0 1
964.7114 -377.4957 3019.0 1
954.59357 -361.74066 2893.0 1
976.5693 -358.7397 2869.0 1
989.97644 -352.86282 2822.0 1
1011.07336 -349.9869 2799.0 1
1040.2391 -349.9869 2799.0 1
1052.2115 -344.3601 2754.0 1
1072.666 -341.73425 2733.0 1
1101.1439 -341.73425 2733.0 1
1129.6217 -341.73425 2733.0 1
1166.9984 -344.3601 2754.0 1
1205.6808 -347.23602 2777.0 1
1177.71 -331.2309 2649.0 1
1196.2125 -328.7301 2629.0 1
1223.6067 -328.7301 2629.0 1
964.7114 -408.9538 3019.0 1
962.51276 -395.13687 2917.0 1
984.7385 -391.88583 2893.0 1
1006.46436 -388.6348 2869.0 1
1019.3816 -382.26816 2822.0 1
1040.2391 -379.1526 2799.0 1
1052.2115 -373.0569 2754.0 1
1072.666 -370.21222 2733.0 1
1101.1439 -370.21222 2733.0 1
1129.6217 -370.21222 2733.0 1
1158.0997 -370.21222 2733.0 1
1177.0258 -367.23212 2711.0 1
1177.71 -358.8336 2649.0 1
1187.1124 -353.4152 2609.0 1
964.7114 -440.41174 3019.0 1
979.0111 -432.826 2967.0 1
992.90784 -425.53198 2917.0 1
998.045 -415.02863 2845.0 1
1011.07336 -408.31815 2799.0 1
1023.51495 -401.75354 2754.0 1
1060.9991 -405.1088 2777.0 1
1072.666 -398.69006 2733.0 1
1101.1439 -398.69006 2733.0 1
1129.6217 -398.69006 2733.0 1
1158.0997 -398.69006 2733.0 1
1150.1074 -386.43613 2649.0 1
1159.9265 -380.60095 2609.0 1
1187.1124 -380.60095 2609.0 1
964.7114 -471.8697 3019.0 1
987.5902 -467.80588 2993.0 1
1001.4175 -459.8346 2942.0 1
1006.46436 -448.42468 2869.0 1
1011.07336 -437.4837 2799.0 1
1023.51495 -430.4502 2754.0 1
1052.2115 -430.4502 2754.0 1
1072.666 -427.16788 2733.0 1
1101.1439 -427.16788 2733.0 1
1129.6217 -427.16788 2733.0 1
1139.8785 -420.447 2690.0 1
1141.4242 -410.9127 2629.0 1
1168.8182 -410.9127 2629.0 1
981.967 -512.3305 3073.0 1
996.1694 -503.32764 3019.0 1
1018.7772 -498.99292 2993.0 1
1006.46436 -478.31964 2869.0 1
1003.1264 -462.9814 2777.0 1
1023.51495 -459.14685 2754.0 1
1052.2115 -459.14685 2754.0 1
1072.666 -455.64572 2733.0 1
1101.1439 -455.64572 2733.0 1
1103.1688 -444.97565 2669.0 1
1122.505 -441.64124 2649.0 1
1141.4242 -438.30685 2629.0 1
1151.0348 -431.63806 2589.0 1
1178.0123 -431.63806 2589.0 1
981.967 -544.35114 3073.0 1
996.1694 -534.7856 3019.0 1
1018.7772 -530.17993 2993.0 1
989.97644 -499.889 2822.0 1
1011.07336 -495.8148 2799.0 1
1023.51495 -487.8435 2754.0 1
1052.2115 -487.8435 2754.0 1
1072.666 -484.12357 2733.0 1
1092.28 -480.22647 2711.0 1
1094.9023 -469.2438 2649.0 1
1114.03 -465.701 2629.0 1
1141.4242 -465.701 2629.0 1
1151.0348 -458.6154 2589.0 1
981.967 -576.37195 3073.0 1
1005.0784 -571.3078 3046.0 1
1009.9271 -556.49054 2967.0 1
989.97644 -529.2944 2822.0 1
1011.07336 -524.98047 2799.0 1
1023.51495 -516.5403 2754.0 1
1052.2115 -516.5403 2754.0 1
1080.9082 -516.5403 2754.0 1
1075.3579 -500.5977 2669.0 1
1086.6357 -493.09528 2629.0 1
1114.03 -493.09528 2629.0 1
1141.4242 -493.09528 2629.0 1
981.967 -608.3926 3073.0 1
1005.0784 -603.0471 3046.0 1
992.90784 -577.5077 2917.0 1
989.97644 -558.6996 2822.0 1
1011.07336 -554.14606 2799.0 1
1032.0629 -549.79047 2777.0 1
1060.9991 -549.79047 2777.0 1
1089.9354 -549.79047 2777.0 1
1109.605 -545.23694 2754.0 1
1094.9023 -524.44904 2649.0 1
1114.03 -520.48944 2629.0 1
1141.4242 -520.48944 2629.0 1
999.8616 -652.0836 3129.0 1
1013.98755 -640.4132 3073.0 1
984.7385 -602.9012 2893.0 1
981.9079 -583.3116 2799.0 1
1011.07336 -583.3116 2799.0 1
1040.2391 -583.3116 2799.0 1
1060.9991 -578.7268 2777.0 1
1098.5701 -583.3116 2799.0 1
1118.8718 -578.7268 2777.0 1
1013.98755 -672.43384 3073.0 1
984.7385 -633.0462 2893.0 1
981.9079 -612.4771 2799.0 1
1011.07336 -612.4771 2799.0 1
1040.2391 -612.4771 2799.0 1
1069.4045 -612.4771 2799.0 1
1098.5701 -612.4771 2799.0 1
1155.9392 -627.79456 2869.0 1
996.1694 -692.0755 3019.0 1
976.5693 -657.6895 2869.0 1
989.97644 -646.9152 2822.0 1
1011.07336 -641.6427 2799.0 1
1040.2391 -641.6427 2799.0 1
1069.4045 -641.6427 2799.0 1
1116.6245 -652.18774 2845.0 1
954.59357 -693.3364 2893.0 1
968.39996 -681.83276 2845.0 1
989.97644 -676.32056 2822.0 1
1011.07336 -670.8084 2799.0 1
1040.2391 -670.8084 2799.0 1
1078.1921 -676.32056 2822.0 1
946.6744 -717.47955 2869.0 1
968.39996 -711.4776 2845.0 1
989.97644 -705.72577 2822.0 1
1019.3816 -705.72577 2822.0 1
1048.787 -705.72577 2822.0 1
1086.9796 -711.4776 2845.0 1
962.51276 -759.8785 2917.0 1
968.39996 -741.1225 2845.0 1
989.97644 -735.131 2822.0 1
1019.3816 -735.131 2822.0 1
1057.3348 -741.1225 2845.0 1
1105.3188 -753.62646 2893.0 1
962.51276 -790.2736 2917.0 1
968.39996 -770.76733 2845.0 1
989.97644 -764.5362 2822.0 1
1027.6898 -770.76733 2845.0 1
1066.2544 -777.2694 2869.0 1
962.51276 -820.6687 2917.0 1
984.7385 -813.91656 2893.0 1
1006.46436 -807.16437 2869.0 1
1036.3593 -807.16437 2869.0 1
1075.1738 -813.91656 2893.0 1
1195.4866 -880.3128 3129.0 1
970.7619 -858.358 2942.0 1
984.7385 -844.0617 2893.0 1
1006.46436 -837.0595 2869.0 1
1036.3593 -837.0595 2869.0 1
1075.1738 -844.0617 2893.0 1
1206.1844 -921.08636 3157.0 1
956.40326 -904.42474 2993.0 1
970.7619 -889.01355 2942.0 1
992.90784 -881.45905 2917.0 1
1006.46436 -866.9544 2869.0 1
1036.3593 -866.9544 2869.0 1
1228.7263 -971.8109 3216.0 1
964.7114 -943.7394 3019.0 1
979.0111 -927.4842 2967.0 1
1009.9271 -927.4842 2967.0 1
1023.30304 -911.8542 2917.0 1
1045.0287 -904.3518 2893.0 1
1184.0663 -995.9436 3186.0 1
1252.0325 -1024.3901 3277.0 1
964.7114 -975.1973 3019.0 1
987.5902 -966.7988 2993.0 1
1009.9271 -958.40027 2967.0 1
1023.30304 -942.24927 2917.0 1
1071.7595 -958.40027 2967.0 1
1195.2157 -1038.8323 3216.0 1
1252.0325 -1058.5365 3277.0 1
973.33923 -1015.65814 3046.0 1
996.1694 -1006.6553 3019.0 1
1001.4175 -980.9804 2942.0 1
1049.9644 -997.98584 2993.0 1
1110.0494 -1024.661 3073.0 1
1206.3651 -1082.3462 3246.0 1
973.33923 -1047.3976 3046.0 1
987.5902 -1029.173 2993.0 1
1009.9271 -1020.23267 2967.0 1
1049.9644 -1029.173 2993.0 1
964.7114 -1069.5713 3019.0 1
987.5902 -1060.3601 2993.0 1
1018.7772 -1060.3601 2993.0 1
1049.9644 -1060.3601 2993.0 1
941.5998 -1110.8762 3046.0 1
956.40326 -1091.5471 2993.0 1
987.5902 -1091.5471 2993.0 1
1018.7772 -1091.5471 2993.0 1
1059.0853 -1101.0293 3019.0 1
917.9256 -1152.7437 3073.0 1
933.25336 -1132.4872 3019.0 1
956.40326 -1122.7341 2993.0 1
987.5902 -1122.7341 2993.0 1
1027.6272 -1132.4872 3019.0 1
901.7955 -1163.9452 3019.0 1
925.21606 -1153.9211 2993.0 1
964.7114 -1163.9452 3019.0 1
987.5902 -1153.9211 2993.0 1
1027.6272 -1163.9452 3019.0 1
862.8419 -1185.1083 2993.0 1
886.2627 -1174.8134 2967.0 1
917.1788 -1174.8134 2967.0 1
956.40326 -1185.1083 2993.0 1
979.0111 -1174.8134 2967.0 1
1018.7772 -1185.1083 2993.0 1
848.1393 -1195.57 2942.0 1
878.79504 -1195.57 2942.0 1
909.4506 -1195.57 2942.0 1
940.1064 -1195.57 2942.0 1
979.0111 -1205.7295 2967.0 1
