ply
format ascii 1.0
comment : created from Kinect user tracker
element vertex 756
property float x
property float y
property float z
property int userId
end_header
1057.6718 442.14145 2496.0 1
1099.3099 448.5185 2532.0 1
1101.6857 438.9529 2478.0 1
1005.655 416.1331 2496.0 1
1039.1031 419.13403 2514.0 1
1057.6718 416.1331 2496.0 1
1091.495 419.13403 2514.0 1
1117.6908 419.13403 2514.0 1
1160.722 425.30267 2551.0 1
1144.9496 410.13116 2460.0 1
1004.45325 410.9127 2629.0 1
1008.6907 401.69098 2570.0 1
1027.815 398.72128 2551.0 1
1046.5431 395.7516 2532.0 1
1065.2992 392.9382 2514.0 1
1083.6799 390.1248 2496.0 1
1109.6882 390.1248 2496.0 1
1135.6967 390.1248 2496.0 1
1004.45325 383.51852 2629.0 1
1031.8474 383.51852 2629.0 1
1043.1254 377.68335 2589.0 1
1046.5431 369.36816 2532.0 1
1065.2992 366.74234 2514.0 1
1083.6799 364.1165 2496.0 1
1101.6857 361.49066 2478.0 1
1143.8867 366.74234 2514.0 1
1187.3033 372.1399 2551.0 1
1213.8849 372.1399 2551.0 1
1012.0946 358.83353 2649.0 1
1023.9976 353.41513 2609.0 1
1027.815 345.55844 2551.0 1
1046.5431 342.9847 2532.0 1
1065.2992 340.54642 2514.0 1
1083.6799 338.10815 2496.0 1
1117.6908 340.54642 2514.0 1
1143.8867 340.54642 2514.0 1
1204.8438 342.9847 2532.0 1
1023.9976 326.22937 2609.0 1
1035.4701 321.3528 2570.0 1
1062.2495 321.3528 2570.0 1
1072.9266 316.6013 2532.0 1
1091.495 314.35056 2514.0 1
1125.6934 316.6013 2532.0 1
1160.722 318.97705 2551.0 1
1214.2981 326.22937 2609.0 1
1204.8438 316.6013 2532.0 1
1008.6907 294.57336 2570.0 1
1035.4701 294.57336 2570.0 1
1062.2495 294.57336 2570.0 1
1080.9778 292.3956 2551.0 1
1091.495 288.15466 2514.0 1
1125.6934 290.2178 2532.0 1
1152.0769 290.2178 2532.0 1
1187.7134 286.0915 2496.0 1
1089.9354 289.3634 2777.0 1
1059.2417 273.9418 2629.0 1
1062.2495 267.794 2570.0 1
1080.9778 265.8142 2551.0 1
1107.5592 265.8142 2551.0 1
1134.1405 265.8142 2551.0 1
1223.6067 273.9418 2629.0 1
1036.3593 269.05484 2869.0 1
1048.787 264.6472 2822.0 1
1069.4045 262.49023 2799.0 1
1098.5701 262.49023 2799.0 1
1092.28 254.23761 2711.0 1
1086.6357 246.54764 2629.0 1
1080.9778 239.2328 2551.0 1
1107.5592 239.2328 2551.0 1
1142.5876 241.01462 2570.0 1
1196.2125 246.54764 2629.0 1
989.97644 235.2419 2822.0 1
1011.07336 233.32462 2799.0 1
1040.2391 233.32462 2799.0 1
1052.2115 229.57343 2754.0 1
1080.9082 229.57343 2754.0 1
1092.28 225.98894 2711.0 1
1103.1688 222.48782 2669.0 1
1114.03 219.15343 2629.0 1
1132.7408 217.48622 2609.0 1
1159.9265 217.48622 2609.0 1
1205.3126 220.82062 2649.0 1
1232.9152 220.82062 2649.0 1
1251.001 219.15343 2629.0 1
998.045 207.51431 2845.0 1
1011.07336 204.15907 2799.0 1
1032.0629 202.5544 2777.0 1
1044.1882 199.34503 2733.0 1
1064.0312 197.74036 2711.0 1
1083.819 196.2086 2690.0 1
1103.1688 194.67686 2669.0 1
1122.505 193.21806 2649.0 1
1150.1074 193.21806 2649.0 1
1168.8182 191.75926 2629.0 1
1196.2125 191.75926 2629.0 1
1232.9152 193.21806 2649.0 1
1241.484 190.30048 2609.0 1
1268.6697 190.30048 2609.0 1
1305.7892 191.75926 2629.0 1
976.5693 179.36984 2869.0 1
1006.46436 179.36984 2869.0 1
1011.07336 174.99345 2799.0 1
1023.51495 172.18005 2754.0 1
1052.2115 172.18005 2754.0 1
1072.666 170.86713 2733.0 1
1083.819 168.17877 2690.0 1
1103.1688 166.86584 2669.0 1
1122.505 165.61545 2649.0 1
1141.4242 164.36505 2629.0 1
1168.8182 164.36505 2629.0 1
1196.2125 164.36505 2629.0 1
1223.6067 164.36505 2629.0 1
1241.484 163.11465 2609.0 1
1278.395 164.36505 2629.0 1
1285.9216 161.86426 2589.0 1
1323.0413 163.11465 2609.0 1
984.7385 150.7253 2893.0 1
998.045 148.2245 2845.0 1
1011.07336 145.8279 2799.0 1
1032.0629 144.6817 2777.0 1
1044.1882 142.3893 2733.0 1
1072.666 142.3893 2733.0 1
1083.819 140.149 2690.0 1
1094.9023 138.0129 2649.0 1
1114.03 136.9709 2629.0 1
1141.4242 136.9709 2629.0 1
1168.8182 136.9709 2629.0 1
1187.1124 135.9289 2609.0 1
1214.2981 135.9289 2609.0 1
1231.967 134.8869 2589.0 1
1258.9443 134.8869 2589.0 1
1276.4846 133.897 2570.0 1
1312.8992 134.8869 2589.0 1
1330.0435 133.897 2570.0 1
970.7619 122.62259 2942.0 1
984.7385 120.58027 2893.0 1
989.97644 117.62099 2822.0 1
1003.1264 115.745384 2777.0 1
1015.7104 113.91147 2733.0 1
1035.7827 112.99451 2711.0 1
1064.0312 112.99451 2711.0 1
1075.3579 111.24394 2669.0 1
1094.9023 110.41035 2649.0 1
1122.505 110.41035 2649.0 1
1132.7408 108.74314 2609.0 1
1168.8182 109.576744 2629.0 1
1187.1124 108.74314 2609.0 1
1204.9896 107.909546 2589.0 1
1222.926 107.11762 2570.0 1
1258.9443 107.909546 2589.0 1
1285.9216 107.909546 2589.0 1
1312.8992 107.909546 2589.0 1
1339.8765 107.909546 2589.0 1
962.51276 91.1854 2917.0 1
992.90784 91.1854 2917.0 1
998.045 88.934685 2845.0 1
994.8182 86.09003 2754.0 1
1007.5342 84.74584 2711.0 1
1035.7827 84.74584 2711.0 1
1055.7891 84.089386 2690.0 1
1075.3579 83.43292 2669.0 1
1094.9023 82.807724 2649.0 1
1122.505 82.807724 2649.0 1
1141.4242 82.182526 2629.0 1
1168.8182 82.182526 2629.0 1
1178.0123 80.93213 2589.0 1
1204.9896 80.93213 2589.0 1
1222.926 80.33819 2570.0 1
1258.9443 80.93213 2589.0 1
1285.9216 80.93213 2589.0 1
1312.8992 80.93213 2589.0 1
1339.8765 80.93213 2589.0 1
1005.0784 63.478653 3046.0 1
992.90784 60.790295 2917.0 1
1014.8837 60.290134 2893.0 1
1011.07336 58.331173 2799.0 1
1015.7104 56.955734 2733.0 1
1035.7827 56.497253 2711.0 1
1055.7891 56.059612 2690.0 1
1083.819 56.059612 2690.0 1
1094.9023 55.205173 2649.0 1
1114.03 54.788372 2629.0 1
1141.4242 54.788372 2629.0 1
1159.9265 54.37157 2609.0 1
1187.1124 54.37157 2609.0 1
1204.9896 53.954773 2589.0 1
1231.967 53.954773 2589.0 1
1268.6697 54.37157 2609.0 1
1285.9216 53.954773 2589.0 1
1312.8992 53.954773 2589.0 1
1339.8765 53.954773 2589.0 1
1366.854 53.954773 2589.0 1
987.5902 31.187029 2993.0 1
1009.9271 30.91611 2967.0 1
1023.30304 30.395111 2917.0 1
1003.1264 28.936312 2777.0 1
1015.7104 28.477833 2733.0 1
1035.7827 28.248592 2711.0 1
1055.7891 28.029772 2690.0 1
1083.819 28.029772 2690.0 1
1094.9023 27.602552 2649.0 1
1114.03 27.394154 2629.0 1
1141.4242 27.394154 2629.0 1
1159.9265 27.185753 2609.0 1
1169.3672 26.779373 2570.0 1
1204.9896 26.977354 2589.0 1
1222.926 26.779373 2570.0 1
1278.395 27.394154 2629.0 1
1295.8555 27.185753 2609.0 1
1312.8992 26.977354 2589.0 1
1339.8765 26.977354 2589.0 1
964.7114 0.0 3019.0 1
996.1694 0.0 3019.0 1
1018.7772 0.0 2993.0 1
1023.30304 0.0 2917.0 1
1003.1264 0.0 2777.0 1
1015.7104 0.0 2733.0 1
1035.7827 0.0 2711.0 1
1064.0312 0.0 2711.0 1
1083.819 0.0 2690.0 1
1094.9023 0.0 2649.0 1
1114.03 0.0 2629.0 1
1141.4242 0.0 2629.0 1
1159.9265 0.0 2609.0 1
1187.1124 0.0 2609.0 1
1223.6067 0.0 2629.0 1
1251.001 0.0 2629.0 1
1288.1204 0.0 2649.0 1
1305.7892 0.0 2629.0 1
1312.8992 0.0 2589.0 1
1320.2104 0.0 2551.0 1
973.33923 -31.739288 3046.0 1
996.1694 -31.457949 3019.0 1
1027.6272 -31.457949 3019.0 1
1014.8837 -30.145031 2893.0 1
1011.07336 -29.165552 2799.0 1
1023.51495 -28.696651 2754.0 1
1044.1882 -28.477833 2733.0 1
1064.0312 -28.248592 2711.0 1
1083.819 -28.029772 2690.0 1
1094.9023 -27.602552 2649.0 1
1122.505 -27.602552 2649.0 1
1141.4242 -27.394154 2629.0 1
1159.9265 -27.185753 2609.0 1
1196.2125 -27.394154 2629.0 1
1223.6067 -27.394154 2629.0 1
1260.5178 -27.602552 2649.0 1
1297.8457 -27.810953 2669.0 1
1305.7892 -27.394154 2629.0 1
1323.0413 -27.185753 2609.0 1
1339.8765 -26.977354 2589.0 1
949.94617 -64.04126 3073.0 1
973.33923 -63.478577 3046.0 1
996.1694 -62.915897 3019.0 1
1036.8176 -63.478577 3046.0 1
998.045 -59.28974 2845.0 1
1011.07336 -58.331104 2799.0 1
1032.0629 -57.872623 2777.0 1
1044.1882 -56.955666 2733.0 1
1064.0312 -56.497185 2711.0 1
1083.819 -56.059544 2690.0 1
1111.8486 -56.059544 2690.0 1
1122.505 -55.205105 2649.0 1
1150.1074 -55.205105 2649.0 1
1177.71 -55.205105 2649.0 1
1205.3126 -55.205105 2649.0 1
1232.9152 -55.205105 2649.0 1
1270.0348 -55.621906 2669.0 1
1297.8457 -55.621906 2669.0 1
1315.7229 -55.205105 2649.0 1
1323.0413 -54.371506 2609.0 1
1350.227 -54.371506 2609.0 1
1431.2634 -56.497185 2711.0 1
941.5998 -95.21802 3046.0 1
964.7114 -94.374 3019.0 1
996.1694 -94.374 3019.0 1
1036.8176 -95.21802 3046.0 1
1014.8837 -90.435234 2893.0 1
1011.07336 -87.496796 2799.0 1
1032.0629 -86.809074 2777.0 1
1044.1882 -85.43363 2733.0 1
1064.0312 -84.74591 2711.0 1
1083.819 -84.089455 2690.0 1
1103.1688 -83.43299 2669.0 1
1122.505 -82.80779 2649.0 1
1150.1074 -82.80779 2649.0 1
1177.71 -82.80779 2649.0 1
1205.3126 -82.80779 2649.0 1
1242.2238 -83.43299 2669.0 1
1290.0204 -84.74591 2711.0 1
1308.0573 -84.089455 2690.0 1
1315.7229 -82.80779 2649.0 1
1312.8992 -80.93219 2589.0 1
1339.8765 -80.93219 2589.0 1
917.9256 -128.08267 3073.0 1
941.5998 -126.957306 3046.0 1
973.33923 -126.957306 3046.0 1
1023.30304 -121.58059 2917.0 1
1011.07336 -116.662346 2799.0 1
1023.51495 -114.78674 2754.0 1
1044.1882 -113.91147 2733.0 1
1064.0312 -112.99451 2711.0 1
1083.819 -112.119225 2690.0 1
1111.8486 -112.119225 2690.0 1
1130.9799 -111.24394 2669.0 1
1158.7908 -111.24394 2669.0 1
1186.6017 -111.24394 2669.0 1
1205.3126 -110.41035 2649.0 1
1251.9977 -112.119225 2690.0 1
1290.0204 -112.99451 2711.0 1
1297.8457 -111.24394 2669.0 1
1315.7229 -110.41035 2649.0 1
1333.1835 -109.576744 2629.0 1
1339.8765 -107.909546 2589.0 1
917.9256 -160.1033 3073.0 1
933.25336 -157.2899 3019.0 1
956.40326 -155.9353 2993.0 1
1014.8837 -150.7253 2893.0 1
1011.07336 -145.8279 2799.0 1
1032.0629 -144.6817 2777.0 1
1044.1882 -142.3893 2733.0 1
1064.0312 -141.2431 2711.0 1
1101.1439 -142.3893 2733.0 1
1111.8486 -140.149 2690.0 1
1139.8785 -140.149 2690.0 1
1167.9083 -140.149 2690.0 1
1186.6017 -139.0549 2669.0 1
1223.9679 -140.149 2690.0 1
1242.2238 -139.0549 2669.0 1
1300.489 -142.3893 2733.0 1
1308.0573 -140.149 2690.0 1
1315.7229 -138.0129 2649.0 1
1323.0413 -135.9289 2609.0 1
1360.5775 -136.9709 2629.0 1
885.90485 -192.12393 3073.0 1
909.86053 -190.43588 3046.0 1
933.25336 -188.74785 3019.0 1
1009.9271 -185.49681 2967.0 1
1014.8837 -180.87033 2893.0 1
1019.3816 -176.43141 2822.0 1
1032.0629 -173.61801 2777.0 1
1044.1882 -170.86713 2733.0 1
1072.666 -170.86713 2733.0 1
1101.1439 -170.86713 2733.0 1
1120.5286 -169.49168 2711.0 1
1139.8785 -168.17877 2690.0 1
1186.5775 -170.86713 2733.0 1
1205.2744 -169.49168 2711.0 1
1233.5231 -169.49168 2711.0 1
1251.9977 -168.17877 2690.0 1
1310.4818 -172.18005 2754.0 1
1308.0573 -168.17877 2690.0 1
1325.6566 -166.86584 2669.0 1
1333.1835 -164.36505 2629.0 1
1339.8765 -161.86426 2589.0 1
861.6645 -226.18687 3101.0 1
885.90485 -224.14456 3073.0 1
909.86053 -222.17517 3046.0 1
1009.9271 -216.41292 2967.0 1
1014.8837 -211.01537 2893.0 1
1019.3816 -205.83662 2822.0 1
1032.0629 -202.55432 2777.0 1
1060.9991 -202.55432 2777.0 1
1072.666 -199.34496 2733.0 1
1101.1439 -199.34496 2733.0 1
1120.5286 -197.74028 2711.0 1
1148.7772 -197.74028 2711.0 1
1186.5775 -199.34496 2733.0 1
1205.2744 -197.74028 2711.0 1
1233.5231 -197.74028 2711.0 1
1272.011 -199.34496 2733.0 1
1300.489 -199.34496 2733.0 1
1308.0573 -196.20854 2690.0 1
1325.6566 -194.6768 2669.0 1
1343.3256 -193.218 2649.0 1
1370.9281 -193.218 2649.0 1
861.6645 -258.49942 3101.0 1
878.1211 -253.91461 3046.0 1
1009.9271 -247.32918 2967.0 1
1014.8837 -241.16054 2893.0 1
1036.3593 -239.1599 2869.0 1
1040.2391 -233.32469 2799.0 1
1060.9991 -231.49077 2777.0 1
1080.9082 -229.57349 2754.0 1
1101.1439 -227.82294 2733.0 1
1129.6217 -227.82294 2733.0 1
1166.9984 -229.57349 2754.0 1
1177.0258 -225.98901 2711.0 1
1205.2744 -225.98901 2711.0 1
1243.5332 -227.82294 2733.0 1
1272.011 -227.82294 2733.0 1
1310.4818 -229.57349 2754.0 1
1297.8457 -222.48788 2669.0 1
1315.7229 -220.8207 2649.0 1
1333.1835 -219.15349 2629.0 1
853.8843 -288.18597 3073.0 1
870.33734 -283.12186 3019.0 1
1001.4175 -275.9008 2942.0 1
1014.8837 -271.30557 2893.0 1
1036.3593 -269.05484 2869.0 1
1048.787 -264.6472 2822.0 1
1069.4045 -262.49023 2799.0 1
1089.9354 -260.4271 2777.0 1
1118.8718 -260.4271 2777.0 1
1129.6217 -256.30075 2733.0 1
1158.0997 -256.30075 2733.0 1
1177.0258 -254.23761 2711.0 1
1215.0553 -256.30075 2733.0 1
1243.5332 -256.30075 2733.0 1
1261.7716 -254.23761 2711.0 1
1280.0276 -252.26822 2690.0 1
1297.8457 -250.29884 2669.0 1
1315.7229 -248.42325 2649.0 1
1343.3256 -248.42325 2649.0 1
829.3522 -323.1242 3101.0 1
853.8843 -320.2066 3073.0 1
870.33734 -314.5798 3019.0 1
987.5902 -311.8706 2993.0 1
992.90784 -303.9514 2917.0 1
1014.8837 -301.4506 2893.0 1
1036.3593 -298.9498 2869.0 1
1048.787 -294.0524 2822.0 1
1069.4045 -291.6558 2799.0 1
1089.9354 -289.3634 2777.0 1
1127.7357 -291.6558 2799.0 1
1138.3016 -286.9668 2754.0 1
1158.0997 -284.7786 2733.0 1
1186.5775 -284.7786 2733.0 1
1215.0553 -284.7786 2733.0 1
1243.5332 -284.7786 2733.0 1
1272.011 -284.7786 2733.0 1
1270.0348 -278.1098 2669.0 1
1297.8457 -278.1098 2669.0 1
1315.7229 -276.0258 2649.0 1
1312.8992 -269.7738 2589.0 1
829.3522 -355.43658 3101.0 1
861.6645 -355.43658 3101.0 1
878.1211 -349.13248 3046.0 1
909.86053 -349.13248 3046.0 1
987.5902 -343.05762 2993.0 1
1001.4175 -337.212 2942.0 1
1014.8837 -331.5956 2893.0 1
1036.3593 -328.84476 2869.0 1
1048.787 -323.4576 2822.0 1
1069.4045 -320.82135 2799.0 1
1098.5701 -320.82135 2799.0 1
1127.7357 -320.82135 2799.0 1
1129.6217 -313.25644 2733.0 1
1158.0997 -313.25644 2733.0 1
1186.5775 -313.25644 2733.0 1
1215.0553 -313.25644 2733.0 1
1243.5332 -313.25644 2733.0 1
1272.011 -313.25644 2733.0 1
1270.0348 -305.92075 2669.0 1
1297.8457 -305.92075 2669.0 1
1305.7892 -301.33594 2629.0 1
853.8843 -384.24786 3073.0 1
870.33734 -377.4957 3019.0 1
987.5902 -374.24466 2993.0 1
1001.4175 -367.8676 2942.0 1
1023.30304 -364.7416 2917.0 1
1045.0287 -361.74066 2893.0 1
1048.787 -352.86282 2822.0 1
1069.4045 -349.9869 2799.0 1
1098.5701 -349.9869 2799.0 1
1118.8718 -347.23602 2777.0 1
1129.6217 -341.73425 2733.0 1
1166.9984 -344.3601 2754.0 1
1186.5775 -341.73425 2733.0 1
1215.0553 -341.73425 2733.0 1
1243.5332 -341.73425 2733.0 1
1272.011 -341.73425 2733.0 1
1270.0348 -333.7317 2669.0 1
1297.8457 -333.7317 2669.0 1
1305.7892 -328.7301 2629.0 1
987.5902 -405.43182 2993.0 1
1009.9271 -401.90988 2967.0 1
1032.0732 -398.52338 2942.0 1
1045.0287 -391.88583 2893.0 1
1066.2544 -388.6348 2869.0 1
1078.1921 -382.26816 2822.0 1
1098.5701 -379.1526 2799.0 1
1118.8718 -376.17245 2777.0 1
1129.6217 -370.21222 2733.0 1
1158.0997 -370.21222 2733.0 1
1186.5775 -370.21222 2733.0 1
1215.0553 -370.21222 2733.0 1
1243.5332 -370.21222 2733.0 1
1281.785 -373.0569 2754.0 1
1260.5178 -358.8336 2649.0 1
1297.8457 -361.5428 2669.0 1
1325.6566 -361.5428 2669.0 1
996.1694 -440.41174 3019.0 1
1018.7772 -436.61887 2993.0 1
1032.0732 -429.179 2942.0 1
1053.6981 -425.53198 2917.0 1
1075.1738 -422.03085 2893.0 1
1086.9796 -415.02863 2845.0 1
1098.5701 -408.31815 2799.0 1
1118.8718 -405.1088 2777.0 1
1138.3016 -401.75354 2754.0 1
1158.0997 -398.69006 2733.0 1
1177.0258 -395.4807 2711.0 1
1205.2744 -395.4807 2711.0 1
1233.5231 -395.4807 2711.0 1
1261.7716 -395.4807 2711.0 1
1260.5178 -386.43613 2649.0 1
1288.1204 -386.43613 2649.0 1
1005.0784 -476.08978 3046.0 1
1018.7772 -467.80588 2993.0 1
1049.9644 -467.80588 2993.0 1
1071.7595 -463.7421 2967.0 1
1093.3845 -459.8346 2942.0 1
1105.3188 -452.1759 2893.0 1
1107.5973 -441.07858 2822.0 1
1118.8718 -434.0451 2777.0 1
1129.6217 -427.16788 2733.0 1
1158.0997 -427.16788 2733.0 1
1177.0258 -423.72928 2711.0 1
1205.2744 -423.72928 2711.0 1
1243.5332 -427.16788 2733.0 1
1232.9152 -414.0387 2649.0 1
1260.5178 -414.0387 2649.0 1
1288.1204 -414.0387 2649.0 1
1023.2266 -516.99866 3101.0 1
1027.6272 -503.32764 3019.0 1
1049.9644 -498.99292 2993.0 1
1071.7595 -494.6582 2967.0 1
1102.6757 -494.6582 2967.0 1
1114.4884 -486.3222 2917.0 1
1107.5973 -470.4838 2822.0 1
1118.8718 -462.9814 2777.0 1
1129.6217 -455.64572 2733.0 1
1158.0997 -455.64572 2733.0 1
1186.5775 -455.64572 2733.0 1
1215.0553 -455.64572 2733.0 1
1233.5231 -451.97787 2711.0 1
1232.9152 -441.64124 2649.0 1
1260.5178 -441.64124 2649.0 1
1297.8457 -444.97565 2669.0 1
1013.98755 -544.35114 3073.0 1
1027.6272 -534.7856 3019.0 1
1049.9644 -530.17993 2993.0 1
1071.7595 -525.57434 2967.0 1
1102.6757 -525.57434 2967.0 1
1124.0402 -521.1458 2942.0 1
1107.5973 -499.889 2822.0 1
1118.8718 -491.91772 2777.0 1
1129.6217 -484.12357 2733.0 1
1158.0997 -484.12357 2733.0 1
1186.5775 -484.12357 2733.0 1
1205.2744 -480.22647 2711.0 1
1214.4128 -472.7866 2669.0 1
1232.9152 -469.2438 2649.0 1
1260.5178 -469.2438 2649.0 1
1297.8457 -472.7866 2669.0 1
1013.98755 -576.37195 3073.0 1
1027.6272 -566.2437 3019.0 1
1059.0853 -566.2437 3019.0 1
1081.1514 -561.3671 2993.0 1
1102.6757 -556.49054 2967.0 1
1124.0402 -551.8016 2942.0 1
1098.5701 -524.98047 2799.0 1
1109.605 -516.5403 2754.0 1
1129.6217 -512.6015 2733.0 1
1158.0997 -512.6015 2733.0 1
1177.0258 -508.47522 2711.0 1
1205.2744 -508.47522 2711.0 1
1214.4128 -500.5977 2669.0 1
1223.6067 -493.09528 2629.0 1
1260.5178 -496.8465 2649.0 1
1308.0573 -504.53644 2690.0 1
1013.98755 -608.3926 3073.0 1
1036.8176 -603.0471 3046.0 1
1059.0853 -597.70166 3019.0 1
1090.5432 -597.70166 3019.0 1
1122.0013 -597.70166 3019.0 1
1133.5918 -587.4067 2967.0 1
1107.5973 -558.6996 2822.0 1
1127.7357 -554.14606 2799.0 1
1138.3016 -545.23694 2754.0 1
1166.9984 -545.23694 2754.0 1
1186.5775 -541.07935 2733.0 1
1205.2744 -536.7238 2711.0 1
1223.9679 -532.5662 2690.0 1
1232.9152 -524.44904 2649.0 1
1280.0276 -532.5662 2690.0 1
1023.2266 -646.2484 3101.0 1
1046.0082 -640.4132 3073.0 1
1059.0853 -629.1596 3019.0 1
1090.5432 -629.1596 3019.0 1
1122.0013 -629.1596 3019.0 1
1133.5918 -618.3228 2967.0 1
1098.5701 -583.3116 2799.0 1
1127.7357 -583.3116 2799.0 1
1138.3016 -573.9336 2754.0 1
1158.0997 -569.5572 2733.0 1
1186.5775 -569.5572 2733.0 1
1215.0553 -569.5572 2733.0 1
1223.9679 -560.596 2690.0 1
1046.0082 -672.43384 3073.0 1
1068.5571 -666.5257 3046.0 1
1100.2964 -666.5257 3046.0 1
1122.0013 -660.61755 3019.0 1
1124.0402 -643.7684 2942.0 1
1098.5701 -612.4771 2799.0 1
1127.7357 -612.4771 2799.0 1
1138.3016 -602.63025 2754.0 1
1166.9984 -602.63025 2754.0 1
1215.2324 -612.4771 2799.0 1
1224.3916 -602.63025 2754.0 1
1055.539 -710.87317 3101.0 1
1078.0289 -704.45447 3073.0 1
1100.2964 -698.26495 3046.0 1
1142.0703 -704.45447 3073.0 1
1124.0402 -674.424 2942.0 1
1098.5701 -641.6427 2799.0 1
1127.7357 -641.6427 2799.0 1
1138.3016 -631.3269 2754.0 1
1158.0997 -626.5129 2733.0 1
1195.695 -631.3269 2754.0 1
1234.6171 -636.5994 2777.0 1
1074.6006 -756.6067 3157.0 1
1087.8514 -743.1857 3101.0 1
1120.1638 -743.1857 3101.0 1
1152.4763 -743.1857 3101.0 1
1133.5918 -711.0713 2967.0 1
1107.5973 -676.32056 2822.0 1
1127.7357 -670.8084 2799.0 1
1156.9012 -670.8084 2799.0 1
1176.7445 -665.5359 2777.0 1
1195.695 -660.0237 2754.0 1
1224.3916 -660.0237 2754.0 1
1074.6006 -789.50256 3157.0 1
1107.4967 -789.50256 3157.0 1
1130.2782 -782.50037 3129.0 1
1142.0703 -768.49585 3073.0 1
1124.0402 -735.73535 2942.0 1
1107.5973 -705.72577 2822.0 1
1127.7357 -699.97394 2799.0 1
1156.9012 -699.97394 2799.0 1
1186.067 -699.97394 2799.0 1
1195.695 -688.72034 2754.0 1
1234.6171 -694.47217 2777.0 1
1107.4967 -822.3985 3157.0 1
1130.2782 -815.1045 3129.0 1
1162.8824 -815.1045 3129.0 1
1184.7887 -807.8105 3101.0 1
1107.5973 -735.131 2822.0 1
1127.7357 -729.13947 2799.0 1
1156.9012 -729.13947 2799.0 1
1186.067 -729.13947 2799.0 1
1215.2324 -729.13947 2799.0 1
1244.398 -729.13947 2799.0 1
1117.67 -863.15106 3186.0 1
1130.2782 -847.7086 3129.0 1
1162.8824 -847.7086 3129.0 1
1184.7887 -840.12286 3101.0 1
1107.5973 -764.5362 2822.0 1
1137.0027 -764.5362 2822.0 1
1156.9012 -758.30505 2799.0 1
1186.067 -758.30505 2799.0 1
1215.2324 -758.30505 2799.0 1
1244.398 -758.30505 2799.0 1
1128.1942 -904.78937 3216.0 1
1140.3926 -888.1903 3157.0 1
1184.0663 -896.3492 3186.0 1
1184.7887 -872.43524 3101.0 1
1135.4639 -813.91656 2893.0 1
1146.2695 -800.41223 2845.0 1
1156.9012 -787.4706 2799.0 1
1186.067 -787.4706 2799.0 1
1215.2324 -787.4706 2799.0 1
1128.1942 -938.30023 3216.0 1
1140.3926 -921.08636 3157.0 1
1173.2886 -921.08636 3157.0 1
1195.4866 -912.9171 3129.0 1
1154.6957 -858.358 2942.0 1
1155.9392 -837.0595 2869.0 1
1166.4078 -823.34674 2822.0 1
1186.067 -816.6363 2799.0 1
1225.2183 -823.34674 2822.0 1
1254.6235 -823.34674 2822.0 1
1128.1942 -971.8109 3216.0 1
1150.868 -962.7455 3186.0 1
1184.0663 -962.7455 3186.0 1
1217.2644 -962.7455 3186.0 1
1164.5078 -896.56805 2967.0 1
1165.609 -874.2067 2893.0 1
1185.8341 -866.9544 2869.0 1
1205.5593 -859.7021 2845.0 1
1235.2041 -859.7021 2845.0 1
1264.849 -859.7021 2845.0 1
1128.1942 -1005.3216 3216.0 1
1150.868 -995.9436 3186.0 1
1195.2157 -1005.3216 3216.0 1
1217.2644 -995.9436 3186.0 1
1164.5078 -927.4842 2967.0 1
1175.2788 -911.8542 2917.0 1
1195.754 -904.3518 2893.0 1
1215.7292 -896.84937 2869.0 1
1235.2041 -889.347 2845.0 1
1128.1942 -1038.8323 3216.0 1
1161.705 -1038.8323 3216.0 1
1195.2157 -1038.8323 3216.0 1
1174.7125 -966.7988 2993.0 1
1185.3514 -950.32477 2942.0 1
1195.754 -934.4968 2893.0 1
1225.8992 -934.4968 2893.0 1
1256.0442 -934.4968 2893.0 1
1172.5417 -1082.3462 3246.0 1
1206.3651 -1082.3462 3246.0 1
1240.1884 -1082.3462 3246.0 1
1164.5078 -989.3164 2967.0 1
1195.4241 -989.3164 2967.0 1
1205.6738 -972.6444 2917.0 1
1225.8992 -964.64185 2893.0 1
1266.4641 -972.6444 2917.0 1
1330.6478 -997.98584 2993.0 1
1174.7125 -1029.173 2993.0 1
1195.4241 -1020.23267 2967.0 1
1216.007 -1011.63617 2942.0 1
1236.0691 -1003.0397 2917.0 1
1277.3184 -1011.63617 2942.0 1
1319.0885 -1020.23267 2967.0 1
1164.5078 -1051.1488 2967.0 1
1185.3514 -1042.2917 2942.0 1
1205.6738 -1033.4348 2917.0 1
1236.0691 -1033.4348 2917.0 1
1266.4641 -1033.4348 2917.0 1
1195.4866 -1141.1462 3129.0 1
1174.7125 -1091.5471 2993.0 1
1195.4241 -1082.0648 2967.0 1
1205.6738 -1063.8298 2917.0 1
1236.0691 -1063.8298 2917.0 1
1288.1725 -1082.0648 2967.0 1
1174.0908 -1152.7437 3073.0 1
1184.9171 -1132.4872 3019.0 1
1185.3514 -1103.603 2942.0 1
1216.007 -1103.603 2942.0 1
1246.6627 -1103.603 2942.0 1
1310.7491 -1132.4872 3019.0 1
1398.2355 -1152.7437 3073.0 1
1174.7125 -1153.9211 2993.0 1
1185.3514 -1134.2585 2942.0 1
1216.007 -1134.2585 2942.0 1
1246.6627 -1134.2585 2942.0 1
1299.4608 -1153.9211 2993.0 1
1342.207 -1163.9452 3019.0 1
1373.6652 -1163.9452 3019.0 1
1185.3514 -1164.9143 2942.0 1
1205.6738 -1155.0154 2917.0 1
1236.0691 -1155.0154 2917.0 1
1277.3184 -1164.9143 2942.0 1
1225.8992 -1175.6573 2893.0 1
1266.4641 -1185.4105 2917.0 1
