ply
format ascii 1.0
comment : created from Kinect user tracker
element vertex 729
property float x
property float y
property float z
property int userId
end_header
317.18127 215.44392 1723.0 1
296.27533 195.5417 1706.0 1
311.1064 193.70778 1690.0 1
330.27234 194.62474 1698.0 1
259.49966 176.9316 1698.0 1
277.19287 176.9316 1698.0 1
293.49667 176.09799 1690.0 1
309.44965 175.1602 1681.0 1
326.96573 175.1602 1681.0 1
342.8423 174.3266 1673.0 1
363.9359 176.09799 1690.0 1
244.22745 160.83272 1715.0 1
259.49966 159.23845 1698.0 1
275.8869 158.48822 1690.0 1
290.54434 156.89395 1673.0 1
306.50424 156.1437 1665.0 1
323.8536 156.1437 1665.0 1
337.92404 154.64323 1649.0 1
353.3839 153.89299 1641.0 1
372.2892 154.64323 1649.0 1
393.25076 156.1437 1665.0 1
436.43124 159.23845 1698.0 1
242.94579 142.21214 1706.0 1
258.27704 140.87839 1690.0 1
274.4177 140.12814 1681.0 1
289.155 138.79439 1665.0 1
305.03156 138.1275 1657.0 1
322.29758 138.1275 1657.0 1
337.92404 137.46063 1649.0 1
351.8765 136.21024 1634.0 1
370.4831 136.79375 1641.0 1
391.36127 138.1275 1657.0 1
408.62726 138.1275 1657.0 1
430.00558 139.46127 1673.0 1
454.12448 141.54527 1698.0 1
476.54132 142.96239 1715.0 1
227.41298 125.67563 1723.0 1
241.80653 123.85213 1698.0 1
256.9016 122.612144 1681.0 1
271.80573 121.44511 1665.0 1
287.76566 120.86159 1657.0 1
303.55887 120.27807 1649.0 1
320.74152 120.27807 1649.0 1
334.85016 119.18397 1634.0 1
351.8765 119.18397 1634.0 1
372.2892 120.27807 1649.0 1
387.58228 119.69455 1641.0 1
404.68155 119.69455 1641.0 1
423.83694 120.27807 1649.0 1
454.12448 123.85213 1698.0 1
474.04053 124.435646 1706.0 1
225.1692 106.6591 1706.0 1
240.66728 105.65878 1690.0 1
255.67899 104.59594 1673.0 1
271.80573 104.09578 1665.0 1
286.37634 103.09546 1649.0 1
300.79758 102.15766 1634.0 1
317.8239 102.15766 1634.0 1
336.28464 102.5953 1641.0 1
351.8765 102.15766 1634.0 1
368.90274 102.15766 1634.0 1
387.58228 102.5953 1641.0 1
408.62726 103.59562 1657.0 1
427.94937 104.09578 1665.0 1
458.67108 107.22178 1715.0 1
474.04053 106.6591 1706.0 1
224.11331 88.4658 1698.0 1
241.80653 88.4658 1698.0 1
258.27704 88.048996 1690.0 1
271.80573 86.7465 1665.0 1
286.37634 85.912895 1649.0 1
302.08618 85.4961 1641.0 1
317.8239 85.1314 1634.0 1
334.85016 85.1314 1634.0 1
351.8765 85.1314 1634.0 1
370.4831 85.4961 1641.0 1
391.36127 86.3297 1657.0 1
412.57297 87.1633 1673.0 1
438.48746 88.8826 1706.0 1
472.84573 92.1128 1768.0 1
209.45937 71.81466 1723.0 1
224.11331 70.77266 1698.0 1
240.66728 70.43922 1690.0 1
255.67899 69.73065 1673.0 1
270.49976 69.063774 1657.0 1
286.37634 68.73033 1649.0 1
302.08618 68.3969 1641.0 1
317.8239 68.10513 1634.0 1
336.28464 68.3969 1641.0 1
353.3839 68.3969 1641.0 1
370.4831 68.3969 1641.0 1
395.14023 69.73065 1673.0 1
414.5458 70.064095 1681.0 1
434.37503 70.43922 1690.0 1
208.48683 53.61089 1715.0 1
224.11331 53.07947 1698.0 1
237.10712 52.04789 1665.0 1
253.23376 51.79781 1657.0 1
270.49976 51.79781 1657.0 1
286.37634 51.54773 1649.0 1
300.79758 51.07883 1634.0 1
316.26785 50.82875 1626.0 1
334.85016 51.07883 1634.0 1
355.1067 51.54773 1649.0 1
375.9015 52.04789 1665.0 1
399.15543 52.82939 1690.0 1
418.73813 53.07947 1698.0 1
206.4202 35.38633 1698.0 1
224.11331 35.38633 1698.0 1
239.38562 35.032047 1681.0 1
254.45638 34.69861 1665.0 1
269.1938 34.365166 1649.0 1
287.76566 34.531887 1657.0 1
303.55887 34.365166 1649.0 1
317.8239 34.052567 1634.0 1
334.85016 34.052567 1634.0 1
355.1067 34.365166 1649.0 1
377.70764 34.865326 1673.0 1
401.04492 35.38633 1698.0 1
424.9033 35.90733 1723.0 1
449.79663 36.47001 1750.0 1
209.45937 17.953642 1723.0 1
224.11331 17.693142 1698.0 1
240.66728 17.609783 1690.0 1
255.67899 17.432644 1673.0 1
270.49976 17.265923 1657.0 1
286.37634 17.182564 1649.0 1
306.50424 17.349283 1665.0 1
320.74152 17.182564 1649.0 1
337.92404 17.182564 1649.0 1
356.82947 17.265923 1657.0 1
379.51376 17.516003 1681.0 1
402.9344 17.776503 1706.0 1
431.56168 18.234982 1750.0 1
452.10986 18.328762 1759.0 1
209.45937 0.0 1723.0 1
225.1692 0.0 1706.0 1
242.94579 0.0 1706.0 1
254.45638 0.0 1665.0 1
271.80573 0.0 1665.0 1
287.76566 0.0 1657.0 1
306.50424 0.0 1665.0 1
323.8536 0.0 1665.0 1
341.20288 0.0 1665.0 1
358.55225 0.0 1665.0 1
383.3518 0.0 1698.0 1
406.9496 0.0 1723.0 1
431.56168 0.0 1750.0 1
204.84335 -19.20404 1843.0 1
211.64757 -18.141203 1741.0 1
227.41298 -17.953642 1723.0 1
242.94579 -17.776503 1706.0 1
258.27704 -17.609783 1690.0 1
273.11172 -17.432644 1673.0 1
289.155 -17.349283 1665.0 1
306.50424 -17.349283 1665.0 1
330.27234 -17.693142 1698.0 1
349.60486 -17.776503 1706.0 1
367.38144 -17.776503 1706.0 1
387.18982 -17.870283 1715.0 1
409.07526 -18.047422 1732.0 1
436.0006 -18.422543 1768.0 1
187.65375 -38.824883 1863.0 1
201.6201 -37.803722 1814.0 1
217.11806 -37.220203 1786.0 1
232.16449 -36.657524 1759.0 1
244.22745 -35.740566 1715.0 1
259.49966 -35.386284 1698.0 1
273.11172 -34.865288 1673.0 1
294.886 -35.386284 1698.0 1
317.18127 -35.907284 1723.0 1
335.135 -35.907284 1723.0 1
353.08862 -35.907284 1723.0 1
371.04236 -35.907284 1723.0 1
391.02786 -36.094845 1732.0 1
413.3266 -36.469963 1750.0 1
169.14441 -58.550014 1873.0 1
182.71814 -56.705673 1814.0 1
197.50768 -55.549053 1777.0 1
214.92986 -55.267715 1768.0 1
229.78874 -54.423695 1741.0 1
246.64836 -54.142353 1732.0 1
264.69577 -54.142353 1732.0 1
281.27405 -53.86101 1723.0 1
299.22766 -53.86101 1723.0 1
320.49484 -54.423695 1741.0 1
340.3867 -54.705032 1750.0 1
356.77728 -54.423695 1741.0 1
376.85672 -54.705032 1750.0 1
397.12357 -54.986374 1759.0 1
149.62767 -78.06666 1873.0 1
166.43521 -76.81625 1843.0 1
178.99126 -74.06538 1777.0 1
193.5064 -72.564896 1741.0 1
210.55347 -72.18977 1732.0 1
227.41298 -71.81466 1723.0 1
245.3667 -71.81466 1723.0 1
264.69577 -72.18977 1732.0 1
284.2125 -72.564896 1741.0 1
303.91666 -72.94002 1750.0 1
323.80838 -73.31514 1759.0 1
343.88782 -73.690254 1768.0 1
360.46597 -73.31514 1759.0 1
378.79483 -73.31514 1759.0 1
148.82881 -97.0623 1863.0 1
162.91325 -93.988396 1804.0 1
176.27164 -91.174995 1750.0 1
191.50575 -89.768295 1723.0 1
206.4202 -88.4658 1698.0 1
224.11331 -88.4658 1698.0 1
241.80653 -88.4658 1698.0 1
263.3203 -89.768295 1723.0 1
282.74326 -90.2372 1732.0 1
305.47968 -91.6439 1759.0 1
325.46518 -92.1128 1768.0 1
131.56987 -118.41286 1894.0 1
147.23108 -115.22434 1843.0 1
159.6622 -110.53534 1768.0 1
173.55202 -107.72194 1723.0 1
187.8379 -105.65878 1690.0 1
203.38103 -104.59594 1673.0 1
221.86954 -105.0961 1681.0 1
240.66728 -105.65878 1690.0 1
259.49966 -106.15894 1698.0 1
281.27405 -107.72194 1723.0 1
303.91666 -109.40998 1750.0 1
113.66488 -140.40945 1925.0 1
130.11107 -136.61658 1873.0 1
147.23108 -134.42838 1843.0 1
155.5984 -125.67558 1723.0 1
171.03386 -123.85208 1698.0 1
186.83759 -122.61211 1681.0 1
202.4085 -121.44507 1665.0 1
218.70186 -120.86154 1657.0 1
237.10712 -121.44507 1665.0 1
256.9016 -122.61211 1681.0 1
277.19287 -123.85208 1698.0 1
300.79065 -126.33205 1732.0 1
323.80838 -128.30142 1759.0 1
113.07442 -159.63443 1915.0 1
130.11107 -156.13332 1873.0 1
148.02994 -154.46611 1853.0 1
154.06319 -142.21219 1706.0 1
169.3215 -140.12819 1681.0 1
184.17007 -138.12755 1657.0 1
199.49089 -136.7938 1641.0 1
215.66617 -136.21027 1634.0 1
232.6925 -136.21027 1634.0 1
253.23376 -138.12755 1657.0 1
274.4177 -140.12819 1681.0 1
297.83832 -142.96243 1715.0 1
320.49484 -145.12979 1741.0 1
345.63837 -148.13075 1777.0 1
111.18492 -176.58775 1883.0 1
130.11107 -175.64995 1873.0 1
137.00558 -160.83272 1715.0 1
152.61829 -158.48822 1690.0 1
166.90407 -155.39348 1657.0 1
182.39172 -153.89299 1641.0 1
197.66739 -152.4863 1626.0 1
214.61028 -152.4863 1626.0 1
231.55325 -152.4863 1626.0 1
249.71875 -153.23653 1634.0 1
270.49976 -155.39348 1657.0 1
293.49667 -158.48822 1690.0 1
318.83804 -162.42697 1732.0 1
345.63837 -166.64708 1777.0 1
113.07442 -199.543 1915.0 1
130.80573 -196.2086 1883.0 1
135.6475 -176.9316 1698.0 1
151.08307 -174.3266 1673.0 1
166.09825 -171.82579 1649.0 1
181.6137 -170.2628 1634.0 1
196.69487 -168.5956 1618.0 1
212.63048 -167.8662 1611.0 1
229.41716 -167.8662 1611.0 1
247.27351 -168.5956 1618.0 1
265.43912 -169.4292 1626.0 1
289.155 -173.493 1665.0 1
314.0518 -177.7652 1706.0 1
343.88782 -184.2256 1768.0 1
113.07442 -219.49728 1915.0 1
120.31626 -198.52182 1732.0 1
135.6475 -194.62474 1698.0 1
149.63817 -189.92532 1657.0 1
164.58734 -187.28906 1634.0 1
180.72452 -186.3721 1626.0 1
197.66739 -186.3721 1626.0 1
211.57458 -183.73584 1603.0 1
228.27791 -183.73584 1603.0 1
246.20374 -184.6528 1611.0 1
265.43912 -186.3721 1626.0 1
286.37634 -189.00836 1649.0 1
312.5791 -194.62474 1698.0 1
340.3867 -200.58498 1750.0 1
367.84332 -205.74287 1795.0 1
111.834435 -236.82571 1894.0 1
119.69106 -215.44388 1723.0 1
133.65034 -209.19188 1673.0 1
148.91571 -206.19092 1649.0 1
163.78154 -203.315 1626.0 1
179.83534 -202.31468 1618.0 1
194.87137 -200.43909 1603.0 1
210.65068 -199.5638 1596.0 1
227.28105 -199.5638 1596.0 1
244.98112 -200.43909 1603.0 1
265.43912 -203.315 1626.0 1
283.77133 -204.31532 1634.0 1
307.97693 -209.19188 1673.0 1
336.88556 -216.56924 1732.0 1
365.999 -223.3214 1786.0 1
110.59445 -253.71661 1873.0 1
119.13533 -232.31393 1715.0 1
133.65034 -226.6246 1673.0 1
147.56111 -221.34167 1634.0 1
163.78154 -220.258 1626.0 1
179.05731 -218.22609 1611.0 1
194.87137 -217.14241 1603.0 1
210.65068 -216.19418 1596.0 1
227.28105 -216.19418 1596.0 1
244.98112 -217.14241 1603.0 1
265.43912 -220.258 1626.0 1
284.987 -222.28989 1641.0 1
311.1064 -228.92743 1690.0 1
335.135 -233.39761 1723.0 1
360.46597 -238.27417 1759.0 1
91.07772 -273.23325 1873.0 1
110.00399 -271.77444 1863.0 1
119.13533 -250.18422 1715.0 1
133.01126 -242.89021 1665.0 1
147.56111 -238.36794 1634.0 1
163.78154 -237.2009 1626.0 1
179.05731 -235.0127 1611.0 1
194.87137 -233.84566 1603.0 1
211.57458 -233.84566 1603.0 1
228.27791 -233.84566 1603.0 1
244.98112 -233.84566 1603.0 1
265.43912 -237.2009 1626.0 1
287.76566 -241.72318 1657.0 1
309.44965 -245.22429 1681.0 1
333.57895 -250.18422 1715.0 1
360.46597 -256.60294 1759.0 1
91.07772 -292.7499 1873.0 1
103.86313 -274.9317 1759.0 1
120.31626 -270.7116 1732.0 1
133.65034 -261.4899 1673.0 1
146.83865 -254.1438 1626.0 1
162.97572 -252.8934 1618.0 1
179.05731 -251.7993 1611.0 1
194.87137 -250.54889 1603.0 1
211.57458 -250.54889 1603.0 1
229.41716 -251.7993 1611.0 1
247.27351 -252.8934 1618.0 1
267.88782 -256.48828 1641.0 1
289.155 -260.2395 1665.0 1
309.44965 -262.7403 1681.0 1
335.135 -269.3049 1723.0 1
360.46597 -274.9317 1759.0 1
91.07772 -312.26654 1873.0 1
103.86313 -293.26047 1759.0 1
120.31626 -288.759 1732.0 1
131.73306 -274.92126 1649.0 1
146.83865 -271.0867 1626.0 1
162.27063 -268.5859 1611.0 1
179.83534 -269.75293 1618.0 1
194.87137 -267.25214 1603.0 1
211.57458 -267.25214 1603.0 1
229.41716 -268.5859 1611.0 1
248.49614 -271.0867 1626.0 1
270.49976 -276.255 1657.0 1
290.54434 -278.92255 1673.0 1
312.5791 -283.09055 1698.0 1
336.88556 -288.759 1732.0 1
360.46597 -293.26047 1759.0 1
89.61892 -326.46896 1843.0 1
104.394554 -313.18347 1768.0 1
120.31626 -306.80643 1732.0 1
131.09398 -290.6867 1641.0 1
146.83865 -288.0296 1626.0 1
162.97572 -286.6125 1618.0 1
179.05731 -285.3725 1611.0 1
194.87137 -283.95538 1603.0 1
211.57458 -283.95538 1603.0 1
229.41716 -285.3725 1611.0 1
248.49614 -288.0296 1626.0 1
271.80573 -294.93805 1665.0 1
293.49667 -299.36655 1690.0 1
317.18127 -305.2122 1723.0 1
336.88556 -306.80643 1732.0 1
360.46597 -311.58923 1759.0 1
88.20875 -340.23386 1814.0 1
104.394554 -331.6061 1768.0 1
120.94147 -326.542 1741.0 1
130.53477 -306.47305 1634.0 1
146.83865 -304.9726 1626.0 1
162.97572 -303.4721 1618.0 1
179.05731 -302.15918 1611.0 1
194.87137 -300.6587 1603.0 1
211.57458 -300.6587 1603.0 1
230.414 -303.4721 1618.0 1
249.71875 -306.47305 1634.0 1
278.49884 -319.9774 1706.0 1
297.83832 -321.66544 1715.0 1
318.83804 -324.85394 1732.0 1
342.13724 -329.91806 1759.0 1
362.3103 -331.6061 1768.0 1
87.72248 -357.15594 1804.0 1
104.394554 -350.02866 1768.0 1
122.191864 -348.24683 1759.0 1
130.53477 -323.49933 1634.0 1
146.11621 -320.33167 1618.0 1
162.97572 -320.33167 1618.0 1
179.05731 -318.9458 1611.0 1
194.87137 -317.36194 1603.0 1
211.57458 -317.36194 1603.0 1
229.41716 -318.9458 1611.0 1
249.71875 -323.49933 1634.0 1
281.27405 -341.11954 1723.0 1
302.35367 -344.6832 1741.0 1
323.80838 -348.24683 1759.0 1
347.38892 -353.5923 1786.0 1
375.63055 -362.89734 1833.0 1
87.72248 -375.95358 1804.0 1
105.45739 -372.2024 1786.0 1
123.44226 -370.32678 1777.0 1
130.53477 -340.5256 1634.0 1
146.83865 -338.8584 1626.0 1
162.27063 -335.7324 1611.0 1
179.05731 -335.7324 1611.0 1
194.87137 -334.0652 1603.0 1
211.57458 -334.0652 1603.0 1
230.414 -337.1912 1618.0 1
263.3203 -359.07318 1723.0 1
282.74326 -360.9488 1732.0 1
305.47968 -366.5756 1759.0 1
327.12195 -370.32678 1777.0 1
352.8351 -378.0376 1814.0 1
377.6798 -384.0812 1843.0 1
70.796974 -405.47342 1853.0 1
88.695015 -399.12766 1824.0 1
106.52023 -394.75125 1804.0 1
125.31786 -394.75125 1804.0 1
130.53477 -357.55185 1634.0 1
146.83865 -355.8013 1626.0 1
162.97572 -354.05075 1618.0 1
179.83534 -354.05075 1618.0 1
196.69487 -354.05075 1618.0 1
213.55438 -354.05075 1618.0 1
229.41716 -352.519 1611.0 1
267.44662 -382.93497 1750.0 1
288.62015 -386.87375 1768.0 1
307.04266 -386.87375 1768.0 1
332.0923 -394.75125 1804.0 1
356.53073 -401.09705 1833.0 1
90.59145 -427.07407 1863.0 1
108.23259 -420.19687 1833.0 1
113.50853 -374.57812 1634.0 1
130.53477 -374.57812 1634.0 1
146.83865 -372.7442 1626.0 1
162.27063 -369.3056 1611.0 1
180.72452 -372.7442 1626.0 1
197.66739 -372.7442 1626.0 1
216.59007 -376.1828 1641.0 1
250.49335 -403.23312 1759.0 1
270.1975 -405.29626 1768.0 1
291.5586 -409.4226 1786.0 1
310.16867 -409.4226 1786.0 1
333.93317 -415.8413 1814.0 1
358.4758 -422.4893 1843.0 1
383.8276 -429.3665 1873.0 1
76.52798 -480.039 2003.0 1
91.56399 -451.27982 1883.0 1
108.82305 -441.69342 1843.0 1
113.9948 -393.28207 1641.0 1
131.09398 -393.28207 1641.0 1
147.56111 -391.60446 1634.0 1
163.78154 -389.6872 1626.0 1
180.72452 -389.6872 1626.0 1
198.63992 -391.60446 1634.0 1
234.54025 -425.87585 1777.0 1
251.77501 -423.7189 1768.0 1
270.1975 -423.7189 1768.0 1
293.0278 -430.18973 1795.0 1
313.29465 -432.34668 1804.0 1
337.43082 -439.2968 1833.0 1
360.42087 -444.09 1853.0 1
54.711895 -492.40753 1969.0 1
74.80868 -489.65665 1958.0 1
91.56399 -470.90067 1883.0 1
108.82305 -460.89746 1843.0 1
113.50853 -408.63074 1634.0 1
130.53477 -408.63074 1634.0 1
147.56111 -408.63074 1634.0 1
163.78154 -406.6301 1626.0 1
180.72452 -406.6301 1626.0 1
198.63992 -408.63074 1634.0 1
233.35237 -442.14145 1768.0 1
251.77501 -442.14145 1768.0 1
274.32385 -448.89362 1795.0 1
293.0278 -448.89362 1795.0 1
315.03134 -453.64514 1814.0 1
339.27167 -460.89746 1843.0 1
358.4758 -460.89746 1843.0 1
54.100586 -507.19348 1947.0 1
73.165794 -498.85748 1915.0 1
90.59145 -485.3115 1863.0 1
108.82305 -480.1015 1843.0 1
113.9948 -427.4805 1641.0 1
130.53477 -425.65698 1634.0 1
146.83865 -423.573 1626.0 1
164.58734 -425.65698 1634.0 1
180.72452 -423.573 1626.0 1
198.63992 -425.65698 1634.0 1
234.54025 -462.90848 1777.0 1
254.33833 -465.253 1786.0 1
274.32385 -467.5975 1795.0 1
296.1295 -472.547 1814.0 1
318.331 -477.4965 1833.0 1
339.27167 -480.1015 1843.0 1
358.4758 -480.1015 1843.0 1
52.90576 -515.83167 1904.0 1
71.56111 -507.43314 1873.0 1
89.61892 -499.30554 1843.0 1
108.23259 -496.59634 1833.0 1
113.9948 -444.57968 1641.0 1
130.53477 -442.68326 1634.0 1
146.83865 -440.5159 1626.0 1
163.78154 -440.5159 1626.0 1
180.72452 -440.5159 1626.0 1
217.11806 -483.8631 1786.0 1
235.72813 -483.8631 1786.0 1
255.61998 -486.30136 1795.0 1
275.69928 -488.73965 1804.0 1
296.1295 -491.44885 1814.0 1
318.331 -496.59634 1833.0 1
341.11255 -502.01474 1853.0 1
52.322243 -529.7632 1883.0 1
71.56111 -526.94977 1873.0 1
89.61892 -518.5096 1843.0 1
108.23259 -515.69617 1833.0 1
113.9948 -461.6789 1641.0 1
130.53477 -459.70953 1634.0 1
146.83865 -457.4588 1626.0 1
163.78154 -457.4588 1626.0 1
180.72452 -457.4588 1626.0 1
218.21216 -505.00525 1795.0 1
236.91602 -505.00525 1795.0 1
256.90164 -507.53732 1804.0 1
275.69928 -507.53732 1804.0 1
299.23117 -515.69617 1833.0 1
320.06766 -518.5096 1843.0 1
342.9534 -524.13635 1863.0 1
53.211414 -558.7204 1915.0 1
70.796974 -540.6313 1853.0 1
89.61892 -537.7137 1843.0 1
108.23259 -534.7961 1833.0 1
113.50853 -476.73587 1634.0 1
129.89568 -474.4018 1626.0 1
146.83865 -474.4018 1626.0 1
163.78154 -474.4018 1626.0 1
181.6137 -476.73587 1634.0 1
219.30626 -526.3351 1804.0 1
238.1039 -526.3351 1804.0 1
256.90164 -526.3351 1804.0 1
278.7558 -532.1703 1824.0 1
299.23117 -534.7961 1833.0 1
321.80432 -540.6313 1853.0 1
342.9534 -543.5489 1863.0 1
33.8129 -588.3445 1947.0 1
53.211414 -578.6747 1915.0 1
71.56111 -565.98315 1873.0 1
89.61892 -556.9177 1843.0 1
108.23259 -553.89594 1833.0 1
112.9528 -491.3447 1626.0 1
129.89568 -491.3447 1626.0 1
146.83865 -491.3447 1626.0 1
163.78154 -491.3447 1626.0 1
179.83534 -488.92725 1618.0 1
221.7376 -551.17633 1824.0 1
240.74362 -551.17633 1824.0 1
259.7498 -551.17633 1824.0 1
281.65952 -556.9177 1843.0 1
302.49612 -559.9396 1853.0 1
325.27765 -565.98315 1873.0 1
33.430832 -601.755 1925.0 1
52.90576 -595.19037 1904.0 1
71.94318 -588.6258 1883.0 1
90.10519 -579.2478 1853.0 1
108.23259 -572.9958 1833.0 1
112.9528 -508.2876 1626.0 1
129.89568 -508.2876 1626.0 1
146.83865 -508.2876 1626.0 1
162.27063 -503.5986 1611.0 1
180.72452 -508.2876 1626.0 1
222.8317 -572.9958 1833.0 1
240.74362 -570.1824 1824.0 1
261.03143 -572.9958 1833.0 1
281.65952 -576.12177 1843.0 1
305.76105 -585.4998 1873.0 1
33.430832 -621.8135 1925.0 1
52.627895 -611.79987 1894.0 1
71.94318 -608.24664 1883.0 1
90.59145 -601.78625 1863.0 1
108.82305 -595.3258 1843.0 1
113.50853 -527.81464 1634.0 1
129.89568 -525.23047 1626.0 1
146.83865 -525.23047 1626.0 1
162.97572 -522.64636 1618.0 1
179.83534 -522.64636 1618.0 1
222.8317 -592.09564 1833.0 1
241.9315 -592.09564 1833.0 1
262.4555 -595.3258 1843.0 1
286.24432 -605.0164 1873.0 1
33.430832 -641.87195 1925.0 1
52.90576 -634.8697 1904.0 1
71.94318 -627.8675 1883.0 1
90.59145 -621.19867 1863.0 1
109.41352 -617.86426 1853.0 1
128.02707 -614.52985 1843.0 1
129.89568 -542.1734 1626.0 1
146.83865 -542.1734 1626.0 1
162.97572 -539.50586 1618.0 1
179.83534 -539.50586 1618.0 1
197.66739 -542.1734 1626.0 1
243.25137 -614.52985 1843.0 1
263.87958 -617.86426 1853.0 1
292.66302 -638.53754 1915.0 1
330.90103 -675.8828 2027.0 1
33.430832 -661.93054 1925.0 1
52.90576 -654.7095 1904.0 1
71.94318 -647.4884 1883.0 1
90.59145 -640.6112 1863.0 1
108.82305 -633.734 1843.0 1
128.02707 -633.734 1843.0 1
130.53477 -561.86725 1634.0 1
146.83865 -559.1164 1626.0 1
162.97572 -556.3655 1618.0 1
179.83534 -556.3655 1618.0 1
197.66739 -559.1164 1626.0 1
245.89111 -640.6112 1863.0 1
268.15176 -647.4884 1883.0 1
295.8724 -665.713 1936.0 1
349.34793 -735.8604 2140.0 1
33.430832 -681.989 1925.0 1
53.211414 -678.4462 1915.0 1
71.56111 -663.56647 1873.0 1
90.59145 -660.0236 1863.0 1
109.41352 -656.48083 1853.0 1
128.02707 -652.93805 1843.0 1
130.53477 -578.89355 1634.0 1
146.83865 -576.05927 1626.0 1
163.78154 -576.05927 1626.0 1
179.83534 -573.22504 1618.0 1
197.66739 -576.05927 1626.0 1
247.21097 -663.56647 1873.0 1
268.15176 -667.10925 1883.0 1
290.98193 -674.54913 1904.0 1
351.47012 -762.76483 2153.0 1
33.8129 -710.07086 1947.0 1
53.211414 -698.4005 1915.0 1
71.56111 -683.08307 1873.0 1
90.59145 -679.4361 1863.0 1
109.41352 -675.78906 1853.0 1
128.02707 -672.1421 1843.0 1
147.23108 -672.1421 1843.0 1
146.83865 -593.0022 1626.0 1
163.78154 -593.0022 1626.0 1
180.72452 -593.0022 1626.0 1
197.66739 -593.0022 1626.0 1
247.21097 -683.08307 1873.0 1
268.15176 -686.7301 1883.0 1
327.04904 -780.458 2140.0 1
353.75558 -790.3049 2167.0 1
53.211414 -718.3548 1915.0 1
71.94318 -706.35095 1883.0 1
91.07772 -702.59973 1873.0 1
109.41352 -695.09735 1853.0 1
128.02707 -691.3461 1843.0 1
147.23108 -691.3461 1843.0 1
147.56111 -612.94604 1634.0 1
163.78154 -609.94507 1626.0 1
180.72452 -609.94507 1626.0 1
197.66739 -609.94507 1626.0 1
214.61028 -609.94507 1626.0 1
306.60156 -807.6333 2153.0 1
331.17535 -812.885 2167.0 1
358.16324 -823.01324 2194.0 1
53.48928 -742.1644 1925.0 1
71.94318 -725.97174 1883.0 1
91.07772 -722.1164 1873.0 1
110.00399 -718.261 1863.0 1
128.72173 -714.4056 1853.0 1
148.02994 -714.4056 1853.0 1
148.19325 -632.6711 1641.0 1
163.78154 -626.888 1626.0 1
180.72452 -626.888 1626.0 1
198.63992 -629.9723 1634.0 1
215.66617 -629.9723 1634.0 1
306.60156 -830.06757 2153.0 1
331.17535 -835.46515 2167.0 1
358.16324 -845.8747 2194.0 1
53.794933 -766.5786 1936.0 1
72.36345 -749.94824 1894.0 1
91.56399 -745.5927 1883.0 1
110.00399 -737.6735 1863.0 1
128.72173 -733.7139 1853.0 1
147.23108 -729.75433 1843.0 1
166.43521 -729.75433 1843.0 1
163.78154 -643.831 1626.0 1
181.6137 -646.99866 1634.0 1
198.63992 -646.99866 1634.0 1
215.66617 -646.99866 1634.0 1
308.59528 -858.04535 2167.0 1
333.3149 -863.5888 2181.0 1
362.8974 -880.2191 2223.0 1
54.100586 -791.22186 1947.0 1
73.165794 -778.2177 1915.0 1
91.56399 -765.21356 1883.0 1
110.59445 -761.1497 1873.0 1
129.4164 -757.08594 1863.0 1
148.02994 -753.02216 1853.0 1
166.43521 -748.9584 1843.0 1
163.78154 -660.77386 1626.0 1
181.6137 -664.0249 1634.0 1
198.63992 -664.0249 1634.0 1
215.66617 -664.0249 1634.0 1
233.68936 -666.86957 1641.0 1
339.73364 -903.38275 2223.0 1
372.3657 -926.95276 2281.0 1
