ply
format ascii 1.0
comment : created from Kinect user tracker
element vertex 908
property float x
property float y
property float z
property int userId
end_header
1024.4979 314.07965 2153.0 1
1034.2892 310.28677 2127.0 1
1056.4525 310.28677 2127.0 1
1008.5795 293.5418 2167.0 1
1018.3119 289.88437 2140.0 1
1034.2892 288.1234 2127.0 1
1056.4525 288.1234 2127.0 1
1085.2083 289.88437 2140.0 1
975.4231 274.33777 2194.0 1
985.99945 270.9617 2167.0 1
1002.06354 269.21112 2153.0 1
1012.1259 265.96008 2127.0 1
1021.64624 262.70905 2101.0 1
1024.6646 257.95752 2063.0 1
1052.7534 259.58304 2076.0 1
1080.5956 261.08353 2088.0 1
1089.154 257.95752 2063.0 1
1110.6504 257.95752 2063.0 1
965.15247 254.80023 2223.0 1
969.64343 249.98619 2181.0 1
979.62933 246.77684 2153.0 1
1002.06354 246.77684 2153.0 1
1012.1259 243.7967 2127.0 1
1015.32477 239.32654 2088.0 1
1037.0817 239.32654 2088.0 1
1046.161 236.46103 2063.0 1
1061.4471 235.0856 2051.0 1
1096.0173 237.9511 2076.0 1
1117.6492 237.9511 2076.0 1
958.63995 230.0736 2208.0 1
969.64343 227.2602 2181.0 1
985.99945 225.80139 2167.0 1
983.9119 220.2788 2114.0 1
1012.1259 221.63339 2127.0 1
1021.64624 218.9242 2101.0 1
1037.0817 217.5696 2088.0 1
1046.161 214.9646 2063.0 1
1067.6575 214.9646 2063.0 1
1082.8186 213.7142 2051.0 1
1104.1901 213.7142 2051.0 1
952.56165 205.75334 2194.0 1
963.41925 203.22128 2167.0 1
967.7992 199.47008 2127.0 1
954.59 192.3428 2051.0 1
1012.1259 199.47008 2127.0 1
1015.32477 195.81265 2088.0 1
1037.0817 195.81265 2088.0 1
1052.7534 194.6873 2076.0 1
1074.3853 194.6873 2076.0 1
1089.154 193.46815 2063.0 1
1117.6492 194.6873 2076.0 1
952.56165 182.89183 2194.0 1
963.41925 180.64111 2167.0 1
973.7143 178.39038 2140.0 1
983.9119 176.22302 2114.0 1
1005.9399 176.22302 2114.0 1
1015.32477 174.05566 2088.0 1
1037.0817 174.05566 2088.0 1
1052.7534 173.05534 2076.0 1
1080.5956 174.05566 2088.0 1
1102.3527 174.05566 2088.0 1
1131.1084 175.13934 2101.0 1
924.1915 159.08215 2181.0 1
946.9175 159.08215 2181.0 1
969.64343 159.08215 2181.0 1
979.62933 157.03983 2153.0 1
989.96246 155.14339 2127.0 1
1005.9399 154.19518 2114.0 1
1040.6106 156.09161 2140.0 1
1043.5386 153.24695 2101.0 1
1058.8387 152.29872 2088.0 1
1087.3235 153.24695 2101.0 1
1122.9426 155.14339 2127.0 1
1166.6405 158.06099 2167.0 1
952.56165 137.16885 2194.0 1
969.64343 136.3561 2181.0 1
985.99945 135.48082 2167.0 1
989.96246 132.98001 2127.0 1
1005.9399 132.16725 2114.0 1
1034.2892 132.98001 2127.0 1
1056.4525 132.98001 2127.0 1
1065.4312 131.35449 2101.0 1
1107.507 133.79277 2140.0 1
1144.0604 135.48082 2167.0 1
1174.1777 136.3561 2181.0 1
852.13367 122.9039 2359.0 1
864.82184 121.236694 2327.0 1
883.33813 120.4552 2312.0 1
895.262 118.840096 2281.0 1
907.3458 117.3292 2252.0 1
924.6117 116.5477 2237.0 1
941.9889 115.8183 2223.0 1
958.63995 115.0368 2208.0 1
969.64343 113.6301 2181.0 1
973.7143 111.493996 2140.0 1
989.96246 110.816696 2127.0 1
1018.3119 111.493996 2140.0 1
1040.6106 111.493996 2140.0 1
1069.3663 112.171295 2153.0 1
1085.2083 111.493996 2140.0 1
1121.4802 112.900696 2167.0 1
1144.0604 112.900696 2167.0 1
1138.107 110.1394 2114.0 1
821.94006 97.656265 2343.0 1
840.5744 96.98938 2327.0 1
853.6724 95.73898 2297.0 1
871.4941 95.0721 2281.0 1
883.8799 93.86338 2252.0 1
901.30225 93.23818 2237.0 1
918.82513 92.65466 2223.0 1
935.6327 92.02946 2208.0 1
958.63995 92.02946 2208.0 1
975.4231 91.44594 2194.0 1
985.99945 90.32058 2167.0 1
1015.0955 90.9041 2181.0 1
1044.0076 91.44594 2194.0 1
1060.5476 90.9041 2181.0 1
1083.2736 90.9041 2181.0 1
1119.6915 92.02946 2208.0 1
1121.4802 90.32058 2167.0 1
802.97205 73.742325 2359.0 1
816.32715 72.742004 2327.0 1
829.7376 71.80421 2297.0 1
847.7261 71.30405 2281.0 1
865.76306 70.835144 2266.0 1
883.8799 70.39751 2252.0 1
901.30225 69.928604 2237.0 1
912.62524 69.022064 2208.0 1
924.1915 68.17805 2181.0 1
952.56165 68.58443 2194.0 1
969.64343 68.17805 2181.0 1
973.7143 66.896385 2140.0 1
1002.06354 67.302765 2153.0 1
1037.8217 68.17805 2181.0 1
1053.7399 67.74041 2167.0 1
1089.7305 68.58443 2194.0 1
1134.3976 69.928604 2237.0 1
794.8897 50.20357 2409.0 1
802.97205 49.16157 2359.0 1
816.32715 48.49469 2327.0 1
829.7376 47.86949 2297.0 1
847.7261 47.53605 2281.0 1
860.4141 46.93169 2252.0 1
872.4978 46.32733 2223.0 1
895.66156 46.32733 2223.0 1
906.8387 45.72297 2194.0 1
918.2591 45.16029 2167.0 1
940.8392 45.16029 2167.0 1
963.41925 45.16029 2167.0 1
979.62933 44.86853 2153.0 1
996.013 44.59761 2140.0 1
1018.3119 44.59761 2140.0 1
784.0008 24.757896 2376.0 1
797.5259 24.414036 2343.0 1
811.065 24.091017 2312.0 1
823.958 23.767998 2281.0 1
847.7261 23.767998 2281.0 1
854.6831 23.309517 2237.0 1
872.4978 23.163637 2223.0 1
889.6179 23.007338 2208.0 1
906.8387 22.861458 2194.0 1
924.1915 22.725998 2181.0 1
934.7608 22.434238 2153.0 1
951.4154 22.298779 2140.0 1
973.7143 22.298779 2140.0 1
989.96246 22.163319 2127.0 1
1005.9399 22.027859 2114.0 1
1027.9678 22.027859 2114.0 1
764.35565 0.0 2392.0 1
789.2803 0.0 2392.0 1
797.5259 0.0 2343.0 1
811.065 0.0 2312.0 1
823.958 0.0 2281.0 1
836.94836 0.0 2252.0 1
854.6831 0.0 2237.0 1
877.9926 0.0 2237.0 1
895.66156 0.0 2223.0 1
901.4654 0.0 2181.0 1
918.2591 0.0 2167.0 1
934.7608 0.0 2153.0 1
951.4154 0.0 2140.0 1
967.7992 0.0 2127.0 1
989.96246 0.0 2127.0 1
999.7539 0.0 2101.0 1
1021.64624 0.0 2101.0 1
1031.1215 0.0 2076.0 1
1052.7534 0.0 2076.0 1
775.2203 -25.278896 2426.0 1
789.2803 -24.924616 2392.0 1
802.97205 -24.580755 2359.0 1
811.065 -24.091017 2312.0 1
823.958 -23.767998 2281.0 1
842.15137 -23.611696 2266.0 1
860.4141 -23.465816 2252.0 1
872.4978 -23.163637 2223.0 1
889.6179 -23.007338 2208.0 1
901.4654 -22.725998 2181.0 1
912.3266 -22.434238 2153.0 1
934.7608 -22.434238 2153.0 1
945.63574 -22.163319 2127.0 1
967.7992 -22.163319 2127.0 1
983.9119 -22.027859 2114.0 1
999.7539 -21.892399 2101.0 1
1015.32477 -21.756939 2088.0 1
1031.1215 -21.631899 2076.0 1
1046.161 -21.496439 2063.0 1
1061.4471 -21.371399 2051.0 1
760.45154 -51.26635 2460.0 1
780.6525 -50.91207 2443.0 1
794.8897 -50.20351 2409.0 1
808.75867 -49.515793 2376.0 1
811.065 -48.182034 2312.0 1
823.958 -47.535995 2281.0 1
847.7261 -47.535995 2281.0 1
854.6831 -46.619034 2237.0 1
872.4978 -46.327274 2223.0 1
883.97723 -45.722916 2194.0 1
901.4654 -45.451996 2181.0 1
912.3266 -44.868477 2153.0 1
929.11664 -44.597557 2140.0 1
945.63574 -44.326637 2127.0 1
967.7992 -44.326637 2127.0 1
977.8614 -43.784798 2101.0 1
993.5679 -43.513878 2088.0 1
1009.48956 -43.263798 2076.0 1
1031.1215 -43.263798 2076.0 1
1046.161 -42.992878 2063.0 1
1061.4471 -42.742798 2051.0 1
1076.4833 -42.492718 2039.0 1
760.45154 -76.89965 2460.0 1
775.2203 -75.83681 2426.0 1
794.8897 -75.30539 2409.0 1
808.75867 -74.2738 2376.0 1
816.32715 -72.742065 2327.0 1
829.7376 -71.80427 2297.0 1
847.7261 -71.30411 2281.0 1
860.4141 -70.39756 2252.0 1
872.4978 -69.49102 2223.0 1
889.6179 -69.022125 2208.0 1
889.8923 -67.30282 2153.0 1
901.3092 -66.49006 2127.0 1
923.4725 -66.49006 2127.0 1
945.63574 -66.49006 2127.0 1
961.8841 -66.08368 2114.0 1
971.81085 -65.27092 2088.0 1
993.5679 -65.27092 2088.0 1
1009.48956 -64.8958 2076.0 1
1031.1215 -64.8958 2076.0 1
1040.0758 -64.114296 2051.0 1
1061.4471 -64.114296 2051.0 1
760.45154 -102.53282 2460.0 1
775.2203 -101.1157 2426.0 1
794.8897 -100.40714 2409.0 1
808.75867 -99.0317 2376.0 1
821.94006 -97.656265 2343.0 1
829.7376 -95.73898 2297.0 1
847.7261 -95.0721 2281.0 1
860.4141 -93.86338 2252.0 1
872.4978 -92.65466 2223.0 1
883.97723 -91.44594 2194.0 1
895.67883 -90.32058 2167.0 1
906.81793 -89.19522 2140.0 1
929.11664 -89.19522 2140.0 1
939.85614 -88.11154 2114.0 1
950.05396 -87.02786 2088.0 1
966.2257 -86.5277 2076.0 1
987.8577 -86.5277 2076.0 1
1009.48956 -86.5277 2076.0 1
1024.6646 -85.985855 2063.0 1
1040.0758 -85.4857 2051.0 1
1061.4471 -85.4857 2051.0 1
766.0158 -129.10379 2478.0 1
780.6525 -127.2803 2443.0 1
806.1086 -127.2803 2443.0 1
819.9914 -125.508896 2409.0 1
816.32715 -121.236694 2327.0 1
829.7376 -119.6737 2297.0 1
847.7261 -118.840096 2281.0 1
860.4141 -117.3292 2252.0 1
872.4978 -115.8183 2223.0 1
889.6179 -115.0368 2208.0 1
895.67883 -112.900696 2167.0 1
906.81793 -111.493996 2140.0 1
929.11664 -111.493996 2140.0 1
939.85614 -110.1394 2114.0 1
955.969 -109.4621 2101.0 1
971.81085 -108.7848 2088.0 1
981.6717 -107.4823 2063.0 1
1009.48956 -108.1596 2076.0 1
1024.6646 -107.4823 2063.0 1
1040.0758 -106.8571 2051.0 1
1055.2368 -106.231895 2039.0 1
1089.154 -107.4823 2063.0 1
771.58014 -156.0499 2496.0 1
786.08484 -153.79918 2460.0 1
806.1086 -152.73633 2443.0 1
819.9914 -150.61066 2409.0 1
816.32715 -145.48401 2327.0 1
829.7376 -143.60841 2297.0 1
847.7261 -142.6081 2281.0 1
854.6831 -139.85721 2237.0 1
872.4978 -138.98193 2223.0 1
889.6179 -138.04413 2208.0 1
901.4654 -136.3561 2181.0 1
912.3266 -134.60553 2153.0 1
923.4725 -132.98001 2127.0 1
945.63574 -132.98001 2127.0 1
955.969 -131.35449 2101.0 1
971.81085 -130.54173 2088.0 1
981.6717 -128.97874 2063.0 1
1003.1681 -128.97874 2063.0 1
1024.6646 -128.97874 2063.0 1
1046.161 -128.97874 2063.0 1
1061.4471 -128.2285 2051.0 1
1096.0173 -129.7915 2076.0 1
750.9486 -183.37111 2514.0 1
771.58014 -182.05818 2496.0 1
791.8367 -180.74527 2478.0 1
817.6574 -180.74527 2478.0 1
814.20483 -174.47243 2392.0 1
821.94006 -170.89838 2343.0 1
829.7376 -167.54314 2297.0 1
853.6724 -167.54314 2297.0 1
860.4141 -164.26083 2252.0 1
872.4978 -162.14557 2223.0 1
889.6179 -161.05147 2208.0 1
901.4654 -159.08209 2181.0 1
918.2591 -158.06093 2167.0 1
929.11664 -156.09155 2140.0 1
945.63574 -155.14334 2127.0 1
961.8841 -154.19511 2114.0 1
971.81085 -152.29868 2088.0 1
987.8577 -151.4234 2076.0 1
1003.1681 -150.47517 2063.0 1
1024.6646 -150.47517 2063.0 1
1040.0758 -149.5999 2051.0 1
1067.6575 -150.47517 2063.0 1
1096.0173 -151.4234 2076.0 1
756.3253 -211.06757 2532.0 1
771.58014 -208.0666 2496.0 1
797.5885 -208.0666 2496.0 1
817.6574 -206.56613 2478.0 1
797.5259 -195.31253 2343.0 1
821.94006 -195.31253 2343.0 1
829.7376 -191.47797 2297.0 1
859.24713 -192.72836 2312.0 1
860.4141 -187.72676 2252.0 1
877.9926 -186.47636 2237.0 1
895.66156 -185.30933 2223.0 1
901.4654 -181.8082 2181.0 1
918.2591 -180.64116 2167.0 1
934.7608 -179.47412 2153.0 1
951.4154 -178.39044 2140.0 1
967.7992 -177.30676 2127.0 1
971.81085 -174.05573 2088.0 1
993.5679 -174.05573 2088.0 1
1009.48956 -173.0554 2076.0 1
1024.6646 -171.97171 2063.0 1
1046.161 -171.97171 2063.0 1
1074.3853 -173.0554 2076.0 1
1109.216 -175.1394 2101.0 1
762.00073 -239.2328 2551.0 1
771.58014 -234.0749 2496.0 1
797.5885 -234.0749 2496.0 1
811.71796 -230.69882 2460.0 1
802.97205 -221.22704 2359.0 1
821.94006 -219.72656 2343.0 1
840.5744 -218.22607 2327.0 1
853.6724 -215.41267 2297.0 1
860.4141 -211.19258 2252.0 1
872.4978 -208.47296 2223.0 1
895.66156 -208.47296 2223.0 1
912.62524 -207.06625 2208.0 1
924.1915 -204.5342 2181.0 1
940.8392 -203.22128 2167.0 1
957.195 -201.90836 2153.0 1
973.7143 -200.68922 2140.0 1
983.9119 -198.25093 2114.0 1
987.8577 -194.6873 2076.0 1
1003.1681 -193.46815 2063.0 1
1024.6646 -193.46815 2063.0 1
1052.7534 -194.6873 2076.0 1
1067.6575 -193.46815 2063.0 1
762.00073 -265.8142 2551.0 1
782.7087 -263.83438 2532.0 1
803.3404 -261.9588 2514.0 1
817.6574 -258.20758 2478.0 1
808.75867 -247.5792 2376.0 1
821.94006 -244.1406 2343.0 1
835.156 -240.9104 2312.0 1
847.7261 -237.68019 2281.0 1
865.76306 -236.1172 2266.0 1
872.4978 -231.6366 2223.0 1
895.66156 -231.6366 2223.0 1
918.82513 -231.6366 2223.0 1
924.1915 -227.2602 2181.0 1
946.9175 -227.2602 2181.0 1
963.41925 -225.80139 2167.0 1
979.62933 -224.34259 2153.0 1
977.8614 -218.9242 2101.0 1
987.8577 -216.3192 2076.0 1
1003.1681 -214.9646 2063.0 1
1024.6646 -214.9646 2063.0 1
1052.7534 -216.3192 2076.0 1
1067.6575 -214.9646 2063.0 1
767.67615 -294.57336 2570.0 1
788.5821 -292.3956 2551.0 1
815.1636 -292.3956 2551.0 1
806.1086 -280.01663 2443.0 1
814.20483 -274.17102 2392.0 1
827.5529 -270.38855 2359.0 1
846.354 -268.55463 2343.0 1
853.6724 -263.2821 2297.0 1
871.4941 -261.44818 2281.0 1
877.9926 -256.4049 2237.0 1
901.30225 -256.4049 2237.0 1
918.82513 -254.80023 2223.0 1
929.70026 -251.47626 2194.0 1
952.56165 -251.47626 2194.0 1
969.64343 -249.98619 2181.0 1
979.62933 -246.77684 2153.0 1
977.8614 -240.81659 2101.0 1
987.8577 -237.9511 2076.0 1
1009.48956 -237.9511 2076.0 1
1031.1215 -237.9511 2076.0 1
1052.7534 -237.9511 2076.0 1
767.67615 -321.35275 2570.0 1
794.4555 -321.35275 2570.0 1
815.1636 -318.977 2551.0 1
806.1086 -305.47266 2443.0 1
814.20483 -299.09564 2392.0 1
827.5529 -294.9693 2359.0 1
846.354 -292.96866 2343.0 1
859.24713 -289.09244 2312.0 1
865.76306 -283.34058 2266.0 1
877.9926 -279.71442 2237.0 1
895.66156 -277.96387 2223.0 1
918.82513 -277.96387 2223.0 1
935.6327 -276.08826 2208.0 1
958.63995 -276.08826 2208.0 1
975.4231 -274.3377 2194.0 1
992.36957 -272.7122 2181.0 1
977.8614 -262.70898 2101.0 1
987.8577 -259.583 2076.0 1
1003.1681 -257.9575 2063.0 1
1031.1215 -259.583 2076.0 1
1052.7534 -259.583 2076.0 1
773.35156 -350.706 2589.0 1
794.4555 -348.13223 2570.0 1
827.3064 -350.706 2589.0 1
811.71796 -333.23163 2460.0 1
814.20483 -324.02036 2392.0 1
827.5529 -319.55017 2359.0 1
846.354 -317.3828 2343.0 1
853.6724 -311.15167 2297.0 1
871.4941 -308.9843 2281.0 1
877.9926 -303.02405 2237.0 1
895.66156 -301.12762 2223.0 1
918.82513 -301.12762 2223.0 1
935.6327 -299.0957 2208.0 1
952.56165 -297.19928 2194.0 1
975.4231 -297.19928 2194.0 1
998.2846 -297.19928 2194.0 1
977.8614 -284.6015 2101.0 1
987.8577 -281.215 2076.0 1
1009.48956 -281.215 2076.0 1
1024.6646 -279.454 2063.0 1
1052.7534 -281.215 2076.0 1
785.29987 -383.51852 2629.0 1
806.5114 -380.60095 2609.0 1
827.3064 -377.68335 2589.0 1
806.1086 -356.38486 2443.0 1
819.9914 -351.42493 2409.0 1
827.5529 -344.13095 2359.0 1
846.354 -341.79684 2343.0 1
859.24713 -337.27457 2312.0 1
877.6071 -335.08636 2297.0 1
895.262 -332.7523 2281.0 1
901.30225 -326.3336 2237.0 1
918.82513 -324.29126 2223.0 1
941.9889 -324.29126 2223.0 1
958.63995 -322.10306 2208.0 1
981.6473 -322.10306 2208.0 1
998.2846 -320.06073 2194.0 1
977.8614 -306.4939 2101.0 1
987.8577 -302.8469 2076.0 1
1009.48956 -302.8469 2076.0 1
1031.1215 -302.8469 2076.0 1
1052.7534 -302.8469 2076.0 1
785.29987 -410.9127 2629.0 1
812.694 -410.9127 2629.0 1
833.6973 -407.78668 2609.0 1
806.1086 -381.84088 2443.0 1
819.9914 -376.5267 2409.0 1
827.5529 -368.7117 2359.0 1
846.354 -366.2109 2343.0 1
859.24713 -361.3656 2312.0 1
877.6071 -359.0211 2297.0 1
895.262 -356.5203 2281.0 1
907.3458 -351.98758 2252.0 1
918.82513 -347.4549 2223.0 1
941.9889 -347.4549 2223.0 1
971.23083 -349.6431 2237.0 1
988.3161 -347.4549 2223.0 1
1004.6547 -345.11038 2208.0 1
977.8614 -328.3863 2101.0 1
993.5679 -326.3544 2088.0 1
1009.48956 -324.4788 2076.0 1
1031.1215 -324.4788 2076.0 1
1052.7534 -324.4788 2076.0 1
1049.0265 -316.8201 2027.0 1
797.2481 -444.97565 2669.0 1
818.87646 -441.64124 2649.0 1
833.6973 -434.97244 2609.0 1
806.1086 -407.29694 2443.0 1
814.20483 -398.79422 2392.0 1
833.51666 -396.12668 2376.0 1
852.13367 -393.29245 2359.0 1
864.82184 -387.9574 2327.0 1
877.6071 -382.9558 2297.0 1
889.3747 -377.78748 2266.0 1
901.30225 -372.9526 2237.0 1
918.82513 -370.61853 2223.0 1
941.9889 -370.61853 2223.0 1
971.23083 -372.9526 2237.0 1
988.3161 -370.61853 2223.0 1
998.2846 -365.78366 2194.0 1
983.9119 -352.44604 2114.0 1
987.8577 -346.1107 2076.0 1
1009.48956 -346.1107 2076.0 1
1031.1215 -346.1107 2076.0 1
1046.161 -343.94333 2063.0 1
803.52094 -476.50653 2690.0 1
818.87646 -469.2438 2649.0 1
833.6973 -462.1582 2609.0 1
811.71796 -435.76434 2460.0 1
819.9914 -426.7302 2409.0 1
827.5529 -417.8732 2359.0 1
846.354 -415.03897 2343.0 1
853.6724 -406.89053 2297.0 1
877.6071 -406.89053 2297.0 1
889.3747 -401.3992 2266.0 1
901.30225 -396.26212 2237.0 1
924.6117 -396.26212 2237.0 1
941.9889 -393.78217 2223.0 1
965.15247 -393.78217 2223.0 1
988.3161 -393.78217 2223.0 1
1004.6547 -391.12506 2208.0 1
1021.14606 -388.6451 2194.0 1
987.8577 -367.74258 2076.0 1
1009.48956 -367.74258 2076.0 1
1031.1215 -367.74258 2076.0 1
1046.161 -365.43976 2063.0 1
809.7938 -508.47522 2711.0 1
825.059 -500.5977 2669.0 1
840.08826 -493.09528 2629.0 1
811.71796 -461.39764 2460.0 1
819.9914 -451.8321 2409.0 1
827.5529 -442.45407 2359.0 1
846.354 -439.45312 2343.0 1
853.6724 -430.82535 2297.0 1
871.4941 -427.8244 2281.0 1
883.8799 -422.38516 2252.0 1
901.30225 -419.57175 2237.0 1
918.82513 -416.94592 2223.0 1
941.9889 -416.94592 2223.0 1
965.15247 -416.94592 2223.0 1
988.3161 -416.94592 2223.0 1
1011.47986 -416.94592 2223.0 1
1027.662 -414.1325 2208.0 1
999.7539 -394.0636 2101.0 1
1009.48956 -389.3746 2076.0 1
1031.1215 -389.3746 2076.0 1
1046.161 -386.9363 2063.0 1
1067.6575 -386.9363 2063.0 1
781.54504 -536.7238 2711.0 1
809.7938 -536.7238 2711.0 1
831.55066 -532.5662 2690.0 1
840.08826 -520.48944 2629.0 1
817.6574 -490.59445 2478.0 1
825.77795 -480.2995 2426.0 1
839.1296 -473.56818 2392.0 1
846.354 -463.86716 2343.0 1
859.24713 -457.72977 2312.0 1
871.4941 -451.5924 2281.0 1
889.3747 -448.62268 2266.0 1
901.30225 -442.8813 2237.0 1
924.6117 -442.8813 2237.0 1
947.9213 -442.8813 2237.0 1
965.15247 -440.10956 2223.0 1
988.3161 -440.10956 2223.0 1
1017.8499 -442.8813 2237.0 1
1048.1407 -445.85098 2252.0 1
1005.9399 -418.52972 2114.0 1
1015.32477 -413.38226 2088.0 1
1031.1215 -411.0065 2076.0 1
1046.161 -408.43274 2063.0 1
1061.4471 -406.057 2051.0 1
1116.0793 -418.52972 2114.0 1
809.7938 -564.9724 2711.0 1
825.059 -556.2196 2669.0 1
811.71796 -512.664 2460.0 1
825.77795 -505.5784 2426.0 1
839.1296 -498.4928 2392.0 1
846.354 -488.2812 2343.0 1
859.24713 -481.8208 2312.0 1
871.4941 -475.36038 2281.0 1
895.262 -475.36038 2281.0 1
912.9865 -472.2344 2266.0 1
924.6117 -466.1908 2237.0 1
947.9213 -466.1908 2237.0 1
971.23083 -466.1908 2237.0 1
994.5403 -466.1908 2237.0 1
1017.8499 -466.1908 2237.0 1
1041.1594 -466.1908 2237.0 1
1024.4979 -448.68518 2153.0 1
1015.32477 -435.1392 2088.0 1
1031.1215 -432.6384 2076.0 1
1046.161 -429.9292 2063.0 1
1067.6575 -429.9292 2063.0 1
817.6574 -542.2359 2478.0 1
831.5646 -534.5772 2443.0 1
845.09326 -527.1373 2409.0 1
852.13367 -516.19635 2359.0 1
859.24713 -505.9118 2312.0 1
877.6071 -502.62952 2297.0 1
895.262 -499.1284 2281.0 1
912.9865 -495.8461 2266.0 1
930.8116 -492.78262 2252.0 1
947.9213 -489.5003 2237.0 1
977.7433 -492.78262 2252.0 1
1001.2091 -492.78262 2252.0 1
1024.675 -492.78262 2252.0 1
1048.1407 -492.78262 2252.0 1
1093.0198 -502.62952 2297.0 1
1015.32477 -456.89612 2088.0 1
1037.0817 -456.89612 2088.0 1
1058.8387 -456.89612 2088.0 1
1074.3853 -454.2703 2076.0 1
855.732 -576.3093 2514.0 1
862.98444 -563.93036 2460.0 1
858.27454 -544.6742 2376.0 1
864.82184 -533.4414 2327.0 1
877.6071 -526.5642 2297.0 1
895.262 -522.89636 2281.0 1
912.9865 -519.45776 2266.0 1
936.5982 -519.45776 2266.0 1
947.9213 -512.8098 2237.0 1
983.82166 -519.45776 2266.0 1
1001.2091 -516.2484 2252.0 1
1024.675 -516.2484 2252.0 1
1061.6382 -522.89636 2281.0 1
1093.0198 -526.5642 2297.0 1
1021.64624 -481.63318 2101.0 1
1037.0817 -478.65308 2088.0 1
1052.7534 -475.9022 2076.0 1
1080.5956 -478.65308 2088.0 1
1096.0173 -475.9022 2076.0 1
868.3263 -611.3727 2551.0 1
875.61346 -598.1914 2496.0 1
882.4767 -585.48944 2443.0 1
870.7682 -561.52344 2343.0 1
889.0691 -557.68884 2327.0 1
895.262 -546.6645 2281.0 1
912.9865 -543.0696 2266.0 1
930.8116 -539.71436 2252.0 1
960.20996 -543.0696 2266.0 1
983.82166 -543.0696 2266.0 1
1007.4333 -543.0696 2266.0 1
1031.0452 -543.0696 2266.0 1
1069.085 -550.4991 2297.0 1
1093.0198 -550.4991 2297.0 1
1049.9955 -506.64127 2114.0 1
1058.8387 -500.41013 2088.0 1
1080.5956 -500.41013 2088.0 1
1102.3527 -500.41013 2088.0 1
1124.1096 -500.41013 2088.0 1
849.60504 -624.1997 2496.0 1
901.5732 -642.7056 2570.0 1
908.1238 -628.7011 2514.0 1
883.03253 -594.19006 2376.0 1
895.1822 -585.93744 2343.0 1
901.5418 -574.4338 2297.0 1
919.0301 -570.4325 2281.0 1
936.5982 -566.6813 2266.0 1
966.56616 -570.4325 2281.0 1
990.33417 -570.4325 2281.0 1
1007.4333 -566.6813 2266.0 1
1037.8702 -570.4325 2281.0 1
1069.085 -574.4338 2297.0 1
1093.0198 -574.4338 2297.0 1
1065.4312 -525.4181 2101.0 1
1080.5956 -522.16705 2088.0 1
1102.3527 -522.16705 2088.0 1
1124.1096 -522.16705 2088.0 1
943.6699 -700.745 2690.0 1
935.21576 -674.4345 2589.0 1
927.6301 -650.208 2496.0 1
907.7904 -618.948 2376.0 1
913.3164 -606.1835 2327.0 1
925.4766 -598.36847 2297.0 1
949.4113 -598.36847 2297.0 1
966.56616 -594.2005 2281.0 1
997.2808 -598.36847 2297.0 1
1014.1021 -594.2005 2281.0 1
1045.1503 -598.36847 2297.0 1
1069.085 -598.36847 2297.0 1
1122.5223 -614.5195 2359.0 1
1080.5956 -543.924 2088.0 1
1109.216 -547.3105 2101.0 1
1124.1096 -543.924 2088.0 1
952.7422 -758.30505 2799.0 1
958.75464 -740.4243 2733.0 1
971.6997 -728.7748 2690.0 1
914.25085 -666.46313 2460.0 1
907.7904 -643.7059 2376.0 1
919.5962 -634.7655 2343.0 1
937.56384 -630.4308 2327.0 1
955.6112 -626.367 2312.0 1
966.56616 -617.9685 2281.0 1
997.2808 -622.3032 2297.0 1
1027.8843 -626.367 2312.0 1
1045.1503 -622.3032 2297.0 1
1090.4946 -634.7655 2343.0 1
1100.7792 -576.2468 2127.0 1
1109.216 -569.2029 2101.0 1
1124.1096 -565.6809 2088.0 1
937.4248 -774.8103 2754.0 1
951.03687 -762.71265 2711.0 1
971.6997 -756.8045 2690.0 1
977.05914 -739.6428 2629.0 1
920.39856 -677.748 2409.0 1
932.5482 -668.4638 2376.0 1
944.0103 -659.17957 2343.0 1
961.8111 -654.6781 2327.0 1
973.3461 -646.2379 2297.0 1
1003.79333 -650.458 2312.0 1
1027.8843 -650.458 2312.0 1
1051.9755 -650.458 2312.0 1
1090.4946 -659.17957 2343.0 1
1122.9426 -598.41016 2127.0 1
1138.107 -594.7527 2114.0 1
901.7989 -797.3801 2733.0 1
930.2767 -797.3801 2733.0 1
951.03687 -790.9614 2711.0 1
971.6997 -784.8344 2690.0 1
991.925 -778.70746 2669.0 1
926.89374 -707.8098 2426.0 1
932.5482 -693.2218 2376.0 1
950.45685 -688.2619 2359.0 1
968.4243 -683.5937 2343.0 1
986.05853 -678.92554 2327.0 1
1010.3058 -678.92554 2327.0 1
1034.5531 -678.92554 2327.0 1
1073.3607 -688.2619 2359.0 1
1105.8538 -693.2218 2376.0 1
1129.8059 -624.36646 2140.0 1
1145.1058 -620.57355 2127.0 1
894.5396 -819.21 2711.0 1
922.78815 -819.21 2711.0 1
943.6699 -812.8642 2690.0 1
964.1139 -806.51843 2669.0 1
991.925 -806.51843 2669.0 1
926.89374 -733.0887 2426.0 1
938.828 -722.8146 2392.0 1
950.45685 -712.84265 2359.0 1
975.03754 -712.84265 2359.0 1
992.8385 -708.00775 2343.0 1
1024.1991 -712.84265 2359.0 1
1056.3379 -717.9797 2376.0 1
1073.3607 -712.84265 2359.0 1
1151.4517 -659.05457 2181.0 1
1152.1046 -646.6652 2140.0 1
873.3211 -854.33575 2733.0 1
894.5396 -847.45856 2711.0 1
922.78815 -847.45856 2711.0 1
943.6699 -840.894 2690.0 1
971.6997 -840.894 2690.0 1
977.05914 -821.8254 2629.0 1
939.884 -768.996 2460.0 1
945.5003 -753.0534 2409.0 1
957.3063 -742.7376 2376.0 1
982.0641 -742.7376 2376.0 1
999.6184 -737.4234 2359.0 1
1031.58 -742.7376 2376.0 1
1056.3379 -742.7376 2376.0 1
1081.0958 -742.7376 2376.0 1
1151.4517 -681.7806 2181.0 1
1159.1034 -673.0278 2153.0 1
873.3211 -882.8136 2733.0 1
894.5396 -875.70715 2711.0 1
915.6401 -868.92377 2690.0 1
936.30304 -862.1403 2669.0 1
964.1139 -862.1403 2669.0 1
955.13196 -830.1614 2570.0 1
946.76117 -800.44354 2478.0 1
952.17255 -783.6465 2426.0 1
970.6022 -778.15515 2409.0 1
982.0641 -767.4955 2376.0 1
1006.82214 -767.4955 2376.0 1
1031.58 -767.4955 2376.0 1
1056.3379 -767.4955 2376.0 1
1073.3607 -762.00415 2359.0 1
1151.4517 -704.5066 2181.0 1
1152.1046 -691.26276 2140.0 1
838.04236 -903.95575 2711.0 1
866.2911 -903.95575 2711.0 1
887.6103 -896.95355 2690.0 1
908.49194 -889.9513 2669.0 1
929.28687 -883.2825 2649.0 1
964.1139 -889.9513 2669.0 1
962.1933 -863.2761 2589.0 1
953.63837 -832.2662 2496.0 1
952.17255 -808.92535 2426.0 1
970.6022 -803.2569 2409.0 1
995.7039 -803.2569 2409.0 1
1020.8058 -803.2569 2409.0 1
1053.2883 -808.92535 2426.0 1
1078.5671 -808.92535 2426.0 1
844.84314 -939.7694 2733.0 1
866.2911 -932.20447 2711.0 1
887.6103 -924.98346 2690.0 1
908.49194 -917.7624 2669.0 1
929.28687 -910.8852 2649.0 1
964.1139 -917.7624 2669.0 1
948.0707 -877.1869 2551.0 1
946.76117 -852.08514 2478.0 1
952.17255 -834.2044 2426.0 1
970.6022 -828.35876 2409.0 1
995.7039 -828.35876 2409.0 1
1020.8058 -828.35876 2409.0 1
1060.6692 -840.05 2443.0 1
838.04236 -960.45306 2711.0 1
859.58057 -953.0132 2690.0 1
887.6103 -953.0132 2690.0 1
908.49194 -945.5733 2669.0 1
943.6699 -953.0132 2690.0 1
971.6997 -953.0132 2690.0 1
934.31976 -890.6599 2514.0 1
946.76117 -877.9058 2478.0 1
958.84485 -865.50604 2443.0 1
977.4516 -859.4833 2426.0 1
995.7039 -853.4605 2409.0 1
1028.0094 -859.4833 2426.0 1
1060.6692 -865.50604 2443.0 1
1416.453 -1128.7361 3186.0 1
816.36536 -996.7251 2733.0 1
838.04236 -988.70166 2711.0 1
852.8701 -973.3843 2669.0 1
874.08167 -966.0903 2649.0 1
901.6842 -966.0903 2649.0 1
936.30304 -973.3843 2669.0 1
956.8894 -966.0903 2649.0 1
927.6301 -910.2912 2496.0 1
946.76117 -903.72656 2478.0 1
965.5171 -897.162 2460.0 1
984.301 -890.9621 2443.0 1
1002.73047 -884.7622 2426.0 1
1028.0094 -884.7622 2426.0 1
809.7938 -1016.95026 2711.0 1
831.55066 -1009.07275 2690.0 1
852.8701 -1001.19525 2669.0 1
874.08167 -993.6928 2649.0 1
901.6842 -993.6928 2649.0 1
929.28687 -993.6928 2649.0 1
921.4892 -956.9311 2551.0 1
920.9405 -929.5473 2478.0 1
933.38885 -916.4181 2443.0 1
965.5171 -922.79517 2460.0 1
977.4516 -910.0411 2426.0 1
1002.73047 -910.0411 2426.0 1
1042.4169 -922.79517 2460.0 1
809.7938 -1045.1989 2711.0 1
831.55066 -1037.1025 2690.0 1
846.4792 -1021.2954 2649.0 1
880.681 -1029.0062 2669.0 1
908.49194 -1029.0062 2669.0 1
901.5732 -990.8377 2570.0 1
908.1238 -969.2475 2514.0 1
920.9405 -955.36804 2478.0 1
939.884 -948.42834 2460.0 1
958.84485 -941.87415 2443.0 1
977.4516 -935.31995 2426.0 1
1009.757 -941.87415 2443.0 1
797.2481 -1056.8173 2669.0 1
818.87646 -1048.8981 2649.0 1
846.4792 -1048.8981 2649.0 1
874.08167 -1048.8981 2649.0 1
894.90784 -1010.094 2551.0 1
908.1238 -995.4435 2514.0 1
920.9405 -981.1889 2478.0 1
933.38885 -967.3303 2443.0 1
958.84485 -967.3303 2443.0 1
991.1504 -974.06165 2460.0 1
1009.757 -967.3303 2443.0 1
781.54504 -1101.6962 2711.0 1
797.2481 -1084.6282 2669.0 1
818.87646 -1076.5006 2649.0 1
852.8701 -1084.6282 2669.0 1
880.681 -1084.6282 2669.0 1
901.6842 -1076.5006 2649.0 1
888.2425 -1028.9542 2532.0 1
895.1196 -1007.00964 2478.0 1
920.9405 -1007.00964 2478.0 1
939.884 -999.6948 2460.0 1
958.84485 -992.7863 2443.0 1
977.4516 -985.87787 2426.0 1
1002.73047 -985.87787 2426.0 1
