ply
format ascii 1.0
comment : created from Kinect user tracker
element vertex 783
property float x
property float y
property float z
property int userId
end_header
1178.4602 474.9019 2532.0 1
1143.8867 445.32996 2514.0 1
1144.9496 435.7644 2460.0 1
1065.2992 419.13403 2514.0 1
1075.865 413.13214 2478.0 1
1101.6857 413.13214 2478.0 1
1127.5066 413.13214 2478.0 1
1153.3273 413.13214 2478.0 1
1062.2495 401.69098 2570.0 1
1072.9266 395.7516 2532.0 1
1083.6799 390.1248 2496.0 1
1101.6857 387.3114 2478.0 1
1119.3164 384.498 2460.0 1
1153.3273 387.3114 2478.0 1
1170.5829 384.498 2460.0 1
1204.9688 387.3114 2478.0 1
1062.2495 374.91162 2570.0 1
1080.9778 372.1399 2551.0 1
1099.3099 369.36816 2532.0 1
1109.6882 364.1165 2496.0 1
1127.5066 361.49066 2478.0 1
1161.705 364.1165 2496.0 1
1179.1481 361.49066 2478.0 1
1213.7216 364.1165 2496.0 1
1070.1027 350.70593 2589.0 1
1080.9778 345.55844 2551.0 1
1091.495 340.54642 2514.0 1
1109.6882 338.10815 2496.0 1
1135.6967 338.10815 2496.0 1
1153.3273 335.66986 2478.0 1
1179.1481 335.66986 2478.0 1
1240.4662 345.55844 2551.0 1
1059.2417 328.73016 2629.0 1
1078.3693 326.22937 2609.0 1
1089.0289 321.3528 2570.0 1
1099.3099 316.6013 2532.0 1
1109.6882 312.09985 2496.0 1
1127.5066 309.84912 2478.0 1
1161.705 312.09985 2496.0 1
1196.2786 314.35056 2514.0 1
1249.7053 321.3528 2570.0 1
1285.9216 323.72858 2589.0 1
1062.2495 294.57336 2570.0 1
1089.0289 294.57336 2570.0 1
1107.5592 292.3956 2551.0 1
1109.6882 286.0915 2496.0 1
1135.6967 286.0915 2496.0 1
1161.705 286.0915 2496.0 1
1196.2786 288.15466 2514.0 1
1249.7053 294.57336 2570.0 1
1094.9023 276.0258 2649.0 1
1097.0802 269.7738 2589.0 1
1107.5592 265.8142 2551.0 1
1117.6908 261.9588 2514.0 1
1135.6967 260.0832 2496.0 1
1161.705 260.0832 2496.0 1
1204.8438 263.83438 2532.0 1
1268.6697 271.8578 2609.0 1
1048.787 264.6472 2822.0 1
1078.1921 264.6472 2822.0 1
1080.9082 258.27014 2754.0 1
1109.605 258.27014 2754.0 1
1129.6217 256.30075 2733.0 1
1122.505 248.42325 2649.0 1
1107.5592 239.2328 2551.0 1
1125.6934 237.45097 2532.0 1
1143.8867 235.76294 2514.0 1
1170.0826 235.76294 2514.0 1
1260.5178 248.42325 2649.0 1
1288.1204 248.42325 2649.0 1
1040.2391 233.32462 2799.0 1
1060.9991 231.4907 2777.0 1
1080.9082 229.57343 2754.0 1
1101.1439 227.82286 2733.0 1
1120.5286 225.98894 2711.0 1
1130.9799 222.48782 2669.0 1
1132.7408 217.48622 2609.0 1
1142.5876 214.23518 2570.0 1
1169.3672 214.23518 2570.0 1
1204.9896 215.81903 2589.0 1
1251.001 219.15343 2629.0 1
1278.395 219.15343 2629.0 1
1019.3816 205.83669 2822.0 1
1040.2391 204.15907 2799.0 1
1052.2115 200.87677 2754.0 1
1072.666 199.34503 2733.0 1
1092.28 197.74036 2711.0 1
1103.1688 194.67686 2669.0 1
1130.9799 194.67686 2669.0 1
1150.1074 193.21806 2649.0 1
1168.8182 191.75926 2629.0 1
1196.2125 191.75926 2629.0 1
1223.6067 191.75926 2629.0 1
1251.001 191.75926 2629.0 1
1278.395 191.75926 2629.0 1
1014.8837 180.87033 2893.0 1
1019.3816 176.43141 2822.0 1
1040.2391 174.99345 2799.0 1
1052.2115 172.18005 2754.0 1
1072.666 170.86713 2733.0 1
1092.28 169.49168 2711.0 1
1111.8486 168.17877 2690.0 1
1130.9799 166.86584 2669.0 1
1150.1074 165.61545 2649.0 1
1177.71 165.61545 2649.0 1
1196.2125 164.36505 2629.0 1
1214.2981 163.11465 2609.0 1
1231.967 161.86426 2589.0 1
1268.6697 163.11465 2609.0 1
1295.8555 163.11465 2609.0 1
1303.2642 160.67638 2570.0 1
1330.0435 160.67638 2570.0 1
1356.823 160.67638 2570.0 1
1014.8837 150.7253 2893.0 1
1019.3816 147.0262 2822.0 1
1040.2391 145.8279 2799.0 1
1044.1882 142.3893 2733.0 1
1072.666 142.3893 2733.0 1
1083.819 140.149 2690.0 1
1103.1688 139.0549 2669.0 1
1122.505 138.0129 2649.0 1
1150.1074 138.0129 2649.0 1
1168.8182 136.9709 2629.0 1
1187.1124 135.9289 2609.0 1
1214.2981 135.9289 2609.0 1
1231.967 134.8869 2589.0 1
1258.9443 134.8869 2589.0 1
1285.9216 134.8869 2589.0 1
1303.2642 133.897 2570.0 1
1330.0435 133.897 2570.0 1
1356.823 133.897 2570.0 1
992.90784 121.58059 2917.0 1
1014.8837 120.58027 2893.0 1
1019.3816 117.62099 2822.0 1
1040.2391 116.662346 2799.0 1
1044.1882 113.91147 2733.0 1
1072.666 113.91147 2733.0 1
1083.819 112.119225 2690.0 1
1111.8486 112.119225 2690.0 1
1122.505 110.41035 2649.0 1
1141.4242 109.576744 2629.0 1
1168.8182 109.576744 2629.0 1
1187.1124 108.74314 2609.0 1
1214.2981 108.74314 2609.0 1
1231.967 107.909546 2589.0 1
1258.9443 107.909546 2589.0 1
1295.8555 108.74314 2609.0 1
1312.8992 107.909546 2589.0 1
1330.0435 107.11762 2570.0 1
1346.792 106.32571 2551.0 1
1383.6023 107.11762 2570.0 1
992.90784 91.1854 2917.0 1
1014.8837 90.435165 2893.0 1
1019.3816 88.215706 2822.0 1
1032.0629 86.809006 2777.0 1
1044.1882 85.43356 2733.0 1
1064.0312 84.74584 2711.0 1
1083.819 84.089386 2690.0 1
1103.1688 83.43292 2669.0 1
1122.505 82.807724 2649.0 1
1141.4242 82.182526 2629.0 1
1168.8182 82.182526 2629.0 1
1187.1124 81.55733 2609.0 1
1204.9896 80.93213 2589.0 1
1231.967 80.93213 2589.0 1
1268.6697 81.55733 2609.0 1
1285.9216 80.93213 2589.0 1
1323.0413 81.55733 2609.0 1
1330.0435 80.33819 2570.0 1
1356.823 80.33819 2570.0 1
1383.6023 80.33819 2570.0 1
1001.4175 61.311295 2942.0 1
1023.30304 60.790295 2917.0 1
1045.0287 60.290134 2893.0 1
1040.2391 58.331173 2799.0 1
1044.1882 56.955734 2733.0 1
1055.7891 56.059612 2690.0 1
1083.819 56.059612 2690.0 1
1094.9023 55.205173 2649.0 1
1122.505 55.205173 2649.0 1
1141.4242 54.788372 2629.0 1
1159.9265 54.37157 2609.0 1
1187.1124 54.37157 2609.0 1
1204.9896 53.954773 2589.0 1
1222.926 53.55881 2570.0 1
1268.6697 54.37157 2609.0 1
1285.9216 53.954773 2589.0 1
1312.8992 53.954773 2589.0 1
1339.8765 53.954773 2589.0 1
1356.823 53.55881 2570.0 1
1383.6023 53.55881 2570.0 1
1018.7772 31.187029 2993.0 1
1032.0732 30.655611 2942.0 1
1053.6981 30.395111 2917.0 1
1040.2391 29.165552 2799.0 1
1035.7827 28.248592 2711.0 1
1055.7891 28.029772 2690.0 1
1083.819 28.029772 2690.0 1
1103.1688 27.810953 2669.0 1
1122.505 27.602552 2649.0 1
1141.4242 27.394154 2629.0 1
1159.9265 27.185753 2609.0 1
1178.0123 26.977354 2589.0 1
1204.9896 26.977354 2589.0 1
1222.926 26.779373 2570.0 1
1268.6697 27.185753 2609.0 1
1285.9216 26.977354 2589.0 1
1312.8992 26.977354 2589.0 1
1339.8765 26.977354 2589.0 1
1366.854 26.977354 2589.0 1
1383.6023 26.779373 2570.0 1
996.1694 0.0 3019.0 1
1018.7772 0.0 2993.0 1
1040.8434 0.0 2967.0 1
1045.0287 0.0 2893.0 1
1040.2391 0.0 2799.0 1
1044.1882 0.0 2733.0 1
1064.0312 0.0 2711.0 1
1083.819 0.0 2690.0 1
1103.1688 0.0 2669.0 1
1122.505 0.0 2649.0 1
1141.4242 0.0 2629.0 1
1159.9265 0.0 2609.0 1
1178.0123 0.0 2589.0 1
1214.2981 0.0 2609.0 1
1231.967 0.0 2589.0 1
1258.9443 0.0 2589.0 1
1305.7892 0.0 2629.0 1
1312.8992 0.0 2589.0 1
1339.8765 0.0 2589.0 1
1366.854 0.0 2589.0 1
1383.6023 0.0 2570.0 1
973.33923 -31.739288 3046.0 1
996.1694 -31.457949 3019.0 1
1018.7772 -31.187029 2993.0 1
1049.9644 -31.187029 2993.0 1
1053.6981 -30.395111 2917.0 1
1040.2391 -29.165552 2799.0 1
1052.2115 -28.696651 2754.0 1
1064.0312 -28.248592 2711.0 1
1092.28 -28.248592 2711.0 1
1111.8486 -28.029772 2690.0 1
1122.505 -27.602552 2649.0 1
1150.1074 -27.602552 2649.0 1
1168.8182 -27.394154 2629.0 1
1196.2125 -27.394154 2629.0 1
1214.2981 -27.185753 2609.0 1
1241.484 -27.185753 2609.0 1
1288.1204 -27.602552 2649.0 1
1315.7229 -27.602552 2649.0 1
1312.8992 -26.977354 2589.0 1
1339.8765 -26.977354 2589.0 1
1366.854 -26.977354 2589.0 1
1373.3733 -26.581394 2551.0 1
964.7114 -62.915897 3019.0 1
996.1694 -62.915897 3019.0 1
1018.7772 -62.374058 2993.0 1
1049.9644 -62.374058 2993.0 1
1045.0287 -60.290062 2893.0 1
1048.787 -58.81042 2822.0 1
1052.2115 -57.393303 2754.0 1
1064.0312 -56.497185 2711.0 1
1083.819 -56.059544 2690.0 1
1111.8486 -56.059544 2690.0 1
1130.9799 -55.621906 2669.0 1
1150.1074 -55.205105 2649.0 1
1168.8182 -54.788307 2629.0 1
1196.2125 -54.788307 2629.0 1
1223.6067 -54.788307 2629.0 1
1251.001 -54.788307 2629.0 1
1288.1204 -55.205105 2649.0 1
1325.6566 -55.621906 2669.0 1
1343.3256 -55.205105 2649.0 1
1350.227 -54.371506 2609.0 1
1366.854 -53.95471 2589.0 1
933.25336 -94.374 3019.0 1
964.7114 -94.374 3019.0 1
987.5902 -93.56124 2993.0 1
1018.7772 -93.56124 2993.0 1
1059.0853 -94.374 3019.0 1
1036.3593 -89.685 2869.0 1
1040.2391 -87.496796 2799.0 1
1052.2115 -86.090096 2754.0 1
1064.0312 -84.74591 2711.0 1
1092.28 -84.74591 2711.0 1
1103.1688 -83.43299 2669.0 1
1122.505 -82.80779 2649.0 1
1150.1074 -82.80779 2649.0 1
1177.71 -82.80779 2649.0 1
1196.2125 -82.182594 2629.0 1
1232.9152 -82.80779 2649.0 1
1260.5178 -82.80779 2649.0 1
1318.2689 -84.74591 2711.0 1
1336.087 -84.089455 2690.0 1
1343.3256 -82.80779 2649.0 1
1360.5775 -82.182594 2629.0 1
1398.5308 -82.80779 2649.0 1
933.25336 -125.83195 3019.0 1
964.7114 -125.83195 3019.0 1
987.5902 -124.74827 2993.0 1
1009.9271 -123.66459 2967.0 1
1036.3593 -119.57995 2869.0 1
1040.2391 -116.662346 2799.0 1
1044.1882 -113.91147 2733.0 1
1064.0312 -112.99451 2711.0 1
1092.28 -112.99451 2711.0 1
1111.8486 -112.119225 2690.0 1
1139.8785 -112.119225 2690.0 1
1158.7908 -111.24394 2669.0 1
1186.6017 -111.24394 2669.0 1
1205.3126 -110.41035 2649.0 1
1232.9152 -110.41035 2649.0 1
1270.0348 -111.24394 2669.0 1
1318.2689 -112.99451 2711.0 1
1336.087 -112.119225 2690.0 1
1343.3256 -110.41035 2649.0 1
1370.9281 -110.41035 2649.0 1
1387.9718 -109.576744 2629.0 1
933.25336 -157.2899 3019.0 1
964.7114 -157.2899 3019.0 1
996.1694 -157.2899 3019.0 1
1027.6898 -148.2245 2845.0 1
1040.2391 -145.8279 2799.0 1
1060.9991 -144.6817 2777.0 1
1072.666 -142.3893 2733.0 1
1101.1439 -142.3893 2733.0 1
1120.5286 -141.2431 2711.0 1
1139.8785 -140.149 2690.0 1
1167.9083 -140.149 2690.0 1
1195.938 -140.149 2690.0 1
1214.4128 -139.0549 2669.0 1
1232.9152 -138.0129 2649.0 1
1280.0276 -140.149 2690.0 1
1328.9668 -142.3893 2733.0 1
1325.6566 -139.0549 2669.0 1
1343.3256 -138.0129 2649.0 1
1370.9281 -138.0129 2649.0 1
1377.4128 -135.9289 2609.0 1
917.9256 -192.12393 3073.0 1
933.25336 -188.74785 3019.0 1
956.40326 -187.12233 2993.0 1
1032.0732 -183.9338 2942.0 1
1036.3593 -179.36984 2869.0 1
1040.2391 -174.99345 2799.0 1
1052.2115 -172.18005 2754.0 1
1072.666 -170.86713 2733.0 1
1101.1439 -170.86713 2733.0 1
1120.5286 -169.49168 2711.0 1
1139.8785 -168.17877 2690.0 1
1167.9083 -168.17877 2690.0 1
1205.2744 -169.49168 2711.0 1
1223.9679 -168.17877 2690.0 1
1261.7716 -169.49168 2711.0 1
1290.0204 -169.49168 2711.0 1
1343.3256 -165.61545 2649.0 1
1370.9281 -165.61545 2649.0 1
1366.854 -161.86426 2589.0 1
917.9256 -224.14456 3073.0 1
925.21606 -218.30936 2993.0 1
1023.30304 -212.76591 2917.0 1
1045.0287 -211.01537 2893.0 1
1040.2391 -204.159 2799.0 1
1069.4045 -204.159 2799.0 1
1080.9082 -200.87671 2754.0 1
1109.605 -200.87671 2754.0 1
1120.5286 -197.74028 2711.0 1
1148.7772 -197.74028 2711.0 1
1177.0258 -197.74028 2711.0 1
1205.2744 -197.74028 2711.0 1
1223.9679 -196.20854 2690.0 1
1261.7716 -197.74028 2711.0 1
1290.0204 -197.74028 2711.0 1
1318.2689 -197.74028 2711.0 1
1346.5175 -197.74028 2711.0 1
1353.4677 -194.6768 2669.0 1
1370.9281 -193.218 2649.0 1
1377.4128 -190.3004 2609.0 1
878.1211 -253.91461 3046.0 1
901.7955 -251.6639 3019.0 1
925.21606 -249.49654 2993.0 1
1023.30304 -243.16118 2917.0 1
1045.0287 -241.16054 2893.0 1
1057.3348 -237.15926 2845.0 1
1069.4045 -233.32469 2799.0 1
1089.9354 -231.49077 2777.0 1
1101.1439 -227.82294 2733.0 1
1129.6217 -227.82294 2733.0 1
1148.7772 -225.98901 2711.0 1
1167.9083 -224.23845 2690.0 1
1205.2744 -225.98901 2711.0 1
1243.5332 -227.82294 2733.0 1
1272.011 -227.82294 2733.0 1
1300.489 -227.82294 2733.0 1
1372.2445 -235.24197 2822.0 1
1336.087 -224.23845 2690.0 1
1364.117 -224.23845 2690.0 1
1381.2786 -222.48788 2669.0 1
1387.9718 -219.15349 2629.0 1
878.1211 -285.6539 3046.0 1
901.7955 -283.12186 3019.0 1
925.21606 -280.68356 2993.0 1
1023.30304 -273.55627 2917.0 1
1053.6981 -273.55627 2917.0 1
1066.2544 -269.05484 2869.0 1
1069.4045 -262.49023 2799.0 1
1089.9354 -260.4271 2777.0 1
1118.8718 -260.4271 2777.0 1
1138.3016 -258.27014 2754.0 1
1158.0997 -256.30075 2733.0 1
1167.9083 -252.26822 2690.0 1
1205.2744 -254.23761 2711.0 1
1243.5332 -256.30075 2733.0 1
1272.011 -256.30075 2733.0 1
1300.489 -256.30075 2733.0 1
1328.9668 -256.30075 2733.0 1
1336.087 -252.26822 2690.0 1
1353.4677 -250.29884 2669.0 1
1370.9281 -248.42325 2649.0 1
1377.4128 -244.67204 2609.0 1
870.33734 -314.5798 3019.0 1
901.7955 -314.5798 3019.0 1
917.1788 -309.1614 2967.0 1
1001.4175 -306.5564 2942.0 1
1023.30304 -303.9514 2917.0 1
1045.0287 -301.4506 2893.0 1
1057.3348 -296.449 2845.0 1
1078.1921 -294.0524 2822.0 1
1098.5701 -291.6558 2799.0 1
1127.7357 -291.6558 2799.0 1
1147.8081 -289.3634 2777.0 1
1166.9984 -286.9668 2754.0 1
1186.5775 -284.7786 2733.0 1
1215.0553 -284.7786 2733.0 1
1243.5332 -284.7786 2733.0 1
1272.011 -284.7786 2733.0 1
1300.489 -284.7786 2733.0 1
1328.9668 -284.7786 2733.0 1
1325.6566 -278.1098 2669.0 1
1353.4677 -278.1098 2669.0 1
1370.9281 -276.0258 2649.0 1
861.6645 -355.43658 3101.0 1
878.1211 -349.13248 3046.0 1
901.7955 -346.03775 3019.0 1
925.21606 -343.05762 2993.0 1
1018.7772 -343.05762 2993.0 1
1023.30304 -334.3465 2917.0 1
1045.0287 -331.5956 2893.0 1
1057.3348 -326.09387 2845.0 1
1078.1921 -323.4576 2822.0 1
1098.5701 -320.82135 2799.0 1
1127.7357 -320.82135 2799.0 1
1138.3016 -315.66345 2754.0 1
1176.7445 -318.2997 2777.0 1
1195.695 -315.66345 2754.0 1
1215.0553 -313.25644 2733.0 1
1243.5332 -313.25644 2733.0 1
1272.011 -313.25644 2733.0 1
1300.489 -313.25644 2733.0 1
1308.0573 -308.32776 2690.0 1
1325.6566 -305.92075 2669.0 1
1353.4677 -305.92075 2669.0 1
1370.9281 -303.62836 2649.0 1
878.1211 -380.87177 3046.0 1
901.7955 -377.4957 3019.0 1
901.7224 -364.7416 2917.0 1
1009.9271 -370.99362 2967.0 1
1023.30304 -364.7416 2917.0 1
1045.0287 -361.74066 2893.0 1
1066.2544 -358.7397 2869.0 1
1078.1921 -352.86282 2822.0 1
1098.5701 -349.9869 2799.0 1
1127.7357 -349.9869 2799.0 1
1147.8081 -347.23602 2777.0 1
1166.9984 -344.3601 2754.0 1
1195.695 -344.3601 2754.0 1
1215.0553 -341.73425 2733.0 1
1243.5332 -341.73425 2733.0 1
1272.011 -341.73425 2733.0 1
1310.4818 -344.3601 2754.0 1
1308.0573 -336.35754 2690.0 1
1325.6566 -333.7317 2669.0 1
1353.4677 -333.7317 2669.0 1
1392.1467 -336.35754 2690.0 1
1018.7772 -405.43182 2993.0 1
1032.0732 -398.52338 2942.0 1
1053.6981 -395.13687 2917.0 1
1066.2544 -388.6348 2869.0 1
1078.1921 -382.26816 2822.0 1
1098.5701 -379.1526 2799.0 1
1127.7357 -379.1526 2799.0 1
1147.8081 -376.17245 2777.0 1
1166.9984 -373.0569 2754.0 1
1186.5775 -370.21222 2733.0 1
1215.0553 -370.21222 2733.0 1
1243.5332 -370.21222 2733.0 1
1272.011 -370.21222 2733.0 1
1300.489 -370.21222 2733.0 1
1308.0573 -364.38745 2690.0 1
1325.6566 -361.5428 2669.0 1
1353.4677 -361.5428 2669.0 1
1005.0784 -444.3505 3046.0 1
1018.7772 -436.61887 2993.0 1
1032.0732 -429.179 2942.0 1
1053.6981 -425.53198 2917.0 1
1075.1738 -422.03085 2893.0 1
1105.3188 -422.03085 2893.0 1
1107.5973 -411.67337 2822.0 1
1127.7357 -408.31815 2799.0 1
1147.8081 -405.1088 2777.0 1
1166.9984 -401.75354 2754.0 1
1186.5775 -398.69006 2733.0 1
1215.0553 -398.69006 2733.0 1
1233.5231 -395.4807 2711.0 1
1261.7716 -395.4807 2711.0 1
1310.4818 -401.75354 2754.0 1
1308.0573 -392.4172 2690.0 1
1336.087 -392.4172 2690.0 1
1343.3256 -386.43613 2649.0 1
1018.7772 -467.80588 2993.0 1
1040.8434 -463.7421 2967.0 1
1062.7288 -459.8346 2942.0 1
1084.0934 -455.9271 2917.0 1
1114.4884 -455.9271 2917.0 1
1135.4639 -452.1759 2893.0 1
1127.7357 -437.4837 2799.0 1
1147.8081 -434.0451 2777.0 1
1166.9984 -430.4502 2754.0 1
1186.5775 -427.16788 2733.0 1
1215.0553 -427.16788 2733.0 1
1243.5332 -427.16788 2733.0 1
1261.7716 -423.72928 2711.0 1
1300.489 -427.16788 2733.0 1
1318.2689 -423.72928 2711.0 1
1325.6566 -417.1647 2669.0 1
1343.3256 -414.0387 2649.0 1
1027.6272 -503.32764 3019.0 1
1049.9644 -498.99292 2993.0 1
1071.7595 -494.6582 2967.0 1
1102.6757 -494.6582 2967.0 1
1114.4884 -486.3222 2917.0 1
1144.8835 -486.3222 2917.0 1
1146.2695 -474.31836 2845.0 1
1147.8081 -462.9814 2777.0 1
1166.9984 -459.14685 2754.0 1
1186.5775 -455.64572 2733.0 1
1215.0553 -455.64572 2733.0 1
1243.5332 -455.64572 2733.0 1
1261.7716 -451.97787 2711.0 1
1290.0204 -451.97787 2711.0 1
1308.0573 -448.47678 2690.0 1
1336.087 -448.47678 2690.0 1
1353.4677 -444.97565 2669.0 1
1036.8176 -539.56836 3046.0 1
1049.9644 -530.17993 2993.0 1
1062.7288 -521.1458 2942.0 1
1093.3845 -521.1458 2942.0 1
1124.0402 -521.1458 2942.0 1
1154.6957 -521.1458 2942.0 1
1146.2695 -503.96323 2845.0 1
1156.9012 -495.8148 2799.0 1
1166.9984 -487.8435 2754.0 1
1186.5775 -484.12357 2733.0 1
1215.0553 -484.12357 2733.0 1
1233.5231 -480.22647 2711.0 1
1261.7716 -480.22647 2711.0 1
1280.0276 -476.50653 2690.0 1
1297.8457 -472.7866 2669.0 1
1336.087 -476.50653 2690.0 1
1374.7662 -480.22647 2711.0 1
1027.6272 -566.2437 3019.0 1
1049.9644 -561.3671 2993.0 1
1081.1514 -561.3671 2993.0 1
1093.3845 -551.8016 2942.0 1
1124.0402 -551.8016 2942.0 1
1174.7125 -561.3671 2993.0 1
1156.9012 -524.98047 2799.0 1
1176.7445 -520.8542 2777.0 1
1195.695 -516.5403 2754.0 1
1215.0553 -512.6015 2733.0 1
1243.5332 -512.6015 2733.0 1
1251.9977 -504.53644 2690.0 1
1280.0276 -504.53644 2690.0 1
1297.8457 -500.5977 2669.0 1
1325.6566 -500.5977 2669.0 1
1353.4677 -500.5977 2669.0 1
1036.8176 -603.0471 3046.0 1
1059.0853 -597.70166 3019.0 1
1081.1514 -592.55414 2993.0 1
1112.3385 -592.55414 2993.0 1
1143.5255 -592.55414 2993.0 1
1184.9171 -597.70166 3019.0 1
1175.9143 -563.2531 2845.0 1
1176.7445 -549.79047 2777.0 1
1195.695 -545.23694 2754.0 1
1224.3916 -545.23694 2754.0 1
1243.5332 -541.07935 2733.0 1
1261.7716 -536.7238 2711.0 1
1270.0348 -528.4086 2669.0 1
1308.0573 -532.5662 2690.0 1
1336.087 -532.5662 2690.0 1
1046.0082 -640.4132 3073.0 1
1049.9644 -623.7412 2993.0 1
1090.5432 -629.1596 3019.0 1
1112.3385 -623.7412 2993.0 1
1153.4592 -629.1596 3019.0 1
1175.9143 -592.898 2845.0 1
1186.067 -583.3116 2799.0 1
1195.695 -573.9336 2754.0 1
1224.3916 -573.9336 2754.0 1
1233.5231 -564.9724 2711.0 1
1272.011 -569.5572 2733.0 1
1280.0276 -560.596 2690.0 1
1308.0573 -560.596 2690.0 1
1325.6566 -556.2196 2669.0 1
1055.539 -678.5608 3101.0 1
1059.0853 -660.61755 3019.0 1
1090.5432 -660.61755 3019.0 1
1122.0013 -660.61755 3019.0 1
1163.775 -666.5257 3046.0 1
1166.4078 -617.51 2822.0 1
1186.067 -612.4771 2799.0 1
1205.6808 -607.6631 2777.0 1
1215.0553 -598.03503 2733.0 1
1243.5332 -598.03503 2733.0 1
1272.011 -598.03503 2733.0 1
1300.489 -598.03503 2733.0 1
1297.8457 -584.0305 2669.0 1
1046.0082 -704.45447 3073.0 1
1068.5571 -698.26495 3046.0 1
1100.2964 -698.26495 3046.0 1
1142.0703 -704.45447 3073.0 1
1184.7887 -710.87317 3101.0 1
1156.9012 -641.6427 2799.0 1
1186.067 -641.6427 2799.0 1
1205.6808 -636.5994 2777.0 1
1224.3916 -631.3269 2754.0 1
1243.5332 -626.5129 2733.0 1
1272.011 -626.5129 2733.0 1
1055.539 -743.1857 3101.0 1
1087.8514 -743.1857 3101.0 1
1120.1638 -743.1857 3101.0 1
1152.4763 -743.1857 3101.0 1
1184.7887 -743.1857 3101.0 1
1156.9012 -670.8084 2799.0 1
1195.8131 -676.32056 2822.0 1
1205.6808 -665.5359 2777.0 1
1224.3916 -660.0237 2754.0 1
1253.0884 -660.0237 2754.0 1
1281.785 -660.0237 2754.0 1
1084.4718 -796.7549 3186.0 1
1097.6741 -782.50037 3129.0 1
1120.1638 -775.4981 3101.0 1
1152.4763 -775.4981 3101.0 1
1195.4866 -782.50037 3129.0 1
1186.067 -699.97394 2799.0 1
1205.6808 -694.47217 2777.0 1
1224.3916 -688.72034 2754.0 1
1243.5332 -683.4686 2733.0 1
1272.011 -683.4686 2733.0 1
1270.0348 -667.46356 2669.0 1
1074.6006 -822.3985 3157.0 1
1097.6741 -815.1045 3129.0 1
1130.2782 -815.1045 3129.0 1
1162.8824 -815.1045 3129.0 1
1195.4866 -815.1045 3129.0 1
1175.9143 -741.1225 2845.0 1
1195.8131 -735.131 2822.0 1
1215.2324 -729.13947 2799.0 1
1224.3916 -717.417 2754.0 1
1243.5332 -711.9465 2733.0 1
1292.4897 -723.4085 2777.0 1
1321.4263 -723.4085 2777.0 1
1107.4967 -855.2944 3157.0 1
1130.2782 -847.7086 3129.0 1
1162.8824 -847.7086 3129.0 1
1195.4866 -847.7086 3129.0 1
1195.8131 -764.5362 2822.0 1
1215.2324 -758.30505 2799.0 1
1244.398 -758.30505 2799.0 1
1263.5535 -752.3448 2777.0 1
1302.7291 -758.30505 2799.0 1
1321.4263 -752.3448 2777.0 1
1138.7185 -913.22955 3246.0 1
1150.868 -896.3492 3186.0 1
1173.2886 -888.1903 3157.0 1
1217.2644 -896.3492 3186.0 1
1205.5593 -800.41223 2845.0 1
1225.2183 -793.9414 2822.0 1
1234.6171 -781.2811 2777.0 1
1263.5535 -781.2811 2777.0 1
1302.7291 -787.4706 2799.0 1
1310.4818 -774.8103 2754.0 1
1128.1942 -938.30023 3216.0 1
1150.868 -929.5474 3186.0 1
1173.2886 -921.08636 3157.0 1
1217.2644 -929.5474 3186.0 1
1195.8131 -823.34674 2822.0 1
1235.2041 -830.05725 2845.0 1
1244.398 -816.6363 2799.0 1
1263.5535 -810.2176 2777.0 1
1292.4897 -810.2176 2777.0 1
1321.4263 -810.2176 2777.0 1
1104.895 -980.8763 3246.0 1
1128.1942 -971.8109 3216.0 1
1161.705 -971.8109 3216.0 1
1195.2157 -971.8109 3216.0 1
1228.7263 -971.8109 3216.0 1
1256.0442 -874.2067 2893.0 1
1264.849 -859.7021 2845.0 1
1273.5637 -845.8018 2799.0 1
1302.7291 -845.8018 2799.0 1
1310.4818 -832.20374 2754.0 1
1126.3394 -1034.3934 3309.0 1
1128.1942 -1005.3216 3216.0 1
1161.705 -1005.3216 3216.0 1
1195.2157 -1005.3216 3216.0 1
1240.1884 -1014.6996 3246.0 1
1236.0691 -911.8542 2917.0 1
1266.4641 -911.8542 2917.0 1
1275.519 -896.84937 2869.0 1
1284.0288 -882.15717 2822.0 1
1313.434 -882.15717 2822.0 1
1353.7838 -889.347 2845.0 1
1115.447 -1058.5365 3277.0 1
1128.1942 -1038.8323 3216.0 1
1161.705 -1038.8323 3216.0 1
1195.2157 -1038.8323 3216.0 1
1264.2585 -1068.8732 3309.0 1
1225.8992 -934.4968 2893.0 1
1266.4641 -942.24927 2917.0 1
1286.1891 -934.4968 2893.0 1
1294.494 -918.9919 2845.0 1
1313.434 -911.5624 2822.0 1
1342.8394 -911.5624 2822.0 1
1138.7185 -1082.3462 3246.0 1
1172.5417 -1082.3462 3246.0 1
1206.3651 -1082.3462 3246.0 1
1288.1725 -989.3164 2967.0 1
1286.1891 -964.64185 2893.0 1
1294.494 -948.6367 2845.0 1
1335.3091 -956.6393 2869.0 1
1331.8949 -933.29846 2799.0 1
1290.7324 -1047.3976 3046.0 1
1288.1725 -1020.23267 2967.0 1
1286.1891 -994.78705 2893.0 1
1316.3344 -994.78705 2893.0 1
1335.3091 -986.53436 2869.0 1
1365.2041 -986.53436 2869.0 1
1290.7324 -1079.1368 3046.0 1
1277.3184 -1042.2917 2942.0 1
1296.8593 -1033.4348 2917.0 1
1316.3344 -1024.932 2893.0 1
1346.4792 -1024.932 2893.0 1
1388.0448 -1033.4348 2917.0 1
1279.2913 -1101.0293 3019.0 1
1277.3184 -1072.9474 2942.0 1
1296.8593 -1063.8298 2917.0 1
1316.3344 -1055.077 2893.0 1
1346.4792 -1055.077 2893.0 1
1436.5812 -1101.0293 3019.0 1
1279.2913 -1132.4872 3019.0 1
1288.1725 -1112.981 2967.0 1
1296.8593 -1094.225 2917.0 1
1327.2545 -1094.225 2917.0 1
1357.6495 -1094.225 2917.0 1
1399.9409 -1103.603 2942.0 1
1290.7324 -1174.3547 3046.0 1
1288.1725 -1143.8971 2967.0 1
1286.1891 -1115.3672 2893.0 1
1316.3344 -1115.3672 2893.0 1
1346.4792 -1115.3672 2893.0 1
1399.9409 -1134.2585 2942.0 1
1266.4641 -1155.0154 2917.0 1
1296.8593 -1155.0154 2917.0 1
1305.4142 -1136.0093 2869.0 1
1346.4792 -1145.5123 2893.0 1
1388.0448 -1155.0154 2917.0 1
1455.3961 -1185.1083 2993.0 1
1256.0442 -1175.6573 2893.0 1
1286.1891 -1175.6573 2893.0 1
1294.494 -1156.1511 2845.0 1
1324.1388 -1156.1511 2845.0 1
1376.6245 -1175.6573 2893.0 1
