ply
format ascii 1.0
comment : created from Kinect user tracker
element vertex 964
property float x
property float y
property float z
property int userId
end_header
157.2968 287.23773 1969.0 1
95.74588 266.72073 1969.0 1
115.61343 265.23065 1958.0 1
134.48746 262.25055 1936.0 1
152.98291 259.40588 1915.0 1
175.8271 263.7406 1947.0 1
196.11479 263.7406 1947.0 1
73.54786 240.70201 1925.0 1
93.12004 239.4516 1915.0 1
113.07442 239.4516 1915.0 1
131.56987 236.82576 1894.0 1
151.3053 236.82576 1894.0 1
170.04747 235.45033 1883.0 1
192.89154 239.4516 1915.0 1
213.95738 240.70201 1925.0 1
234.01582 240.70201 1925.0 1
73.165794 219.49728 1915.0 1
91.56399 215.82944 1883.0 1
110.59445 214.68324 1873.0 1
130.80573 215.82944 1883.0 1
149.62767 214.68324 1873.0 1
169.14441 214.68324 1873.0 1
189.66829 215.82944 1883.0 1
209.28922 215.82944 1883.0 1
234.01582 220.64348 1925.0 1
255.52612 221.9043 1936.0 1
53.794933 201.7312 1936.0 1
72.745514 198.39679 1904.0 1
91.56399 196.2086 1883.0 1
111.18492 196.2086 1883.0 1
130.80573 196.2086 1883.0 1
150.42654 196.2086 1883.0 1
169.14441 195.1666 1873.0 1
187.65375 194.1246 1863.0 1
208.17775 195.1666 1873.0 1
231.46294 198.39679 1904.0 1
254.07428 200.58499 1925.0 1
277.2658 202.8774 1947.0 1
53.48928 180.52652 1925.0 1
72.745514 178.55713 1904.0 1
92.585144 178.55713 1904.0 1
111.834435 177.61934 1894.0 1
130.80573 176.58775 1883.0 1
150.42654 176.58775 1883.0 1
169.14441 175.64995 1873.0 1
187.65375 174.71216 1863.0 1
209.28922 176.58775 1883.0 1
227.69437 175.64995 1873.0 1
251.30255 178.55713 1904.0 1
277.2658 182.58968 1947.0 1
34.003933 163.21887 1958.0 1
53.48928 160.46799 1925.0 1
73.165794 159.63438 1915.0 1
93.12004 159.63438 1915.0 1
111.834435 157.88383 1894.0 1
130.80573 156.96687 1883.0 1
149.62767 156.13327 1873.0 1
169.14441 156.13327 1873.0 1
189.66829 156.96687 1883.0 1
210.51183 157.88383 1894.0 1
230.24727 157.88383 1894.0 1
258.42984 163.21887 1958.0 1
34.003933 142.81653 1958.0 1
53.48928 140.4095 1925.0 1
73.54786 140.4095 1925.0 1
93.60631 140.4095 1925.0 1
112.424904 138.87776 1904.0 1
130.80573 137.34602 1883.0 1
150.42654 137.34602 1883.0 1
170.04747 137.34602 1883.0 1
189.66829 137.34602 1883.0 1
211.6233 138.87776 1904.0 1
239.36476 143.61887 1969.0 1
264.36923 146.09883 2003.0 1
285.24057 146.09883 2003.0 1
34.194965 123.10186 1969.0 1
53.794933 121.0387 1936.0 1
73.54786 120.350975 1925.0 1
93.60631 120.350975 1925.0 1
113.07442 119.72578 1915.0 1
130.80573 117.725136 1883.0 1
151.3053 118.41286 1894.0 1
170.04747 117.725136 1883.0 1
190.77628 118.41286 1894.0 1
212.84592 119.72578 1915.0 1
242.1608 124.53982 1992.0 1
264.36923 125.22754 2003.0 1
285.24057 125.22754 2003.0 1
34.78543 104.3563 2003.0 1
55.65664 104.3563 2003.0 1
75.64922 103.158 1980.0 1
94.1412 100.8656 1936.0 1
112.424904 99.198395 1904.0 1
132.26453 99.198395 1904.0 1
151.3053 98.6774 1894.0 1
170.04747 98.1043 1883.0 1
192.89154 99.7715 1915.0 1
215.18 100.8656 1936.0 1
247.87444 106.231895 2039.0 1
35.202232 84.48538 2027.0 1
56.65696 84.98554 2039.0 1
76.98646 83.98522 2015.0 1
95.21098 81.60946 1958.0 1
113.66488 80.23402 1925.0 1
133.02867 79.817215 1915.0 1
152.10416 79.358734 1904.0 1
170.04747 78.48346 1883.0 1
192.89154 79.817215 1915.0 1
213.95738 80.23402 1925.0 1
246.41563 84.48538 2027.0 1
36.71313 66.083626 2114.0 1
58.018505 65.27087 2088.0 1
78.82038 64.48937 2063.0 1
97.399185 62.61377 2003.0 1
114.31439 60.51935 1936.0 1
133.02867 59.86289 1915.0 1
152.98291 59.86289 1915.0 1
171.04085 59.20643 1894.0 1
193.8988 60.175488 1925.0 1
212.84592 59.86289 1915.0 1
250.79202 64.48937 2063.0 1
-52.030518 44.59761 2140.0 1
-29.731705 44.59761 2140.0 1
-7.3426547 44.05577 2114.0 1
14.685309 44.05577 2114.0 1
36.487366 43.78485 2101.0 1
58.37973 43.78485 2101.0 1
79.77554 43.51393 2088.0 1
99.73326 42.74285 2051.0 1
116.91245 41.26321 1980.0 1
134.48746 40.34625 1936.0 1
153.78178 40.11701 1925.0 1
172.93729 39.908607 1915.0 1
195.00679 40.34625 1936.0 1
232.0743 43.51393 2088.0 1
255.41156 43.78485 2101.0 1
279.01974 44.05577 2114.0 1
-74.78087 22.434238 2153.0 1
-51.398373 22.027859 2114.0 1
-29.189865 21.892399 2101.0 1
-7.2523475 21.756939 2088.0 1
14.595002 21.892399 2101.0 1
36.487366 21.892399 2101.0 1
58.018505 21.756939 2088.0 1
78.82038 21.496439 2063.0 1
99.73326 21.371399 2051.0 1
118.97909 20.996279 2015.0 1
135.2516 20.28772 1947.0 1
153.78178 20.058481 1925.0 1
174.83372 20.1731 1936.0 1
207.79909 21.496439 2063.0 1
230.74052 21.631899 2076.0 1
252.37239 21.631899 2076.0 1
275.5881 21.756939 2088.0 1
299.19644 21.892399 2101.0 1
325.0623 22.163319 2127.0 1
-97.21514 0.0 2153.0 1
-73.8778 0.0 2127.0 1
-51.0823 0.0 2101.0 1
-29.009253 0.0 2088.0 1
-7.2523475 0.0 2088.0 1
14.504695 0.0 2088.0 1
36.0532 0.0 2076.0 1
57.323837 0.0 2063.0 1
78.82038 0.0 2063.0 1
99.73326 0.0 2051.0 1
120.3962 0.0 2039.0 1
141.64253 0.0 2039.0 1
161.93022 0.0 2027.0 1
184.13531 0.0 2039.0 1
207.79909 0.0 2063.0 1
229.29562 0.0 2063.0 1
252.37239 0.0 2076.0 1
275.5881 0.0 2088.0 1
295.63626 0.0 2076.0 1
321.0888 0.0 2101.0 1
342.9813 0.0 2101.0 1
-96.62814 -22.298779 2140.0 1
-73.8778 -22.163319 2127.0 1
-51.0823 -21.892399 2101.0 1
-29.009253 -21.756939 2088.0 1
-7.2106676 -21.631899 2076.0 1
14.331028 -21.496439 2063.0 1
35.827435 -21.496439 2063.0 1
57.323837 -21.496439 2063.0 1
78.3619 -21.371399 2051.0 1
99.73326 -21.371399 2051.0 1
121.10477 -21.371399 2051.0 1
141.64253 -21.246359 2039.0 1
162.88885 -21.246359 2039.0 1
185.219 -21.371399 2051.0 1
206.59036 -21.371399 2051.0 1
227.96187 -21.371399 2051.0 1
249.33322 -21.371399 2051.0 1
272.28842 -21.496439 2063.0 1
295.63626 -21.631899 2076.0 1
317.26813 -21.631899 2076.0 1
340.8591 -21.756939 2088.0 1
362.616 -21.756939 2088.0 1
-96.62814 -44.597557 2140.0 1
-73.8778 -44.326637 2127.0 1
-51.0823 -43.784798 2101.0 1
-29.009253 -43.513878 2088.0 1
-7.2106676 -43.263798 2076.0 1
14.421335 -43.263798 2076.0 1
35.827435 -42.992878 2063.0 1
57.323837 -42.992878 2063.0 1
78.3619 -42.742798 2051.0 1
99.14974 -42.492718 2039.0 1
120.3962 -42.492718 2039.0 1
141.64253 -42.492718 2039.0 1
163.84749 -42.742798 2051.0 1
184.13531 -42.492718 2039.0 1
206.59036 -42.742798 2051.0 1
227.96187 -42.742798 2051.0 1
249.33322 -42.742798 2051.0 1
272.28842 -42.992878 2063.0 1
295.63626 -43.263798 2076.0 1
317.26813 -43.263798 2076.0 1
340.8591 -43.513878 2088.0 1
362.616 -43.513878 2088.0 1
-97.21514 -67.30282 2153.0 1
-73.42626 -66.08368 2114.0 1
-51.0823 -65.6773 2101.0 1
-29.009253 -65.27092 2088.0 1
-7.165514 -64.48942 2063.0 1
14.421335 -64.8958 2076.0 1
35.827435 -64.48942 2063.0 1
56.9904 -64.114296 2051.0 1
78.3619 -64.114296 2051.0 1
99.14974 -63.739178 2039.0 1
119.687645 -63.36406 2027.0 1
140.80893 -63.36406 2027.0 1
161.93022 -63.36406 2027.0 1
183.05164 -63.36406 2027.0 1
205.38164 -63.739178 2039.0 1
227.96187 -64.114296 2051.0 1
249.33322 -64.114296 2051.0 1
270.7046 -64.114296 2051.0 1
293.78497 -64.48942 2063.0 1
317.26813 -64.8958 2076.0 1
338.90012 -64.8958 2076.0 1
364.87366 -65.6773 2101.0 1
386.76602 -65.6773 2101.0 1
-121.92792 -91.44594 2194.0 1
-97.21514 -89.73706 2153.0 1
-73.8778 -88.65338 2127.0 1
-51.0823 -87.5697 2101.0 1
-28.842531 -86.5277 2076.0 1
-7.1238337 -85.4857 2051.0 1
14.331028 -85.985855 2063.0 1
35.619034 -85.4857 2051.0 1
56.9904 -85.4857 2051.0 1
78.3619 -85.4857 2051.0 1
99.14974 -84.98554 2039.0 1
118.97909 -83.98522 2015.0 1
140.80893 -84.48538 2027.0 1
160.97157 -83.98522 2015.0 1
183.05164 -84.48538 2027.0 1
204.17293 -84.48538 2027.0 1
226.6281 -84.98554 2039.0 1
249.33322 -85.4857 2051.0 1
270.7046 -85.4857 2051.0 1
293.78497 -85.985855 2063.0 1
317.26813 -86.5277 2076.0 1
340.8591 -87.02786 2088.0 1
369.389 -88.65338 2127.0 1
403.88608 -91.44594 2194.0 1
-121.92792 -114.307396 2194.0 1
-97.84728 -112.900696 2167.0 1
-74.32933 -111.493996 2140.0 1
-51.0823 -109.4621 2101.0 1
-29.009253 -108.7848 2088.0 1
-7.165514 -107.4823 2063.0 1
14.331028 -107.4823 2063.0 1
35.619034 -106.8571 2051.0 1
56.65696 -106.231895 2039.0 1
77.90342 -106.231895 2039.0 1
98.56622 -105.6067 2027.0 1
118.97909 -104.9815 2015.0 1
140.80893 -105.6067 2027.0 1
160.97157 -104.9815 2015.0 1
183.05164 -105.6067 2027.0 1
204.17293 -105.6067 2027.0 1
226.6281 -106.231895 2039.0 1
247.87444 -106.231895 2039.0 1
270.7046 -106.8571 2051.0 1
292.07608 -106.8571 2051.0 1
315.28137 -107.4823 2063.0 1
340.8591 -108.7848 2088.0 1
367.13132 -110.1394 2114.0 1
-121.92792 -137.16885 2194.0 1
-97.84728 -135.48082 2167.0 1
-74.78087 -134.60553 2153.0 1
-52.030518 -133.79277 2140.0 1
-29.189865 -131.35449 2101.0 1
-7.165514 -128.97874 2063.0 1
14.331028 -128.97874 2063.0 1
35.619034 -128.2285 2051.0 1
56.65696 -127.47826 2039.0 1
78.3619 -128.2285 2051.0 1
98.56622 -126.72802 2027.0 1
119.687645 -126.72802 2027.0 1
140.80893 -126.72802 2027.0 1
160.97157 -125.977776 2015.0 1
183.05164 -126.72802 2027.0 1
204.17293 -126.72802 2027.0 1
225.29434 -126.72802 2027.0 1
247.87444 -127.47826 2039.0 1
272.28842 -128.97874 2063.0 1
293.78497 -128.97874 2063.0 1
319.10205 -130.54173 2088.0 1
345.10352 -132.16725 2114.0 1
371.64667 -133.79277 2140.0 1
-148.61696 -164.26083 2252.0 1
-122.70595 -161.05147 2208.0 1
-99.06643 -160.03032 2194.0 1
-76.20493 -160.03032 2194.0 1
-52.686977 -158.06093 2167.0 1
-29.189865 -153.2469 2101.0 1
-7.165514 -150.47517 2063.0 1
14.331028 -150.47517 2063.0 1
35.619034 -149.5999 2051.0 1
56.65696 -148.72461 2039.0 1
77.90342 -148.72461 2039.0 1
99.14974 -148.72461 2039.0 1
120.3962 -148.72461 2039.0 1
140.80893 -147.84933 2027.0 1
160.97157 -146.97406 2015.0 1
181.96796 -146.97406 2015.0 1
204.17293 -147.84933 2027.0 1
225.29434 -147.84933 2027.0 1
247.87444 -148.72461 2039.0 1
270.7046 -149.5999 2051.0 1
293.78497 -150.47517 2063.0 1
321.0888 -153.2469 2101.0 1
347.2257 -155.14334 2127.0 1
371.64667 -156.09155 2140.0 1
393.9454 -156.09155 2140.0 1
-124.31757 -186.47636 2237.0 1
-99.69857 -184.05891 2208.0 1
-76.6912 -184.05891 2208.0 1
-53.683823 -184.05891 2208.0 1
-29.551092 -177.30676 2127.0 1
-7.2106676 -173.0554 2076.0 1
14.331028 -171.97171 2063.0 1
35.619034 -170.9714 2051.0 1
56.65696 -169.97108 2039.0 1
77.90342 -169.97108 2039.0 1
99.14974 -169.97108 2039.0 1
119.687645 -168.97076 2027.0 1
141.64253 -169.97108 2039.0 1
161.93022 -168.97076 2027.0 1
183.05164 -168.97076 2027.0 1
204.17293 -168.97076 2027.0 1
225.29434 -168.97076 2027.0 1
249.33322 -170.9714 2051.0 1
270.7046 -170.9714 2051.0 1
297.34515 -174.05573 2088.0 1
325.0623 -177.30676 2127.0 1
349.34793 -178.39044 2140.0 1
371.64667 -178.39044 2140.0 1
-149.54086 -212.5055 2266.0 1
-124.31757 -209.78587 2237.0 1
-100.37587 -208.47296 2223.0 1
-77.2122 -208.47296 2223.0 1
-53.683823 -207.06625 2208.0 1
-29.551092 -199.47008 2127.0 1
-7.2523475 -195.81265 2088.0 1
14.331028 -193.46815 2063.0 1
35.619034 -192.3428 2051.0 1
56.9904 -192.3428 2051.0 1
77.90342 -191.21744 2039.0 1
99.14974 -191.21744 2039.0 1
119.687645 -190.09207 2027.0 1
141.64253 -191.21744 2039.0 1
161.93022 -190.09207 2027.0 1
183.05164 -190.09207 2027.0 1
204.17293 -190.09207 2027.0 1
226.6281 -191.21744 2039.0 1
249.33322 -192.3428 2051.0 1
272.28842 -193.46815 2063.0 1
301.04773 -198.25093 2114.0 1
331.17535 -203.22128 2167.0 1
351.47012 -201.90836 2153.0 1
371.64667 -200.68922 2140.0 1
-149.54086 -236.1172 2266.0 1
-125.15118 -234.6584 2252.0 1
-101.00802 -233.0954 2237.0 1
-78.21947 -234.6584 2252.0 1
-54.753613 -234.6584 2252.0 1
-29.912317 -224.34259 2153.0 1
-7.297501 -218.9242 2101.0 1
14.421335 -216.3192 2076.0 1
35.827435 -214.9646 2063.0 1
56.9904 -213.7142 2051.0 1
78.3619 -213.7142 2051.0 1
99.73326 -213.7142 2051.0 1
121.10477 -213.7142 2051.0 1
140.80893 -211.2134 2027.0 1
162.88885 -212.46379 2039.0 1
183.05164 -211.2134 2027.0 1
205.38164 -212.46379 2039.0 1
226.6281 -212.46379 2039.0 1
250.79202 -214.9646 2063.0 1
274.00427 -216.3192 2076.0 1
310.58896 -227.2602 2181.0 1
333.3149 -227.2602 2181.0 1
356.04105 -227.2602 2181.0 1
383.456 -230.0736 2208.0 1
-174.2988 -261.44818 2281.0 1
-149.54086 -259.72888 2266.0 1
-125.9292 -259.72888 2266.0 1
-102.31747 -259.72888 2266.0 1
-78.21947 -258.1242 2252.0 1
-30.106825 -248.38152 2167.0 1
-7.3426547 -242.30666 2114.0 1
14.595002 -240.81659 2101.0 1
36.0532 -237.9511 2076.0 1
57.323837 -236.46103 2063.0 1
78.82038 -236.46103 2063.0 1
100.31679 -236.46103 2063.0 1
121.10477 -235.0856 2051.0 1
142.47614 -235.0856 2051.0 1
163.84749 -235.0856 2051.0 1
184.13531 -233.71016 2039.0 1
206.59036 -235.0856 2051.0 1
227.96187 -235.0856 2051.0 1
253.83119 -239.32654 2088.0 1
280.73557 -243.7967 2127.0 1
312.44025 -251.47626 2194.0 1
337.44125 -253.08093 2208.0 1
362.8974 -254.80023 2223.0 1
383.456 -253.08093 2208.0 1
-174.2988 -285.2162 2281.0 1
-149.54086 -283.34058 2266.0 1
-125.9292 -283.34058 2266.0 1
-102.99477 -285.2162 2281.0 1
-30.481943 -274.3377 2194.0 1
-7.387808 -265.96002 2127.0 1
14.775616 -265.96002 2127.0 1
36.2616 -261.08347 2088.0 1
57.685062 -259.583 2076.0 1
78.82038 -257.9575 2063.0 1
100.31679 -257.9575 2063.0 1
121.10477 -256.457 2051.0 1
142.47614 -256.457 2051.0 1
163.84749 -256.457 2051.0 1
185.219 -256.457 2051.0 1
207.79909 -257.9575 2063.0 1
230.74052 -259.583 2076.0 1
255.41156 -262.70898 2101.0 1
286.01505 -270.96164 2167.0 1
316.57004 -277.96387 2223.0 1
339.73364 -277.96387 2223.0 1
365.18283 -279.71442 2237.0 1
391.09732 -281.59003 2252.0 1
-198.06683 -308.9843 2281.0 1
-173.15259 -306.9524 2266.0 1
-149.54086 -306.9524 2266.0 1
-125.9292 -306.9524 2266.0 1
-102.99477 -308.9843 2281.0 1
-30.67645 -299.0957 2208.0 1
-7.4329615 -289.88443 2140.0 1
14.685309 -286.3625 2114.0 1
36.487366 -284.6015 2101.0 1
58.018505 -282.8405 2088.0 1
78.82038 -279.454 2063.0 1
100.31679 -279.454 2063.0 1
121.10477 -277.8285 2051.0 1
142.47614 -277.8285 2051.0 1
163.84749 -277.8285 2051.0 1
186.30267 -279.454 2063.0 1
207.79909 -279.454 2063.0 1
233.5192 -284.6015 2101.0 1
258.5723 -288.12344 2127.0 1
287.86285 -295.4383 2181.0 1
320.69983 -305.05597 2252.0 1
341.87323 -303.02405 2237.0 1
365.18283 -303.02405 2237.0 1
391.09732 -305.05597 2252.0 1
-199.45616 -335.08636 2297.0 1
-173.15259 -330.5641 2266.0 1
-149.54086 -330.5641 2266.0 1
-125.9292 -330.5641 2266.0 1
-55.093998 -330.5641 2266.0 1
-30.481943 -320.06073 2194.0 1
-7.478115 -314.07965 2153.0 1
14.775616 -310.28677 2127.0 1
36.487366 -306.4939 2101.0 1
58.018505 -304.59744 2088.0 1
78.82038 -300.95047 2063.0 1
100.31679 -300.95047 2063.0 1
121.813324 -300.95047 2063.0 1
143.30974 -300.95047 2063.0 1
164.80614 -300.95047 2063.0 1
187.47667 -302.8469 2076.0 1
211.6267 -306.4939 2101.0 1
234.96411 -308.39035 2114.0 1
261.73303 -314.07965 2153.0 1
287.86285 -318.1643 2181.0 1
322.69354 -330.5641 2266.0 1
346.30518 -330.5641 2266.0 1
367.63156 -328.5218 2252.0 1
391.09732 -328.5218 2252.0 1
-198.06683 -356.5203 2281.0 1
-173.15259 -354.17578 2266.0 1
-149.54086 -354.17578 2266.0 1
-126.7628 -356.5203 2281.0 1
-55.093998 -354.17578 2266.0 1
-30.67645 -345.11038 2208.0 1
-7.478115 -336.5139 2153.0 1
14.865923 -334.482 2140.0 1
36.487366 -328.3863 2101.0 1
58.018505 -326.3544 2088.0 1
79.31706 -324.4788 2076.0 1
100.31679 -322.4469 2063.0 1
121.813324 -322.4469 2063.0 1
143.30974 -322.4469 2063.0 1
164.80614 -322.4469 2063.0 1
188.56035 -326.3544 2088.0 1
212.93614 -330.41818 2114.0 1
236.40901 -332.4501 2127.0 1
261.73303 -336.5139 2153.0 1
287.86285 -340.8903 2181.0 1
327.10812 -359.0211 2297.0 1
346.30518 -354.17578 2266.0 1
369.917 -354.17578 2266.0 1
391.09732 -351.98758 2252.0 1
-224.84972 -385.4566 2312.0 1
-198.06683 -380.2883 2281.0 1
-174.2988 -380.2883 2281.0 1
-150.53076 -380.2883 2281.0 1
-55.84771 -382.9558 2297.0 1
-30.67645 -368.11774 2208.0 1
-7.478115 -358.94812 2153.0 1
14.775616 -354.6134 2127.0 1
36.487366 -350.2787 2101.0 1
58.37973 -350.2787 2101.0 1
79.77554 -348.11133 2088.0 1
100.94893 -346.1107 2076.0 1
122.58093 -346.1107 2076.0 1
144.2128 -346.1107 2076.0 1
165.84467 -346.1107 2076.0 1
189.73433 -350.2787 2101.0 1
212.93614 -352.44604 2114.0 1
237.85391 -356.78076 2140.0 1
261.73303 -358.94812 2153.0 1
289.57867 -365.78366 2194.0 1
324.82962 -380.2883 2281.0 1
346.30518 -377.78748 2266.0 1
369.917 -377.78748 2266.0 1
393.52866 -377.78748 2266.0 1
-223.39091 -406.89053 2297.0 1
-196.76433 -401.3992 2266.0 1
-174.2988 -404.05627 2281.0 1
-150.53076 -404.05627 2281.0 1
-55.84771 -406.89053 2297.0 1
-30.67645 -391.12506 2208.0 1
-7.478115 -381.3824 2153.0 1
14.865923 -379.07956 2140.0 1
36.71313 -374.4739 2114.0 1
58.37973 -372.17108 2101.0 1
79.77554 -369.8683 2088.0 1
100.94893 -367.74258 2076.0 1
122.58093 -367.74258 2076.0 1
145.0464 -369.8683 2088.0 1
167.84183 -372.17108 2101.0 1
190.90833 -374.4739 2114.0 1
214.24559 -376.77673 2127.0 1
237.85391 -379.07956 2140.0 1
263.43497 -383.86234 2167.0 1
291.42648 -391.12506 2208.0 1
327.10812 -406.89053 2297.0 1
348.5976 -404.05627 2281.0 1
372.3657 -404.05627 2281.0 1
-220.37607 -425.011 2266.0 1
-196.76433 -425.011 2266.0 1
-173.15259 -425.011 2266.0 1
-55.093998 -425.011 2266.0 1
-30.88485 -416.94592 2223.0 1
-7.526742 -406.44257 2167.0 1
14.95623 -403.8167 2153.0 1
36.71313 -396.50186 2114.0 1
58.740955 -396.50186 2114.0 1
80.27223 -394.0636 2101.0 1
102.1646 -394.0636 2101.0 1
124.0571 -394.0636 2101.0 1
145.0464 -391.6253 2088.0 1
167.84183 -394.0636 2101.0 1
190.90833 -396.50186 2114.0 1
215.55504 -401.37845 2140.0 1
239.29883 -403.8167 2153.0 1
266.71725 -411.50668 2194.0 1
293.40628 -416.94592 2223.0 1
331.38034 -436.45215 2327.0 1
351.04282 -430.82535 2297.0 1
374.97766 -430.82535 2297.0 1
-245.6029 -451.5924 2281.0 1
-220.37607 -448.62268 2266.0 1
-196.76433 -448.62268 2266.0 1
-175.52141 -454.76007 2297.0 1
-81.380196 -463.86716 2343.0 1
-55.093998 -448.62268 2266.0 1
-30.88485 -440.10956 2223.0 1
-7.575369 -431.7944 2181.0 1
14.95623 -426.25095 2153.0 1
37.164665 -423.67722 2140.0 1
58.740955 -418.52972 2114.0 1
80.27223 -415.956 2101.0 1
102.1646 -415.956 2101.0 1
124.0571 -415.956 2101.0 1
146.85252 -418.52972 2114.0 1
168.88036 -418.52972 2114.0 1
192.0823 -421.1035 2127.0 1
216.86449 -426.25095 2153.0 1
240.85487 -429.02267 2167.0 1
266.71725 -434.36813 2194.0 1
291.42648 -437.13986 2208.0 1
331.38034 -460.69946 2327.0 1
351.04282 -454.76007 2297.0 1
372.3657 -451.5924 2281.0 1
-243.9878 -472.2344 2266.0 1
-220.37607 -472.2344 2266.0 1
-195.54866 -469.3168 2252.0 1
-80.82446 -484.94678 2327.0 1
-55.4587 -475.36038 2281.0 1
-30.88485 -463.2732 2223.0 1
-7.6205225 -457.22958 2194.0 1
15.053484 -451.60278 2167.0 1
37.390434 -448.68518 2153.0 1
59.102184 -443.26678 2127.0 1
80.76892 -440.5576 2114.0 1
102.796745 -440.5576 2114.0 1
124.82471 -440.5576 2114.0 1
146.85252 -440.5576 2114.0 1
169.91888 -443.26678 2127.0 1
194.43028 -448.68518 2153.0 1
218.27466 -451.60278 2167.0 1
242.41093 -454.5204 2181.0 1
266.71725 -457.22958 2194.0 1
293.40628 -463.2732 2223.0 1
331.38034 -484.94678 2327.0 1
351.04282 -478.6948 2297.0 1
372.3657 -475.36038 2281.0 1
-243.9878 -495.8461 2266.0 1
-220.37607 -495.8461 2266.0 1
-80.30347 -505.9118 2312.0 1
-55.093998 -495.8461 2266.0 1
-31.079357 -489.5003 2237.0 1
-7.669149 -483.15454 2208.0 1
15.241045 -480.09106 2194.0 1
37.633568 -474.18292 2167.0 1
59.824635 -471.11942 2153.0 1
81.76229 -468.27478 2140.0 1
103.42889 -465.4301 2127.0 1
125.592316 -465.4301 2127.0 1
147.7556 -465.4301 2127.0 1
171.99593 -471.11942 2153.0 1
194.43028 -471.11942 2153.0 1
218.27466 -474.18292 2167.0 1
242.41093 -477.2464 2181.0 1
268.4192 -483.15454 2208.0 1
291.42648 -483.15454 2208.0 1
333.65884 -512.69525 2343.0 1
353.3352 -505.9118 2312.0 1
377.42636 -505.9118 2312.0 1
-271.26035 -526.5642 2297.0 1
-243.9878 -519.45776 2266.0 1
-220.37607 -519.45776 2266.0 1
-79.78246 -526.5642 2297.0 1
-55.093998 -519.45776 2266.0 1
-31.287756 -516.2484 2252.0 1
-7.721249 -509.60046 2223.0 1
15.442498 -509.60046 2223.0 1
38.102467 -502.9525 2194.0 1
60.21365 -496.76303 2167.0 1
82.25898 -493.55368 2153.0 1
104.693184 -493.55368 2153.0 1
127.127525 -493.55368 2153.0 1
150.53427 -496.76303 2167.0 1
173.11435 -496.76303 2167.0 1
195.69456 -496.76303 2167.0 1
219.68483 -499.97238 2181.0 1
243.85583 -502.9525 2194.0 1
268.4192 -506.16187 2208.0 1
293.40628 -509.60046 2223.0 1
333.65884 -537.10925 2343.0 1
355.62762 -533.4414 2327.0 1
379.87506 -533.4414 2327.0 1
-267.59946 -543.0696 2266.0 1
-243.9878 -543.0696 2266.0 1
-219.01451 -539.71436 2252.0 1
-80.30347 -554.09393 2312.0 1
-55.093998 -543.0696 2266.0 1
-31.287756 -539.71436 2252.0 1
-7.721249 -532.7642 2223.0 1
15.442498 -532.7642 2223.0 1
38.3456 -529.1693 2208.0 1
60.60266 -522.6985 2181.0 1
83.328766 -522.6985 2181.0 1
105.373955 -519.34326 2167.0 1
127.954185 -519.34326 2167.0 1
150.53427 -519.34326 2167.0 1
173.11435 -519.34326 2167.0 1
195.69456 -519.34326 2167.0 1
219.68483 -522.6985 2181.0 1
243.85583 -525.8141 2194.0 1
268.4192 -529.1693 2208.0 1
291.42648 -529.1693 2208.0 1
331.38034 -557.68884 2327.0 1
355.62762 -557.68884 2327.0 1
379.87506 -557.68884 2327.0 1
-267.59946 -566.6813 2266.0 1
-243.9878 -566.6813 2266.0 1
-219.01451 -563.1802 2252.0 1
-195.54866 -563.1802 2252.0 1
-80.30347 -578.185 2312.0 1
-55.093998 -566.6813 2266.0 1
-31.287756 -563.1802 2252.0 1
-7.769876 -559.42896 2237.0 1
15.539752 -559.42896 2237.0 1
38.6061 -555.92786 2223.0 1
61.3529 -552.17664 2208.0 1
83.825455 -548.67554 2194.0 1
106.054726 -545.4245 2181.0 1
127.954185 -541.9234 2167.0 1
150.53427 -541.9234 2167.0 1
173.11435 -541.9234 2167.0 1
196.95886 -545.4245 2181.0 1
219.68483 -545.4245 2181.0 1
243.85583 -548.67554 2194.0 1
270.2427 -555.92786 2223.0 1
313.60025 -594.19006 2376.0 1
333.65884 -585.93744 2343.0 1
355.62762 -581.93616 2327.0 1
-267.59946 -590.29297 2266.0 1
-245.6029 -594.2005 2281.0 1
-219.01451 -586.646 2252.0 1
-80.30347 -602.276 2312.0 1
-55.4587 -594.2005 2281.0 1
-31.482264 -590.29297 2266.0 1
-7.821976 -586.646 2252.0 1
15.539752 -582.73846 2237.0 1
38.6061 -579.0915 2223.0 1
61.3529 -575.18396 2208.0 1
83.825455 -571.537 2194.0 1
106.054726 -568.1505 2181.0 1
128.78084 -568.1505 2181.0 1
150.53427 -564.5035 2167.0 1
173.11435 -564.5035 2167.0 1
196.95886 -568.1505 2181.0 1
218.27466 -564.5035 2167.0 1
243.85583 -571.537 2194.0 1
270.2427 -579.0915 2223.0 1
309.2447 -610.3515 2343.0 1
333.65884 -610.3515 2343.0 1
358.07285 -610.3515 2343.0 1
379.87506 -606.1835 2327.0 1
-267.59946 -613.90466 2266.0 1
-247.32567 -622.3032 2297.0 1
-220.37607 -613.90466 2266.0 1
-81.380196 -634.7655 2343.0 1
-55.84771 -622.3032 2297.0 1
-31.482264 -613.90466 2266.0 1
-7.821976 -610.1118 2252.0 1
15.643952 -610.1118 2252.0 1
38.6061 -602.2551 2223.0 1
61.3529 -598.19135 2208.0 1
84.360344 -598.19135 2208.0 1
106.686874 -594.39844 2194.0 1
129.54845 -594.39844 2194.0 1
151.50679 -590.87646 2181.0 1
173.11435 -587.0836 2167.0 1
195.69456 -587.0836 2167.0 1
218.27466 -587.0836 2167.0 1
243.85583 -594.39844 2194.0 1
268.4192 -598.19135 2208.0 1
313.60025 -643.7059 2376.0 1
335.93735 -639.1002 2359.0 1
360.51807 -639.1002 2359.0 1
-269.37085 -641.7365 2281.0 1
-243.9878 -637.51636 2266.0 1
-221.83487 -641.7365 2281.0 1
-81.380196 -659.17957 2343.0 1
-56.57711 -654.6781 2327.0 1
-31.912956 -646.2379 2297.0 1
-7.870603 -637.51636 2266.0 1
15.845407 -641.7365 2281.0 1
39.109734 -633.57764 2252.0 1
61.7697 -625.41876 2223.0 1
84.93345 -625.41876 2223.0 1
107.367645 -621.19867 2208.0 1
129.54845 -617.2599 2194.0 1
150.53427 -609.6637 2167.0 1
173.11435 -609.6637 2167.0 1
195.69456 -609.6637 2167.0 1
218.27466 -609.6637 2167.0 1
245.4119 -621.19867 2208.0 1
270.2427 -625.41876 2223.0 1
315.71204 -672.9652 2392.0 1
338.35828 -668.4638 2376.0 1
-81.93593 -688.2619 2359.0 1
-56.57711 -678.92554 2327.0 1
-32.121357 -674.54913 2312.0 1
-7.9782767 -670.1727 2297.0 1
15.956553 -670.1727 2297.0 1
39.613365 -665.5046 2281.0 1
63.381325 -665.5046 2281.0 1
85.46834 -652.6672 2237.0 1
106.686874 -640.12146 2194.0 1
128.78084 -636.3286 2181.0 1
150.53427 -632.24396 2167.0 1
174.23276 -636.3286 2181.0 1
196.95886 -636.3286 2181.0 1
219.68483 -636.3286 2181.0 1
245.4119 -644.2061 2208.0 1
268.4192 -644.2061 2208.0 1
317.9558 -702.84985 2409.0 1
-82.5264 -717.9797 2376.0 1
-56.96612 -708.00775 2343.0 1
-32.329754 -703.17285 2327.0 1
-8.030377 -698.6402 2312.0 1
16.060755 -698.6402 2312.0 1
40.690098 -708.00775 2343.0 1
65.54868 -712.84265 2359.0 1
86.57633 -684.73987 2266.0 1
108.097046 -671.74615 2223.0 1
129.54845 -662.9829 2194.0 1
151.50679 -659.05457 2181.0 1
173.11435 -654.8241 2167.0 1
195.69456 -654.8241 2167.0 1
219.68483 -659.05457 2181.0 1
243.85583 -662.9829 2194.0 1
265.1369 -659.05457 2181.0 1
-83.08213 -747.7392 2392.0 1
-57.768463 -742.7376 2376.0 1
-33.01053 -742.7376 2376.0 1
-8.138051 -732.4218 2343.0 1
16.387249 -737.4234 2359.0 1
41.2632 -742.7376 2376.0 1
68.85529 -774.6228 2478.0 1
87.14944 -713.0406 2281.0 1
108.777824 -699.2862 2237.0 1
130.37509 -690.22076 2208.0 1
151.50679 -681.7806 2181.0 1
173.11435 -677.4042 2167.0 1
195.69456 -677.4042 2167.0 1
219.68483 -681.7806 2181.0 1
245.4119 -690.22076 2208.0 1
-110.30961 -789.1378 2443.0 1
-84.26306 -783.6465 2426.0 1
-58.570805 -778.15515 2409.0 1
-33.232822 -772.6638 2392.0 1
-8.252671 -767.4955 2376.0 1
16.734583 -778.15515 2409.0 1
42.13153 -783.6465 2426.0 1
87.14944 -736.8086 2281.0 1
108.777824 -722.5957 2237.0 1
131.2608 -718.0734 2223.0 1
151.50679 -704.5066 2181.0 1
173.11435 -699.9843 2167.0 1
196.95886 -704.5066 2181.0 1
219.68483 -704.5066 2181.0 1
247.0791 -718.0734 2223.0 1
-85.444 -820.2623 2460.0 1
-58.98413 -808.92535 2426.0 1
-33.469006 -803.2569 2409.0 1
-8.367291 -803.2569 2409.0 1
16.970772 -814.5939 2443.0 1
43.3472 -832.2662 2496.0 1
75.32958 -903.95575 2711.0 1
87.14944 -760.5766 2281.0 1
109.507225 -750.9068 2252.0 1
130.37509 -736.2355 2208.0 1
153.3824 -736.2355 2208.0 1
174.23276 -727.2326 2181.0 1
196.95886 -727.2326 2181.0 1
222.40445 -736.2355 2208.0 1
247.0791 -741.23706 2223.0 1
-85.444 -845.8956 2460.0 1
-59.810783 -845.8956 2460.0 1
-34.177567 -845.8956 2460.0 1
-8.485386 -840.05 2443.0 1
17.463985 -864.46405 2514.0 1
45.30963 -897.1308 2609.0 1
74.74606 -924.98346 2690.0 1
87.14944 -784.34467 2281.0 1
109.507225 -774.37274 2252.0 1
131.2608 -764.4008 2223.0 1
153.3824 -759.2429 2208.0 1
175.27129 -754.4289 2194.0 1
198.13286 -754.4289 2194.0 1
222.40445 -759.2429 2208.0 1
258.63834 -800.16223 2327.0 1
-86.6944 -884.2829 2496.0 1
-59.810783 -871.5288 2460.0 1
-34.927807 -890.6599 2514.0 1
-8.731993 -890.6599 2514.0 1
17.98499 -917.23096 2589.0 1
45.656967 -931.4021 2629.0 1
74.74606 -953.0132 2690.0 1
87.14944 -808.1127 2281.0 1
109.507225 -797.83856 2252.0 1
131.2608 -787.56445 2223.0 1
153.3824 -782.25024 2208.0 1
176.3897 -782.25024 2208.0 1
199.39714 -782.25024 2208.0 1
223.91534 -787.56445 2223.0 1
251.8584 -802.79846 2266.0 1
-34.927807 -916.8558 2514.0 1
-9.131428 -958.79626 2629.0 1
18.40179 -966.0903 2649.0 1
46.71633 -981.04297 2690.0 1
75.32958 -988.70166 2711.0 1
86.57633 -826.41016 2266.0 1
110.187996 -826.41016 2266.0 1
131.2608 -810.7281 2223.0 1
153.3824 -805.25757 2208.0 1
176.3897 -805.25757 2208.0 1
200.75174 -810.7281 2223.0 1
223.91534 -810.7281 2223.0 1
-9.645483 -1041.7083 2777.0 1
19.290966 -1041.7083 2777.0 1
47.8278 -1033.0804 2754.0 1
77.1635 -1041.7083 2777.0 1
87.14944 -855.6487 2281.0 1
109.507225 -844.7702 2252.0 1
131.2608 -833.8917 2223.0 1
154.4244 -833.8917 2223.0 1
177.588 -833.8917 2223.0 1
200.75174 -833.8917 2223.0 1
226.83643 -844.7702 2252.0 1
-9.965032 -1106.1141 2869.0 1
19.603567 -1087.9938 2822.0 1
48.6093 -1079.1263 2799.0 1
77.7748 -1079.1263 2799.0 1
87.76074 -885.5853 2297.0 1
109.507225 -868.236 2252.0 1
131.2608 -857.05536 2223.0 1
154.4244 -857.05536 2223.0 1
177.588 -857.05536 2223.0 1
202.01604 -862.45294 2237.0 1
226.83643 -868.236 2252.0 1
-10.048391 -1145.5123 2893.0 1
19.930063 -1136.0093 2869.0 1
49.408165 -1126.5062 2845.0 1
79.71987 -1136.0093 2869.0 1
87.76074 -909.52014 2297.0 1
110.187996 -897.24536 2266.0 1
132.08745 -885.7626 2237.0 1
154.4244 -880.2191 2223.0 1
177.588 -880.2191 2223.0 1
202.01604 -885.7626 2237.0 1
229.75749 -903.1848 2281.0 1
-9.965032 -1165.9042 2869.0 1
19.930063 -1165.9042 2869.0 1
50.658566 -1185.4105 2917.0 1
87.76074 -933.4549 2297.0 1
110.187996 -920.85706 2266.0 1
132.08745 -909.0721 2237.0 1
155.39693 -909.0721 2237.0 1
177.588 -903.38275 2223.0 1
200.75174 -903.38275 2223.0 1
