ply
format ascii 1.0
comment : created from Kinect user tracker
element vertex 590
property float x
property float y
property float z
property int userId
end_header
1279.1592 297.09503 2376.0 1
1280.7987 278.06808 2426.0 1
1296.9253 276.11954 2409.0 1
1212.565 244.1406 2343.0 1
1271.8236 251.01779 2409.0 1
1270.007 245.8078 2359.0 1
1262.8485 224.32178 2392.0 1
1270.007 221.22704 2359.0 1
1280.7987 202.23134 2426.0 1
1279.1592 198.06334 2376.0 1
1196.2125 191.75926 2629.0 1
1223.6067 191.75926 2629.0 1
1251.001 191.75926 2629.0 1
1278.395 191.75926 2629.0 1
1295.8555 190.30048 2609.0 1
1323.0413 190.30048 2609.0 1
1310.3774 184.68408 2532.0 1
1298.7489 179.4324 2460.0 1
1306.0775 176.95245 2426.0 1
1177.71 165.61545 2649.0 1
1196.2125 164.36505 2629.0 1
1214.2981 163.11465 2609.0 1
1231.967 161.86426 2589.0 1
1268.6697 163.11465 2609.0 1
1285.9216 161.86426 2589.0 1
1303.2642 160.67638 2570.0 1
1310.3774 158.30061 2532.0 1
1327.2579 157.17525 2514.0 1
1324.382 153.79918 2460.0 1
1150.1074 138.0129 2649.0 1
1168.8182 136.9709 2629.0 1
1187.1124 135.9289 2609.0 1
1204.9896 134.8869 2589.0 1
1231.967 134.8869 2589.0 1
1258.9443 134.8869 2589.0 1
1276.4846 133.897 2570.0 1
1303.2642 133.897 2570.0 1
1320.2104 132.9071 2551.0 1
1327.2579 130.9794 2514.0 1
1334.0726 129.10379 2478.0 1
1158.0997 113.91147 2733.0 1
1150.1074 110.41035 2649.0 1
1168.8182 109.576744 2629.0 1
1187.1124 108.74314 2609.0 1
1204.9896 107.909546 2589.0 1
1231.967 107.909546 2589.0 1
1258.9443 107.909546 2589.0 1
1285.9216 107.909546 2589.0 1
1303.2642 107.11762 2570.0 1
1310.3774 105.53378 2532.0 1
1336.761 105.53378 2532.0 1
1353.4537 104.78355 2514.0 1
1148.7772 84.74584 2711.0 1
1150.1074 82.807724 2649.0 1
1168.8182 82.182526 2629.0 1
1187.1124 81.55733 2609.0 1
1204.9896 80.93213 2589.0 1
1222.926 80.33819 2570.0 1
1258.9443 80.93213 2589.0 1
1276.4846 80.33819 2570.0 1
1303.2642 80.33819 2570.0 1
1310.3774 79.15031 2532.0 1
1327.2579 78.58762 2514.0 1
1353.4537 78.58762 2514.0 1
1129.6217 56.955734 2733.0 1
1139.8785 56.059612 2690.0 1
1150.1074 55.205173 2649.0 1
1168.8182 54.788372 2629.0 1
1196.2125 54.788372 2629.0 1
1204.9896 53.954773 2589.0 1
1222.926 53.55881 2570.0 1
1258.9443 53.954773 2589.0 1
1276.4846 53.55881 2570.0 1
1303.2642 53.55881 2570.0 1
1320.2104 53.162853 2551.0 1
1336.761 52.76689 2532.0 1
1353.4537 52.391773 2514.0 1
1118.8718 28.936312 2777.0 1
1129.6217 28.477833 2733.0 1
1148.7772 28.248592 2711.0 1
1158.7908 27.810953 2669.0 1
1177.71 27.602552 2649.0 1
1187.1124 27.185753 2609.0 1
1214.2981 27.185753 2609.0 1
1222.926 26.779373 2570.0 1
1258.9443 26.977354 2589.0 1
1285.9216 26.977354 2589.0 1
1303.2642 26.779373 2570.0 1
1320.2104 26.581394 2551.0 1
1327.2579 26.195854 2514.0 1
1353.4537 26.195854 2514.0 1
1135.4639 0.0 2893.0 1
1118.8718 0.0 2777.0 1
1129.6217 0.0 2733.0 1
1148.7772 0.0 2711.0 1
1177.0258 0.0 2711.0 1
1186.6017 0.0 2669.0 1
1196.2125 0.0 2629.0 1
1223.6067 0.0 2629.0 1
1231.967 0.0 2589.0 1
1258.9443 0.0 2589.0 1
1276.4846 0.0 2570.0 1
1303.2642 0.0 2570.0 1
1320.2104 0.0 2551.0 1
1336.761 0.0 2532.0 1
1353.4537 0.0 2514.0 1
1107.5973 -29.40521 2822.0 1
1127.7357 -29.165552 2799.0 1
1138.3016 -28.696651 2754.0 1
1166.9984 -28.696651 2754.0 1
1186.5775 -28.477833 2733.0 1
1195.938 -28.029772 2690.0 1
1205.3126 -27.602552 2649.0 1
1214.2981 -27.185753 2609.0 1
1231.967 -26.977354 2589.0 1
1258.9443 -26.977354 2589.0 1
1276.4846 -26.779373 2570.0 1
1293.6292 -26.581394 2551.0 1
1320.2104 -26.581394 2551.0 1
1346.792 -26.581394 2551.0 1
1353.4537 -26.195854 2514.0 1
1116.6245 -59.28974 2845.0 1
1127.7357 -58.331104 2799.0 1
1138.3016 -57.393303 2754.0 1
1176.7445 -57.872623 2777.0 1
1195.695 -57.393303 2754.0 1
1205.2744 -56.497185 2711.0 1
1205.3126 -55.205105 2649.0 1
1214.2981 -54.371506 2609.0 1
1241.484 -54.371506 2609.0 1
1258.9443 -53.95471 2589.0 1
1276.4846 -53.558746 2570.0 1
1303.2642 -53.558746 2570.0 1
1320.2104 -53.16279 2551.0 1
1346.792 -53.16279 2551.0 1
1363.1444 -52.76683 2532.0 1
1086.9796 -88.93475 2845.0 1
1098.5701 -87.496796 2799.0 1
1127.7357 -87.496796 2799.0 1
1156.9012 -87.496796 2799.0 1
1186.067 -87.496796 2799.0 1
1205.6808 -86.809074 2777.0 1
1205.2744 -84.74591 2711.0 1
1205.3126 -82.80779 2649.0 1
1232.9152 -82.80779 2649.0 1
1241.484 -81.55739 2609.0 1
1268.6697 -81.55739 2609.0 1
1285.9216 -80.93219 2589.0 1
1303.2642 -80.33825 2570.0 1
1320.2104 -79.74431 2551.0 1
1346.792 -79.74431 2551.0 1
1363.1444 -79.15037 2532.0 1
1078.1921 -117.62099 2822.0 1
1098.5701 -116.662346 2799.0 1
1127.7357 -116.662346 2799.0 1
1156.9012 -116.662346 2799.0 1
1186.067 -116.662346 2799.0 1
1195.695 -114.78674 2754.0 1
1205.2744 -112.99451 2711.0 1
1205.3126 -110.41035 2649.0 1
1223.6067 -109.576744 2629.0 1
1251.001 -109.576744 2629.0 1
1268.6697 -108.74314 2609.0 1
1285.9216 -107.909546 2589.0 1
1312.8992 -107.909546 2589.0 1
1330.0435 -107.11762 2570.0 1
1356.823 -107.11762 2570.0 1
1373.3733 -106.32571 2551.0 1
1086.9796 -148.2245 2845.0 1
1098.5701 -145.8279 2799.0 1
1137.0027 -147.0262 2822.0 1
1175.9143 -148.2245 2845.0 1
1186.067 -145.8279 2799.0 1
1186.5775 -142.3893 2733.0 1
1205.2744 -141.2431 2711.0 1
1214.4128 -139.0549 2669.0 1
1223.6067 -136.9709 2629.0 1
1251.001 -136.9709 2629.0 1
1268.6697 -135.9289 2609.0 1
1295.8555 -135.9289 2609.0 1
1312.8992 -134.8869 2589.0 1
1330.0435 -133.897 2570.0 1
1366.854 -134.8869 2589.0 1
1373.3733 -132.9071 2551.0 1
1057.3348 -177.86937 2845.0 1
1078.1921 -176.43141 2822.0 1
1107.5973 -176.43141 2822.0 1
1155.9392 -179.36984 2869.0 1
1185.8341 -179.36984 2869.0 1
1176.7445 -173.61801 2777.0 1
1186.5775 -170.86713 2733.0 1
1205.2744 -169.49168 2711.0 1
1214.4128 -166.86584 2669.0 1
1232.9152 -165.61545 2649.0 1
1251.001 -164.36505 2629.0 1
1278.395 -164.36505 2629.0 1
1295.8555 -163.11465 2609.0 1
1312.8992 -161.86426 2589.0 1
1339.8765 -161.86426 2589.0 1
1366.854 -161.86426 2589.0 1
1393.8313 -161.86426 2589.0 1
1075.1738 -211.01537 2893.0 1
1078.1921 -205.83662 2822.0 1
1098.5701 -204.159 2799.0 1
1155.9392 -209.2648 2869.0 1
1175.9143 -207.51424 2845.0 1
1195.8131 -205.83662 2822.0 1
1195.695 -200.87671 2754.0 1
1205.2744 -197.74028 2711.0 1
1205.3126 -193.218 2649.0 1
1232.9152 -193.218 2649.0 1
1251.001 -191.7592 2629.0 1
1288.1204 -193.218 2649.0 1
1305.7892 -191.7592 2629.0 1
1323.0413 -190.3004 2609.0 1
1339.8765 -188.8416 2589.0 1
1366.854 -188.8416 2589.0 1
1393.8313 -188.8416 2589.0 1
1066.2544 -239.1599 2869.0 1
1078.1921 -235.24197 2822.0 1
1107.5973 -235.24197 2822.0 1
1155.9392 -239.1599 2869.0 1
1175.9143 -237.15926 2845.0 1
1186.067 -233.32469 2799.0 1
1186.5775 -227.82294 2733.0 1
1205.2744 -225.98901 2711.0 1
1223.9679 -224.23845 2690.0 1
1232.9152 -220.8207 2649.0 1
1260.5178 -220.8207 2649.0 1
1297.8457 -222.48788 2669.0 1
1305.7892 -219.15349 2629.0 1
1333.1835 -219.15349 2629.0 1
1360.5775 -219.15349 2629.0 1
1387.9718 -219.15349 2629.0 1
1415.366 -219.15349 2629.0 1
1057.3348 -266.80414 2845.0 1
1078.1921 -264.6472 2822.0 1
1098.5701 -262.49023 2799.0 1
1146.2695 -266.80414 2845.0 1
1166.4078 -264.6472 2822.0 1
1186.067 -262.49023 2799.0 1
1186.5775 -256.30075 2733.0 1
1215.0553 -256.30075 2733.0 1
1233.5231 -254.23761 2711.0 1
1232.9152 -248.42325 2649.0 1
1260.5178 -248.42325 2649.0 1
1288.1204 -248.42325 2649.0 1
1315.7229 -248.42325 2649.0 1
1343.3256 -248.42325 2649.0 1
1360.5775 -246.54764 2629.0 1
1377.4128 -244.67204 2609.0 1
1426.1333 -248.42325 2649.0 1
1048.787 -294.0524 2822.0 1
1069.4045 -291.6558 2799.0 1
1126.0442 -298.9498 2869.0 1
1155.9392 -298.9498 2869.0 1
1166.4078 -294.0524 2822.0 1
1186.067 -291.6558 2799.0 1
1195.695 -286.9668 2754.0 1
1205.2744 -282.4862 2711.0 1
1233.5231 -282.4862 2711.0 1
1251.9977 -280.298 2690.0 1
1260.5178 -276.0258 2649.0 1
1297.8457 -278.1098 2669.0 1
1315.7229 -276.0258 2649.0 1
1343.3256 -276.0258 2649.0 1
1370.9281 -276.0258 2649.0 1
1409.0897 -278.1098 2669.0 1
1436.9006 -278.1098 2669.0 1
1048.787 -323.4576 2822.0 1
1069.4045 -320.82135 2799.0 1
1126.0442 -328.84476 2869.0 1
1155.9392 -328.84476 2869.0 1
1156.9012 -320.82135 2799.0 1
1186.067 -320.82135 2799.0 1
1215.2324 -320.82135 2799.0 1
1224.3916 -315.66345 2754.0 1
1243.5332 -313.25644 2733.0 1
1261.7716 -310.7348 2711.0 1
1270.0348 -305.92075 2669.0 1
1297.8457 -305.92075 2669.0 1
1325.6566 -305.92075 2669.0 1
1343.3256 -303.62836 2649.0 1
1370.9281 -303.62836 2649.0 1
1409.0897 -305.92075 2669.0 1
1471.3561 -313.25644 2733.0 1
1036.3593 -358.7397 2869.0 1
1048.787 -352.86282 2822.0 1
1069.4045 -349.9869 2799.0 1
1116.6245 -355.73874 2845.0 1
1146.2695 -355.73874 2845.0 1
1166.4078 -352.86282 2822.0 1
1195.8131 -352.86282 2822.0 1
1225.2183 -352.86282 2822.0 1
1234.6171 -347.23602 2777.0 1
1243.5332 -341.73425 2733.0 1
1272.011 -341.73425 2733.0 1
1290.0204 -338.98337 2711.0 1
1328.9668 -341.73425 2733.0 1
1346.5175 -338.98337 2711.0 1
1353.4677 -333.7317 2669.0 1
1403.0148 -338.98337 2711.0 1
1409.0897 -333.7317 2669.0 1
1448.2063 -336.35754 2690.0 1
1019.3816 -382.26816 2822.0 1
1048.787 -382.26816 2822.0 1
1069.4045 -379.1526 2799.0 1
1107.5973 -382.26816 2822.0 1
1146.2695 -385.38376 2845.0 1
1166.4078 -382.26816 2822.0 1
1186.067 -379.1526 2799.0 1
1205.6808 -376.17245 2777.0 1
1234.6171 -376.17245 2777.0 1
1243.5332 -370.21222 2733.0 1
1272.011 -370.21222 2733.0 1
1290.0204 -367.23212 2711.0 1
1339.1783 -373.0569 2754.0 1
1357.4446 -370.21222 2733.0 1
1374.7662 -367.23212 2711.0 1
1403.0148 -367.23212 2711.0 1
1431.2634 -367.23212 2711.0 1
1448.2063 -364.38745 2690.0 1
1019.3816 -411.67337 2822.0 1
1048.787 -411.67337 2822.0 1
1069.4045 -408.31815 2799.0 1
1107.5973 -411.67337 2822.0 1
1137.0027 -411.67337 2822.0 1
1166.4078 -411.67337 2822.0 1
1195.8131 -411.67337 2822.0 1
1215.2324 -408.31815 2799.0 1
1224.3916 -401.75354 2754.0 1
1253.0884 -401.75354 2754.0 1
1281.785 -401.75354 2754.0 1
1300.489 -398.69006 2733.0 1
1339.1783 -401.75354 2754.0 1
1357.4446 -398.69006 2733.0 1
1385.9225 -398.69006 2733.0 1
1392.1467 -392.4172 2690.0 1
1420.1766 -392.4172 2690.0 1
1459.512 -395.4807 2711.0 1
1048.787 -441.07858 2822.0 1
1069.4045 -437.4837 2799.0 1
1107.5973 -441.07858 2822.0 1
1137.0027 -441.07858 2822.0 1
1166.4078 -441.07858 2822.0 1
1195.8131 -441.07858 2822.0 1
1215.2324 -437.4837 2799.0 1
1244.398 -437.4837 2799.0 1
1263.5535 -434.0451 2777.0 1
1281.785 -430.4502 2754.0 1
1310.4818 -430.4502 2754.0 1
1339.1783 -430.4502 2754.0 1
1357.4446 -427.16788 2733.0 1
1385.9225 -427.16788 2733.0 1
1403.0148 -423.72928 2711.0 1
1420.1766 -420.447 2690.0 1
1459.512 -423.72928 2711.0 1
1057.3348 -474.31836 2845.0 1
1078.1921 -470.4838 2822.0 1
1126.0442 -478.31964 2869.0 1
1146.2695 -474.31836 2845.0 1
1166.4078 -470.4838 2822.0 1
1195.8131 -470.4838 2822.0 1
1225.2183 -470.4838 2822.0 1
1244.398 -466.64923 2799.0 1
1263.5535 -462.9814 2777.0 1
1281.785 -459.14685 2754.0 1
1300.489 -455.64572 2733.0 1
1339.1783 -459.14685 2754.0 1
1357.4446 -455.64572 2733.0 1
1385.9225 -455.64572 2733.0 1
1403.0148 -451.97787 2711.0 1
1431.2634 -451.97787 2711.0 1
1459.512 -451.97787 2711.0 1
1093.3845 -521.1458 2942.0 1
1105.3188 -512.46594 2893.0 1
1126.0442 -508.2146 2869.0 1
1155.9392 -508.2146 2869.0 1
1175.9143 -503.96323 2845.0 1
1195.8131 -499.889 2822.0 1
1225.2183 -499.889 2822.0 1
1254.6235 -499.889 2822.0 1
1273.5637 -495.8148 2799.0 1
1292.4897 -491.91772 2777.0 1
1310.4818 -487.8435 2754.0 1
1350.3625 -491.91772 2777.0 1
1367.875 -487.8435 2754.0 1
1396.5718 -487.8435 2754.0 1
1414.4003 -484.12357 2733.0 1
1420.1766 -476.50653 2690.0 1
1448.2063 -476.50653 2690.0 1
1102.6757 -556.49054 2967.0 1
1114.4884 -547.11255 2917.0 1
1135.4639 -542.61115 2893.0 1
1165.609 -542.61115 2893.0 1
1195.754 -542.61115 2893.0 1
1205.5593 -533.6083 2845.0 1
1245.6241 -538.1097 2869.0 1
1275.519 -538.1097 2869.0 1
1284.0288 -529.2944 2822.0 1
1302.7291 -524.98047 2799.0 1
1310.4818 -516.5403 2754.0 1
1339.1783 -516.5403 2754.0 1
1367.875 -516.5403 2754.0 1
1385.9225 -512.6015 2733.0 1
1414.4003 -512.6015 2733.0 1
1420.1766 -504.53644 2690.0 1
1459.512 -508.47522 2711.0 1
1102.6757 -587.4067 2967.0 1
1114.4884 -577.5077 2917.0 1
1144.8835 -577.5077 2917.0 1
1175.2788 -577.5077 2917.0 1
1205.6738 -577.5077 2917.0 1
1225.8992 -572.75616 2893.0 1
1256.0442 -572.75616 2893.0 1
1307.9739 -582.45715 2942.0 1
1313.434 -558.6996 2822.0 1
1321.4263 -549.79047 2777.0 1
1339.1783 -545.23694 2754.0 1
1357.4446 -541.07935 2733.0 1
1385.9225 -541.07935 2733.0 1
1403.0148 -536.7238 2711.0 1
1420.1766 -532.5662 2690.0 1
1459.512 -536.7238 2711.0 1
1112.3385 -623.7412 2993.0 1
1114.4884 -607.9028 2917.0 1
1144.8835 -607.9028 2917.0 1
1175.2788 -607.9028 2917.0 1
1205.6738 -607.9028 2917.0 1
1225.8992 -602.9012 2893.0 1
1331.8949 -583.3116 2799.0 1
1361.0604 -583.3116 2799.0 1
1367.875 -573.9336 2754.0 1
1385.9225 -569.5572 2733.0 1
1403.0148 -564.9724 2711.0 1
1431.2634 -564.9724 2711.0 1
1471.3561 -569.5572 2733.0 1
1112.3385 -654.9282 2993.0 1
1124.0402 -643.7684 2942.0 1
1144.8835 -638.2979 2917.0 1
1185.3514 -643.7684 2942.0 1
1205.6738 -638.2979 2917.0 1
1225.8992 -633.0462 2893.0 1
1342.8394 -617.51 2822.0 1
1361.0604 -612.4771 2799.0 1
1390.2258 -612.4771 2799.0 1
1396.5718 -602.63025 2754.0 1
1414.4003 -598.03503 2733.0 1
1431.2634 -593.221 2711.0 1
1471.3561 -598.03503 2733.0 1
1090.5432 -692.0755 3019.0 1
1112.3385 -686.11523 2993.0 1
1133.5918 -680.155 2967.0 1
1154.6957 -674.424 2942.0 1
1185.3514 -674.424 2942.0 1
1195.754 -663.1912 2893.0 1
1321.4263 -636.5994 2777.0 1
1361.0604 -641.6427 2799.0 1
1379.2988 -636.5994 2777.0 1
1396.5718 -631.3269 2754.0 1
1414.4003 -626.5129 2733.0 1
1442.8783 -626.5129 2733.0 1
1471.3561 -626.5129 2733.0 1
1090.5432 -723.53357 3019.0 1
1122.0013 -723.53357 3019.0 1
1143.5255 -717.3024 2993.0 1
1174.7125 -717.3024 2993.0 1
1195.4241 -711.0713 2967.0 1
1365.2041 -687.5846 2869.0 1
1372.2445 -676.32056 2822.0 1
1379.2988 -665.5359 2777.0 1
1396.5718 -660.0237 2754.0 1
1425.2684 -660.0237 2754.0 1
1442.8783 -654.99084 2733.0 1
1471.3561 -654.99084 2733.0 1
1100.2964 -761.7437 3046.0 1
1122.0013 -754.9915 3019.0 1
1143.5255 -748.48944 2993.0 1
1174.7125 -748.48944 2993.0 1
1195.4241 -741.98737 2967.0 1
1383.4286 -711.4776 2845.0 1
1390.2258 -699.97394 2799.0 1
1419.3916 -699.97394 2799.0 1
1425.2684 -688.72034 2754.0 1
1442.8783 -683.4686 2733.0 1
1482.6617 -688.72034 2754.0 1
1097.6741 -815.1045 3129.0 1
1120.1638 -807.8105 3101.0 1
1142.0703 -800.5165 3073.0 1
1174.0908 -800.5165 3073.0 1
1195.5143 -793.483 3046.0 1
1383.4286 -741.1225 2845.0 1
1413.0735 -741.1225 2845.0 1
1408.2352 -723.4085 2777.0 1
1437.1715 -723.4085 2777.0 1
1453.9652 -717.417 2754.0 1
1482.6617 -717.417 2754.0 1
1130.2782 -847.7086 3129.0 1
1152.4763 -840.12286 3101.0 1
1184.7887 -840.12286 3101.0 1
1217.1011 -840.12286 3101.0 1
1424.9939 -777.2694 2869.0 1
1419.3916 -758.30505 2799.0 1
1437.1715 -752.3448 2777.0 1
1453.9652 -746.11365 2754.0 1
1482.6617 -746.11365 2754.0 1
1128.1942 -904.78937 3216.0 1
1130.2782 -880.3128 3129.0 1
1162.8824 -880.3128 3129.0 1
1195.4866 -880.3128 3129.0 1
1217.1011 -872.43524 3101.0 1
1436.9144 -813.91656 2893.0 1
1431.055 -793.9414 2822.0 1
1460.4602 -793.9414 2822.0 1
1466.1079 -781.2811 2777.0 1
1495.0442 -781.2811 2777.0 1
1138.7185 -947.053 3246.0 1
1140.3926 -921.08636 3157.0 1
1162.8824 -912.9171 3129.0 1
1184.7887 -904.7478 3101.0 1
1217.1011 -904.7478 3101.0 1
1424.9939 -837.0595 2869.0 1
1442.7185 -830.05725 2845.0 1
1460.4602 -823.34674 2822.0 1
1477.7228 -816.6363 2799.0 1
1506.8883 -816.6363 2799.0 1
1138.7185 -980.8763 3246.0 1
1161.705 -971.8109 3216.0 1
1184.0663 -962.7455 3186.0 1
1217.2644 -962.7455 3186.0 1
1239.0803 -953.9823 3157.0 1
1436.9144 -874.2067 2893.0 1
1442.7185 -859.7021 2845.0 1
1460.4602 -852.75195 2822.0 1
1489.8656 -852.75195 2822.0 1
1519.2708 -852.75195 2822.0 1
1117.67 -995.9436 3186.0 1
1161.705 -1005.3216 3216.0 1
1184.0663 -995.9436 3186.0 1
1228.7263 -1005.3216 3216.0 1
1436.9144 -904.3518 2893.0 1
1442.7185 -889.347 2845.0 1
1460.4602 -882.15717 2822.0 1
1489.8656 -882.15717 2822.0 1
1519.2708 -882.15717 2822.0 1
1104.895 -1048.5228 3246.0 1
1128.1942 -1038.8323 3216.0 1
1161.705 -1038.8323 3216.0 1
1195.2157 -1038.8323 3216.0 1
1240.1884 -1048.5228 3246.0 1
1473.6692 -958.40027 2967.0 1
1454.889 -926.7443 2869.0 1
1460.4602 -911.5624 2822.0 1
1502.0083 -918.9919 2845.0 1
1519.2708 -911.5624 2822.0 1
1128.1942 -1072.3429 3216.0 1
1172.5417 -1082.3462 3246.0 1
1206.3651 -1082.3462 3246.0 1
1413.0735 -948.6367 2845.0 1
1454.889 -956.6393 2869.0 1
1460.4602 -940.9676 2822.0 1
1489.8656 -940.9676 2822.0 1
1519.2708 -940.9676 2822.0 1
1454.889 -986.53436 2869.0 1
1472.3633 -978.28174 2845.0 1
1502.0083 -978.28174 2845.0 1
1544.574 -986.53436 2869.0 1
1473.6692 -1051.1488 2967.0 1
1467.0596 -1024.932 2893.0 1
1472.3633 -1007.92664 2845.0 1
1540.0205 -1033.4348 2917.0 1
1557.4948 -1024.932 2893.0 1
1479.2301 -1063.8298 2917.0 1
1497.2046 -1055.077 2893.0 1
1527.3497 -1055.077 2893.0 1
1583.8748 -1072.9474 2942.0 1
1491.9078 -1103.603 2942.0 1
1509.6252 -1094.225 2917.0 1
1527.3497 -1085.2222 2893.0 1
1570.4155 -1094.225 2917.0 1
1491.9078 -1134.2585 2942.0 1
1522.5634 -1134.2585 2942.0 1
1527.3497 -1115.3672 2893.0 1
1570.4155 -1124.6201 2917.0 1
1491.9078 -1164.9143 2942.0 1
1522.5634 -1164.9143 2942.0 1
1540.0205 -1155.0154 2917.0 1
1583.8748 -1164.9143 2942.0 1
1553.2191 -1195.57 2942.0 1
1583.8748 -1195.57 2942.0 1
