ply
format ascii 1.0
comment : created from Kinect user tracker
element vertex 232
property float x
property float y
property float z
property int userId
end_header
1482.6617 86.09003 2754.0 1
1466.1079 57.872692 2777.0 1
1471.3561 56.955734 2733.0 1
1460.4602 29.40521 2822.0 1
1466.1079 28.936312 2777.0 1
1482.6617 28.696651 2754.0 1
1442.7185 0.0 2845.0 1
1460.4602 0.0 2822.0 1
1466.1079 0.0 2777.0 1
1482.6617 0.0 2754.0 1
1460.4602 -29.40521 2822.0 1
1477.7228 -29.165552 2799.0 1
1506.8883 -29.165552 2799.0 1
1472.3633 -59.28974 2845.0 1
1489.8656 -58.81042 2822.0 1
1519.2708 -58.81042 2822.0 1
1454.889 -89.685 2869.0 1
1460.4602 -88.215775 2822.0 1
1489.8656 -88.215775 2822.0 1
1454.889 -119.57995 2869.0 1
1472.3633 -118.57963 2845.0 1
1489.8656 -117.62099 2822.0 1
1436.9006 -111.24394 2669.0 1
1461.2521 -153.2782 2942.0 1
1454.889 -149.4749 2869.0 1
1472.3633 -148.2245 2845.0 1
1453.9652 -143.4834 2754.0 1
1415.366 -136.9709 2629.0 1
1479.2301 -182.3708 2917.0 1
1448.5571 -174.99345 2799.0 1
1420.1766 -168.17877 2690.0 1
1404.5986 -163.11465 2609.0 1
1479.2301 -212.76591 2917.0 1
1425.2684 -200.87671 2754.0 1
1420.1766 -196.20854 2690.0 1
1404.5986 -190.3004 2609.0 1
1431.055 -235.24197 2822.0 1
1403.0148 -225.98901 2711.0 1
1398.5308 -220.8207 2649.0 1
1393.8313 -215.81909 2589.0 1
1486.5831 -280.68356 2993.0 1
1431.055 -264.6472 2822.0 1
1381.2786 -250.29884 2669.0 1
1387.9718 -246.54764 2629.0 1
1393.8313 -242.79645 2589.0 1
1455.3961 -311.8706 2993.0 1
1436.9144 -301.4506 2893.0 1
1374.7662 -282.4862 2711.0 1
1370.9281 -276.0258 2649.0 1
1377.4128 -271.8578 2609.0 1
1383.6023 -267.794 2570.0 1
1367.875 -315.66345 2754.0 1
1353.4677 -305.92075 2669.0 1
1370.9281 -303.62836 2649.0 1
1366.854 -296.75116 2589.0 1
1383.6023 -294.57336 2570.0 1
1357.4446 -341.73425 2733.0 1
1343.3256 -331.2309 2649.0 1
1360.5775 -328.7301 2629.0 1
1366.854 -323.72852 2589.0 1
1373.3733 -318.977 2551.0 1
1350.3625 -376.17245 2777.0 1
1357.4446 -370.21222 2733.0 1
1353.4677 -361.5428 2669.0 1
1360.5775 -356.1244 2629.0 1
1356.823 -348.13223 2570.0 1
1373.3733 -345.5585 2551.0 1
1367.875 -401.75354 2754.0 1
1353.4677 -389.35373 2669.0 1
1350.227 -380.60095 2609.0 1
1356.823 -374.91162 2570.0 1
1373.3733 -372.1399 2551.0 1
1367.875 -430.4502 2754.0 1
1364.117 -420.447 2690.0 1
1360.5775 -410.9127 2629.0 1
1366.854 -404.6607 2589.0 1
1373.3733 -398.72128 2551.0 1
1418.4398 -486.3222 2917.0 1
1390.2258 -466.64923 2799.0 1
1364.117 -448.47678 2690.0 1
1360.5775 -438.30685 2629.0 1
1366.854 -431.63806 2589.0 1
1373.3733 -425.30267 2551.0 1
1424.9939 -508.2146 2869.0 1
1419.3916 -495.8148 2799.0 1
1381.2786 -472.7866 2669.0 1
1366.854 -458.6154 2589.0 1
1383.6023 -455.24973 2570.0 1
1424.9939 -538.1097 2869.0 1
1419.3916 -524.98047 2799.0 1
1392.1467 -504.53644 2690.0 1
1377.4128 -489.3441 2609.0 1
1393.8313 -485.5929 2589.0 1
1424.9939 -568.00464 2869.0 1
1431.055 -558.6996 2822.0 1
1425.2684 -545.23694 2754.0 1
1387.9718 -520.48944 2629.0 1
1393.8313 -512.57025 2589.0 1
1436.9144 -602.9012 2893.0 1
1431.055 -588.1048 2822.0 1
1437.1715 -578.7268 2777.0 1
1420.1766 -560.596 2690.0 1
1415.366 -547.8836 2629.0 1
1448.835 -638.2979 2917.0 1
1454.889 -627.79456 2869.0 1
1448.5571 -612.4771 2799.0 1
1453.9652 -602.63025 2754.0 1
1415.366 -575.2778 2629.0 1
1418.4398 -668.693 2917.0 1
1448.835 -668.693 2917.0 1
1467.0596 -663.1912 2893.0 1
1460.4602 -646.9152 2822.0 1
1477.7228 -641.6427 2799.0 1
1436.9006 -611.8415 2669.0 1
1424.2091 -717.3024 2993.0 1
1430.5966 -705.0798 2942.0 1
1436.9144 -693.3364 2893.0 1
1454.889 -687.5846 2869.0 1
1472.3633 -681.83276 2845.0 1
1489.8656 -676.32056 2822.0 1
1459.512 -649.7183 2711.0 1
1411.8372 -741.98737 2967.0 1
1418.4398 -729.4834 2917.0 1
1436.9144 -723.48145 2893.0 1
1454.889 -717.47955 2869.0 1
1484.7839 -717.47955 2869.0 1
1502.0083 -711.4776 2845.0 1
1459.512 -677.9669 2711.0 1
1393.022 -779.6765 2993.0 1
1399.9409 -766.391 2942.0 1
1418.4398 -759.8785 2917.0 1
1448.835 -759.8785 2917.0 1
1454.889 -747.3745 2869.0 1
1509.6252 -759.8785 2917.0 1
1527.3497 -753.62646 2893.0 1
1482.6617 -717.417 2754.0 1
1373.6652 -817.9074 3019.0 1
1393.022 -810.8635 2993.0 1
1399.9409 -797.0466 2942.0 1
1418.4398 -790.2736 2917.0 1
1448.835 -790.2736 2917.0 1
1479.2301 -790.2736 2917.0 1
1509.6252 -790.2736 2917.0 1
1361.835 -842.05054 2993.0 1
1380.9209 -834.7357 2967.0 1
1388.0448 -820.6687 2917.0 1
1418.4398 -820.6687 2917.0 1
1448.835 -820.6687 2917.0 1
1467.0596 -813.91656 2893.0 1
1342.207 -880.8235 3019.0 1
1338.6296 -858.358 2942.0 1
1369.2852 -858.358 2942.0 1
1399.9409 -858.358 2942.0 1
1418.4398 -851.06396 2917.0 1
1448.835 -851.06396 2917.0 1
1322.4717 -920.4403 3046.0 1
1342.207 -912.28143 3019.0 1
1350.0048 -896.56805 2967.0 1
1369.2852 -889.01355 2942.0 1
1388.0448 -881.45905 2917.0 1
1406.7694 -874.2067 2893.0 1
1322.4717 -952.17957 3046.0 1
1330.6478 -935.61176 2993.0 1
1338.6296 -919.6692 2942.0 1
1369.2852 -919.6692 2942.0 1
1388.0448 -911.8542 2917.0 1
1395.099 -896.84937 2869.0 1
1279.2913 -975.1973 3019.0 1
1299.4608 -966.7988 2993.0 1
1319.0885 -958.40027 2967.0 1
1350.0048 -958.40027 2967.0 1
1369.2852 -950.32477 2942.0 1
1388.0448 -942.24927 2917.0 1
1293.2991 -1043.3336 3129.0 1
1290.7324 -1015.65814 3046.0 1
1310.7491 -1006.6553 3019.0 1
1319.0885 -989.3164 2967.0 1
1350.0048 -989.3164 2967.0 1
1357.6495 -972.6444 2917.0 1
1482.6617 -918.2937 2754.0 1
1293.2991 -1075.938 3129.0 1
1279.2913 -1038.1134 3019.0 1
1310.7491 -1038.1134 3019.0 1
1319.0885 -1020.23267 2967.0 1
1350.0048 -1020.23267 2967.0 1
1357.6495 -1003.0397 2917.0 1
1453.9652 -946.9905 2754.0 1
1482.6617 -946.9905 2754.0 1
1270.1528 -1088.7024 3073.0 1
1279.2913 -1069.5713 3019.0 1
1299.4608 -1060.3601 2993.0 1
1319.0885 -1051.1488 2967.0 1
1361.835 -1060.3601 2993.0 1
1417.6896 -1079.1368 3046.0 1
1489.8656 -999.7782 2822.0 1
1519.2708 -999.7782 2822.0 1
1249.4136 -1130.9347 3101.0 1
1247.8331 -1101.0293 3019.0 1
1268.2738 -1091.5471 2993.0 1
1299.4608 -1091.5471 2993.0 1
1330.6478 -1091.5471 2993.0 1
1385.9503 -1110.8762 3046.0 1
1489.8656 -1029.1833 2822.0 1
1519.2708 -1029.1833 2822.0 1
1185.3514 -1103.603 2942.0 1
1226.3402 -1112.981 2967.0 1
1257.2565 -1112.981 2967.0 1
1299.4608 -1122.7341 2993.0 1
1342.207 -1132.4872 3019.0 1
1385.9503 -1142.6155 3046.0 1
1430.2561 -1152.7437 3073.0 1
1488.9243 -1173.7505 3129.0 1
1502.0083 -1067.2163 2845.0 1
1519.2708 -1058.5886 2822.0 1
1216.3752 -1163.9452 3019.0 1
1226.3402 -1143.8971 2967.0 1
1246.6627 -1134.2585 2942.0 1
1322.4717 -1174.3547 3046.0 1
1342.207 -1163.9452 3019.0 1
1373.6652 -1163.9452 3019.0 1
1405.123 -1163.9452 3019.0 1
1449.429 -1174.3547 3046.0 1
1502.0083 -1096.8612 2845.0 1
1531.6532 -1096.8612 2845.0 1
1342.207 -1195.4033 3019.0 1
1373.6652 -1195.4033 3019.0 1
1562.413 -1195.4033 3019.0 1
1527.3497 -1145.5123 2893.0 1
1557.4948 -1145.5123 2893.0 1
1522.5634 -1195.57 2942.0 1
1527.3497 -1175.6573 2893.0 1
1557.4948 -1175.6573 2893.0 1
