ply
format ascii 1.0
comment : created from Kinect user tracker
element vertex 260
property float x
property float y
property float z
property int userId
end_header
1393.8313 0.0 2589.0 1
1356.823 -26.779373 2570.0 1
1383.6023 -26.779373 2570.0 1
1339.8765 -53.95471 2589.0 1
1356.823 -53.558746 2570.0 1
1373.3733 -53.16279 2551.0 1
1333.1835 -82.182594 2629.0 1
1330.0435 -80.33825 2570.0 1
1346.792 -79.74431 2551.0 1
1363.1444 -79.15037 2532.0 1
1315.7229 -110.41035 2649.0 1
1312.8992 -107.909546 2589.0 1
1330.0435 -107.11762 2570.0 1
1356.823 -107.11762 2570.0 1
1393.8313 -107.909546 2589.0 1
1315.7229 -138.0129 2649.0 1
1312.8992 -134.8869 2589.0 1
1330.0435 -133.897 2570.0 1
1366.854 -134.8869 2589.0 1
1415.366 -136.9709 2629.0 1
1295.8555 -163.11465 2609.0 1
1303.2642 -160.67638 2570.0 1
1339.8765 -161.86426 2589.0 1
1387.9718 -164.36505 2629.0 1
1415.366 -164.36505 2629.0 1
1278.395 -191.7592 2629.0 1
1295.8555 -190.3004 2609.0 1
1312.8992 -188.8416 2589.0 1
1339.8765 -188.8416 2589.0 1
1398.5308 -193.218 2649.0 1
1415.366 -191.7592 2629.0 1
1222.926 -214.23524 2570.0 1
1278.395 -219.15349 2629.0 1
1285.9216 -215.81909 2589.0 1
1312.8992 -215.81909 2589.0 1
1370.9281 -220.8207 2649.0 1
1398.5308 -220.8207 2649.0 1
1404.5986 -217.48628 2609.0 1
1278.395 -246.54764 2629.0 1
1285.9216 -242.79645 2589.0 1
1312.8992 -242.79645 2589.0 1
1381.2786 -250.29884 2669.0 1
1398.5308 -248.42325 2649.0 1
1404.5986 -244.67204 2609.0 1
1268.6697 -271.8578 2609.0 1
1285.9216 -269.7738 2589.0 1
1333.1835 -273.9418 2629.0 1
1381.2786 -278.1098 2669.0 1
1398.5308 -276.0258 2649.0 1
1404.5986 -271.8578 2609.0 1
1258.9443 -296.75116 2589.0 1
1285.9216 -296.75116 2589.0 1
1353.4677 -305.92075 2669.0 1
1381.2786 -305.92075 2669.0 1
1387.9718 -301.33594 2629.0 1
1426.1333 -303.62836 2649.0 1
1251.001 -328.7301 2629.0 1
1268.6697 -326.2293 2609.0 1
1285.9216 -323.72852 2589.0 1
1353.4677 -333.7317 2669.0 1
1381.2786 -333.7317 2669.0 1
1398.5308 -331.2309 2649.0 1
1415.366 -328.7301 2629.0 1
1231.967 -350.706 2589.0 1
1249.7053 -348.13223 2570.0 1
1305.7892 -356.1244 2629.0 1
1353.4677 -361.5428 2669.0 1
1381.2786 -361.5428 2669.0 1
1398.5308 -358.8336 2649.0 1
1426.1333 -358.8336 2649.0 1
1223.6067 -383.51852 2629.0 1
1231.967 -377.68335 2589.0 1
1258.9443 -377.68335 2589.0 1
1285.9216 -377.68335 2589.0 1
1353.4677 -389.35373 2669.0 1
1370.9281 -386.43613 2649.0 1
1387.9718 -383.51852 2629.0 1
1426.1333 -386.43613 2649.0 1
1223.6067 -410.9127 2629.0 1
1251.001 -410.9127 2629.0 1
1268.6697 -407.78668 2609.0 1
1295.8555 -407.78668 2609.0 1
1353.4677 -417.1647 2669.0 1
1381.2786 -417.1647 2669.0 1
1398.5308 -414.0387 2649.0 1
1415.366 -410.9127 2629.0 1
1223.6067 -438.30685 2629.0 1
1241.484 -434.97244 2609.0 1
1268.6697 -434.97244 2609.0 1
1315.7229 -441.64124 2649.0 1
1353.4677 -444.97565 2669.0 1
1381.2786 -444.97565 2669.0 1
1398.5308 -441.64124 2649.0 1
1426.1333 -441.64124 2649.0 1
1281.785 -487.8435 2754.0 1
1260.5178 -469.2438 2649.0 1
1297.8457 -472.7866 2669.0 1
1336.087 -476.50653 2690.0 1
1364.117 -476.50653 2690.0 1
1381.2786 -472.7866 2669.0 1
1398.5308 -469.2438 2649.0 1
1415.366 -465.701 2629.0 1
1273.5637 -524.98047 2799.0 1
1281.785 -516.5403 2754.0 1
1300.489 -512.6015 2733.0 1
1328.9668 -512.6015 2733.0 1
1336.087 -504.53644 2690.0 1
1353.4677 -500.5977 2669.0 1
1392.1467 -504.53644 2690.0 1
1409.0897 -500.5977 2669.0 1
1426.1333 -496.8465 2649.0 1
1284.0288 -558.6996 2822.0 1
1281.785 -545.23694 2754.0 1
1290.0204 -536.7238 2711.0 1
1328.9668 -541.07935 2733.0 1
1336.087 -532.5662 2690.0 1
1353.4677 -528.4086 2669.0 1
1381.2786 -528.4086 2669.0 1
1409.0897 -528.4086 2669.0 1
1426.1333 -524.44904 2649.0 1
1273.5637 -583.3116 2799.0 1
1281.785 -573.9336 2754.0 1
1290.0204 -564.9724 2711.0 1
1328.9668 -569.5572 2733.0 1
1346.5175 -564.9724 2711.0 1
1364.117 -560.596 2690.0 1
1403.0148 -564.9724 2711.0 1
1254.6235 -617.51 2822.0 1
1273.5637 -612.4771 2799.0 1
1281.785 -602.63025 2754.0 1
1300.489 -598.03503 2733.0 1
1328.9668 -598.03503 2733.0 1
1367.875 -602.63025 2754.0 1
1385.9225 -598.03503 2733.0 1
1254.6235 -646.9152 2822.0 1
1284.0288 -646.9152 2822.0 1
1292.4897 -636.5994 2777.0 1
1290.0204 -621.4696 2711.0 1
1339.1783 -631.3269 2754.0 1
1367.875 -631.3269 2754.0 1
1385.9225 -626.5129 2733.0 1
1256.0442 -693.3364 2893.0 1
1264.849 -681.83276 2845.0 1
1273.5637 -670.8084 2799.0 1
1302.7291 -670.8084 2799.0 1
1300.489 -654.99084 2733.0 1
1339.1783 -660.0237 2754.0 1
1379.2988 -665.5359 2777.0 1
1236.0691 -729.4834 2917.0 1
1256.0442 -723.48145 2893.0 1
1254.6235 -705.72577 2822.0 1
1273.5637 -699.97394 2799.0 1
1292.4897 -694.47217 2777.0 1
1321.4263 -694.47217 2777.0 1
1339.1783 -688.72034 2754.0 1
1237.0867 -779.6765 2993.0 1
1246.6627 -766.391 2942.0 1
1245.6241 -747.3745 2869.0 1
1264.849 -741.1225 2845.0 1
1273.5637 -729.13947 2799.0 1
1302.7291 -729.13947 2799.0 1
1321.4263 -723.4085 2777.0 1
1361.0604 -729.13947 2799.0 1
1226.3402 -803.8196 2967.0 1
1236.0691 -790.2736 2917.0 1
1256.0442 -783.77155 2893.0 1
1275.519 -777.2694 2869.0 1
1284.0288 -764.5362 2822.0 1
1313.434 -764.5362 2822.0 1
1331.8949 -758.30505 2799.0 1
1237.0867 -842.05054 2993.0 1
1236.0691 -820.6687 2917.0 1
1256.0442 -813.91656 2893.0 1
1275.519 -807.16437 2869.0 1
1305.4142 -807.16437 2869.0 1
1313.434 -793.9414 2822.0 1
1226.3402 -865.652 2967.0 1
1236.0691 -851.06396 2917.0 1
1256.0442 -844.0617 2893.0 1
1286.1891 -844.0617 2893.0 1
1316.3344 -844.0617 2893.0 1
1227.2538 -920.4403 3046.0 1
1237.0867 -904.42474 2993.0 1
1246.6627 -889.01355 2942.0 1
1266.4641 -881.45905 2917.0 1
1296.8593 -881.45905 2917.0 1
1217.1011 -969.37256 3101.0 1
1227.2538 -952.17957 3046.0 1
1237.0867 -935.61176 2993.0 1
1257.2565 -927.4842 2967.0 1
1288.1725 -927.4842 2967.0 1
1330.6478 -935.61176 2993.0 1
1509.6252 -911.8542 2917.0 1
1514.6791 -896.84937 2869.0 1
1531.6532 -889.347 2845.0 1
1206.1115 -992.6404 3073.0 1
1227.2538 -983.9189 3046.0 1
1237.0867 -966.7988 2993.0 1
1257.2565 -958.40027 2967.0 1
1277.3184 -950.32477 2942.0 1
1342.207 -975.1973 3019.0 1
1484.7839 -926.7443 2869.0 1
1514.6791 -926.7443 2869.0 1
1531.6532 -918.9919 2845.0 1
1195.4866 -1043.3336 3129.0 1
1206.1115 -1024.661 3073.0 1
1216.3752 -1006.6553 3019.0 1
1237.0867 -997.98584 2993.0 1
1268.2738 -997.98584 2993.0 1
1497.2046 -964.64185 2893.0 1
1502.0083 -948.6367 2845.0 1
1531.6532 -948.6367 2845.0 1
1184.7887 -1066.3099 3101.0 1
1195.5143 -1047.3976 3046.0 1
1216.3752 -1038.1134 3019.0 1
1237.0867 -1029.173 2993.0 1
1268.2738 -1029.173 2993.0 1
1491.9078 -1011.63617 2942.0 1
1497.2046 -994.78705 2893.0 1
1502.0083 -978.28174 2845.0 1
1531.6532 -978.28174 2845.0 1
1174.0908 -1088.7024 3073.0 1
1184.9171 -1069.5713 3019.0 1
1205.8997 -1060.3601 2993.0 1
1237.0867 -1060.3601 2993.0 1
1491.9078 -1042.2917 2942.0 1
1484.7839 -1016.4293 2869.0 1
1527.3497 -1024.932 2893.0 1
1557.4948 -1024.932 2893.0 1
1142.0703 -1120.723 3073.0 1
1153.4592 -1101.0293 3019.0 1
1174.7125 -1091.5471 2993.0 1
1195.4241 -1082.0648 2967.0 1
1258.9929 -1110.8762 3046.0 1
1491.9078 -1072.9474 2942.0 1
1509.6252 -1063.8298 2917.0 1
1527.3497 -1055.077 2893.0 1
1583.8748 -1072.9474 2942.0 1
1143.5255 -1122.7341 2993.0 1
1174.7125 -1122.7341 2993.0 1
1205.8997 -1122.7341 2993.0 1
1504.5854 -1112.981 2967.0 1
1522.5634 -1103.603 2942.0 1
1540.0205 -1094.225 2917.0 1
1570.4155 -1094.225 2917.0 1
1174.7125 -1153.9211 2993.0 1
1205.8997 -1153.9211 2993.0 1
1481.1682 -1174.3547 3046.0 1
1473.6692 -1143.8971 2967.0 1
1491.9078 -1134.2585 2942.0 1
1522.5634 -1134.2585 2942.0 1
1527.3497 -1115.3672 2893.0 1
1570.4155 -1124.6201 2917.0 1
1504.5854 -1174.8134 2967.0 1
1522.5634 -1164.9143 2942.0 1
1540.0205 -1155.0154 2917.0 1
1583.8748 -1164.9143 2942.0 1
1522.5634 -1195.57 2942.0 1
1540.0205 -1185.4105 2917.0 1
1583.8748 -1195.57 2942.0 1
