ply
format ascii 1.0
comment : created from Kinect user tracker
element vertex 754
property float x
property float y
property float z
property int userId
end_header
390.48608 423.71887 2392.0 1
409.67966 417.87326 2359.0 1
382.487 390.62494 2343.0 1
401.51733 385.4566 2312.0 1
449.69943 385.4566 2312.0 1
307.1329 363.71008 2327.0 1
329.24423 361.3656 2312.0 1
353.3352 361.3656 2312.0 1
372.3657 356.5203 2281.0 1
396.13367 356.5203 2281.0 1
422.84702 359.0211 2297.0 1
446.78183 359.0211 2297.0 1
473.7904 361.3656 2312.0 1
286.77576 344.13095 2359.0 1
309.2447 341.79684 2343.0 1
331.38034 339.46277 2327.0 1
351.04282 335.08636 2297.0 1
374.97766 335.08636 2297.0 1
393.52866 330.5641 2266.0 1
414.5631 328.5218 2252.0 1
443.66974 332.7523 2281.0 1
467.43768 332.7523 2281.0 1
497.88153 337.27457 2312.0 1
284.8307 317.38275 2343.0 1
311.35648 319.5501 2359.0 1
333.65884 317.38275 2343.0 1
355.62762 315.2154 2327.0 1
377.42636 313.1835 2312.0 1
396.13367 308.98425 2281.0 1
417.14032 306.95233 2266.0 1
443.66974 308.98425 2281.0 1
467.43768 308.98425 2281.0 1
491.2058 308.98425 2281.0 1
290.78748 299.09567 2392.0 1
313.60025 297.09503 2376.0 1
333.65884 292.96872 2343.0 1
355.62762 290.96808 2327.0 1
374.97766 287.2169 2297.0 1
396.13367 285.21625 2281.0 1
419.9016 285.21625 2281.0 1
449.69943 289.0925 2312.0 1
476.86432 290.96808 2327.0 1
504.55728 292.96872 2343.0 1
292.8541 276.11954 2409.0 1
315.71204 274.17102 2392.0 1
335.93735 270.38855 2359.0 1
355.62762 266.7207 2327.0 1
377.42636 265.0014 2312.0 1
401.51733 265.0014 2312.0 1
422.84702 263.2821 2297.0 1
452.61703 266.7207 2327.0 1
480.14313 268.55463 2343.0 1
508.00284 270.38855 2359.0 1
528.9713 268.55463 2343.0 1
317.9558 251.01779 2409.0 1
335.93735 245.8078 2359.0 1
358.07285 244.1406 2343.0 1
379.87506 242.47339 2327.0 1
398.91232 239.3474 2297.0 1
428.3696 242.47339 2327.0 1
452.61703 242.47339 2327.0 1
480.14313 244.1406 2343.0 1
508.00284 245.8078 2359.0 1
322.44336 229.10455 2443.0 1
338.35828 222.8213 2376.0 1
358.07285 219.72656 2343.0 1
379.87506 218.22607 2327.0 1
398.91232 215.41267 2297.0 1
428.3696 218.22607 2327.0 1
455.72916 219.72656 2343.0 1
490.18454 224.32178 2392.0 1
515.10925 224.32178 2392.0 1
338.35828 198.06334 2376.0 1
360.51807 196.64622 2359.0 1
382.487 195.31247 2343.0 1
404.1223 193.9787 2327.0 1
431.315 195.31247 2343.0 1
458.84125 196.64622 2359.0 1
493.6683 200.81422 2409.0 1
518.7702 200.81422 2409.0 1
319.59875 191.75926 2629.0 1
346.99286 191.75926 2629.0 1
365.98517 187.45581 2570.0 1
360.51807 172.06548 2359.0 1
382.487 170.89842 2343.0 1
406.901 170.89842 2343.0 1
431.315 170.89842 2343.0 1
471.8732 176.95245 2426.0 1
500.6358 178.19243 2443.0 1
526.092 178.19243 2443.0 1
298.9846 168.17877 2690.0 1
317.16742 163.11465 2609.0 1
339.20566 160.67638 2570.0 1
363.27942 159.4885 2551.0 1
375.95355 153.79918 2460.0 1
390.48608 149.54782 2392.0 1
415.41064 149.54782 2392.0 1
449.72366 152.73633 2443.0 1
475.1798 152.73633 2443.0 1
497.15204 151.6735 2426.0 1
518.7702 150.61066 2409.0 1
543.8719 150.61066 2409.0 1
294.42758 138.0129 2649.0 1
314.73608 134.8869 2589.0 1
336.6979 132.9071 2551.0 1
360.5737 131.91719 2532.0 1
378.70444 129.10379 2478.0 1
401.58685 128.166 2460.0 1
424.26767 127.2803 2443.0 1
449.72366 127.2803 2443.0 1
475.1798 127.2803 2443.0 1
493.6683 125.508896 2409.0 1
518.7702 125.508896 2409.0 1
543.8719 125.508896 2409.0 1
568.97363 125.508896 2409.0 1
289.98172 108.74314 2609.0 1
310.11655 106.32571 2551.0 1
334.19016 105.53378 2532.0 1
355.44705 104.0333 2496.0 1
378.70444 103.283066 2478.0 1
401.58685 102.53282 2460.0 1
424.26767 101.824265 2443.0 1
446.59418 101.1157 2426.0 1
471.8732 101.1157 2426.0 1
490.18454 99.698586 2392.0 1
515.10925 99.698586 2392.0 1
540.0339 99.698586 2392.0 1
557.16425 98.32314 2359.0 1
581.7451 98.32314 2359.0 1
614.80774 99.698586 2392.0 1
289.98172 81.55733 2609.0 1
310.11655 79.74425 2551.0 1
329.43866 78.02495 2496.0 1
352.88376 77.462265 2478.0 1
375.95355 76.89959 2460.0 1
398.81168 76.368164 2443.0 1
421.31534 75.83675 2426.0 1
443.46472 75.30533 2409.0 1
468.5666 75.30533 2409.0 1
490.18454 74.77391 2392.0 1
515.10925 74.77391 2392.0 1
532.58356 73.742325 2359.0 1
557.16425 73.742325 2359.0 1
581.7451 73.742325 2359.0 1
610.6953 74.27375 2376.0 1
264.81036 54.788372 2629.0 1
287.7588 53.954773 2589.0 1
307.8068 52.76689 2532.0 1
329.43866 52.01665 2496.0 1
352.88376 51.641533 2478.0 1
373.3555 50.912132 2443.0 1
396.03647 50.55785 2426.0 1
418.363 50.20357 2409.0 1
443.46472 50.20357 2409.0 1
468.5666 50.20357 2409.0 1
490.18454 49.849293 2392.0 1
511.66373 49.51585 2376.0 1
532.58356 49.16157 2359.0 1
557.16425 49.16157 2359.0 1
581.7451 49.16157 2359.0 1
606.32587 49.16157 2359.0 1
630.90674 49.16157 2359.0 1
273.06995 28.248592 2711.0 1
283.53522 26.581394 2551.0 1
305.6186 26.195854 2514.0 1
329.43866 26.008295 2496.0 1
352.88376 25.820734 2478.0 1
375.95355 25.633175 2460.0 1
396.03647 25.278896 2426.0 1
418.363 25.101755 2409.0 1
443.46472 25.101755 2409.0 1
465.25998 24.924616 2392.0 1
490.18454 24.924616 2392.0 1
508.00284 24.580755 2359.0 1
532.58356 24.580755 2359.0 1
557.16425 24.580755 2359.0 1
581.7451 24.580755 2359.0 1
606.32587 24.580755 2359.0 1
283.53522 0.0 2551.0 1
305.6186 0.0 2514.0 1
327.0629 0.0 2478.0 1
350.32043 0.0 2460.0 1
375.95355 0.0 2460.0 1
393.2613 0.0 2409.0 1
418.363 0.0 2409.0 1
440.33524 0.0 2392.0 1
465.25998 0.0 2392.0 1
486.90573 0.0 2376.0 1
511.66373 0.0 2376.0 1
532.58356 0.0 2359.0 1
561.17944 0.0 2376.0 1
581.7451 0.0 2359.0 1
606.32587 0.0 2359.0 1
630.90674 0.0 2359.0 1
256.95367 -26.581394 2551.0 1
283.53522 -26.581394 2551.0 1
305.6186 -26.195854 2514.0 1
329.43866 -26.008295 2496.0 1
352.88376 -25.820734 2478.0 1
375.95355 -25.633175 2460.0 1
396.03647 -25.278896 2426.0 1
418.363 -25.101755 2409.0 1
443.46472 -25.101755 2409.0 1
465.25998 -24.924616 2392.0 1
490.18454 -24.924616 2392.0 1
511.66373 -24.757896 2376.0 1
536.4216 -24.757896 2376.0 1
561.17944 -24.757896 2376.0 1
581.7451 -24.580755 2359.0 1
606.32587 -24.580755 2359.0 1
635.4533 -24.757896 2376.0 1
283.53522 -53.16279 2551.0 1
305.6186 -52.39171 2514.0 1
329.43866 -52.01659 2496.0 1
352.88376 -51.641468 2478.0 1
375.95355 -51.26635 2460.0 1
396.03647 -50.557793 2426.0 1
418.363 -50.20351 2409.0 1
440.33524 -49.84923 2392.0 1
465.25998 -49.84923 2392.0 1
490.18454 -49.84923 2392.0 1
511.66373 -49.515793 2376.0 1
536.4216 -49.515793 2376.0 1
561.17944 -49.515793 2376.0 1
581.7451 -49.16151 2359.0 1
606.32587 -49.16151 2359.0 1
630.90674 -49.16151 2359.0 1
288.98477 -89.685 2869.0 1
285.647 -80.33825 2570.0 1
305.6186 -78.58769 2514.0 1
327.0629 -77.462326 2478.0 1
352.88376 -77.462326 2478.0 1
373.3555 -76.368225 2443.0 1
393.2613 -75.30539 2409.0 1
418.363 -75.30539 2409.0 1
443.46472 -75.30539 2409.0 1
468.5666 -75.30539 2409.0 1
493.6683 -75.30539 2409.0 1
518.7702 -75.30539 2409.0 1
540.0339 -74.773964 2392.0 1
564.95844 -74.773964 2392.0 1
581.7451 -73.742386 2359.0 1
606.32587 -73.742386 2359.0 1
639.7325 -74.773964 2392.0 1
288.98477 -119.57995 2869.0 1
285.647 -107.11762 2570.0 1
307.8068 -105.53378 2532.0 1
329.43866 -104.0333 2496.0 1
352.88376 -103.283066 2478.0 1
375.95355 -102.53282 2460.0 1
396.03647 -101.1157 2426.0 1
421.31534 -101.1157 2426.0 1
443.46472 -100.40714 2409.0 1
468.5666 -100.40714 2409.0 1
493.6683 -100.40714 2409.0 1
518.7702 -100.40714 2409.0 1
540.0339 -99.698586 2392.0 1
568.97363 -100.40714 2409.0 1
585.93744 -99.0317 2376.0 1
606.32587 -98.32314 2359.0 1
630.90674 -98.32314 2359.0 1
259.08987 -149.4749 2869.0 1
288.98477 -149.4749 2869.0 1
285.647 -133.897 2570.0 1
307.8068 -131.91719 2532.0 1
331.8144 -130.9794 2514.0 1
352.88376 -129.10379 2478.0 1
375.95355 -128.166 2460.0 1
401.58685 -128.166 2460.0 1
421.31534 -126.3946 2426.0 1
446.59418 -126.3946 2426.0 1
478.48642 -128.166 2460.0 1
500.6358 -127.2803 2443.0 1
526.092 -127.2803 2443.0 1
543.8719 -125.508896 2409.0 1
564.95844 -124.6232 2392.0 1
589.8832 -124.6232 2392.0 1
614.80774 -124.6232 2392.0 1
639.7325 -124.6232 2392.0 1
261.25723 -180.87033 2893.0 1
286.56732 -177.86937 2845.0 1
285.647 -160.67638 2570.0 1
307.8068 -158.30061 2532.0 1
329.43866 -156.0499 2496.0 1
352.88376 -154.92453 2478.0 1
378.70444 -154.92453 2478.0 1
401.58685 -153.79918 2460.0 1
427.22 -153.79918 2460.0 1
449.72366 -152.73633 2443.0 1
478.48642 -153.79918 2460.0 1
504.11957 -153.79918 2460.0 1
529.75287 -153.79918 2460.0 1
547.7099 -151.6735 2426.0 1
564.95844 -149.54782 2392.0 1
594.0755 -150.61066 2409.0 1
619.1772 -150.61066 2409.0 1
639.7325 -149.54782 2392.0 1
231.11205 -211.01537 2893.0 1
259.08987 -209.2648 2869.0 1
286.56732 -207.51424 2845.0 1
287.7588 -188.8416 2589.0 1
307.8068 -184.68402 2532.0 1
331.8144 -183.37111 2514.0 1
352.88376 -180.74527 2478.0 1
378.70444 -180.74527 2478.0 1
404.5253 -180.74527 2478.0 1
427.22 -179.43234 2460.0 1
452.85312 -179.43234 2460.0 1
481.98755 -180.74527 2478.0 1
504.11957 -179.43234 2460.0 1
537.5053 -182.05818 2496.0 1
551.548 -178.19237 2443.0 1
564.95844 -174.47243 2392.0 1
589.8832 -174.47243 2392.0 1
619.1772 -175.7124 2409.0 1
644.27905 -175.7124 2409.0 1
231.11205 -241.16054 2893.0 1
259.08987 -239.1599 2869.0 1
288.98477 -239.1599 2869.0 1
287.7588 -215.81909 2589.0 1
307.8068 -211.06757 2532.0 1
331.8144 -209.5671 2514.0 1
355.44705 -208.0666 2496.0 1
378.70444 -206.56613 2478.0 1
404.5253 -206.56613 2478.0 1
430.34598 -206.56613 2478.0 1
459.48026 -208.0666 2496.0 1
481.98755 -206.56613 2478.0 1
507.80823 -206.56613 2478.0 1
541.3816 -209.5671 2514.0 1
559.44977 -206.56613 2478.0 1
568.97363 -200.81429 2409.0 1
589.8832 -199.39717 2392.0 1
619.1772 -200.81429 2409.0 1
644.27905 -200.81429 2409.0 1
202.63426 -273.55627 2917.0 1
231.11205 -271.30557 2893.0 1
261.25723 -271.30557 2893.0 1
270.95468 -252.26822 2690.0 1
289.98172 -244.67204 2609.0 1
312.42633 -241.01462 2570.0 1
334.19016 -237.45097 2532.0 1
360.5737 -237.45097 2532.0 1
381.45532 -234.0749 2496.0 1
407.46375 -234.0749 2496.0 1
433.472 -234.0749 2496.0 1
459.48026 -234.0749 2496.0 1
485.48868 -234.0749 2496.0 1
511.49692 -234.0749 2496.0 1
545.2578 -237.45097 2532.0 1
571.6412 -237.45097 2532.0 1
568.97363 -225.91605 2409.0 1
589.8832 -224.32178 2392.0 1
619.1772 -225.91605 2409.0 1
639.7325 -224.32178 2392.0 1
202.63426 -303.9514 2917.0 1
231.11205 -301.4506 2893.0 1
275.28595 -284.7786 2733.0 1
292.20465 -273.9418 2629.0 1
314.73608 -269.7738 2589.0 1
336.6979 -265.8142 2551.0 1
360.5737 -263.83438 2532.0 1
381.45532 -260.0832 2496.0 1
410.4022 -261.9588 2514.0 1
436.598 -261.9588 2514.0 1
462.7938 -261.9588 2514.0 1
488.98978 -261.9588 2514.0 1
518.87427 -263.83438 2532.0 1
545.2578 -263.83438 2532.0 1
567.5774 -261.9588 2514.0 1
568.97363 -251.01779 2409.0 1
589.8832 -249.2464 2392.0 1
619.1772 -251.01779 2409.0 1
635.4533 -247.5792 2376.0 1
175.19153 -340.0775 2967.0 1
200.96706 -331.5956 2893.0 1
231.11205 -331.5956 2893.0 1
277.40118 -315.66345 2754.0 1
294.42758 -303.62836 2649.0 1
312.42633 -294.57336 2570.0 1
336.6979 -292.3956 2551.0 1
360.5737 -290.2178 2532.0 1
384.2062 -288.15466 2514.0 1
413.3406 -290.2178 2532.0 1
436.598 -288.15466 2514.0 1
466.10736 -290.2178 2532.0 1
492.4909 -290.2178 2532.0 1
518.87427 -290.2178 2532.0 1
549.3494 -292.3956 2551.0 1
543.8719 -276.11954 2409.0 1
564.95844 -274.17102 2392.0 1
585.93744 -272.3371 2376.0 1
614.80774 -274.17102 2392.0 1
630.90674 -270.38855 2359.0 1
172.2392 -364.7416 2917.0 1
200.96706 -361.74066 2893.0 1
275.28595 -341.73425 2733.0 1
296.6505 -333.7317 2669.0 1
317.16742 -326.2293 2609.0 1
339.20566 -321.35275 2570.0 1
363.27942 -318.977 2551.0 1
386.9571 -316.60123 2532.0 1
413.3406 -316.60123 2532.0 1
439.724 -316.60123 2532.0 1
466.10736 -316.60123 2532.0 1
492.4909 -316.60123 2532.0 1
518.87427 -316.60123 2532.0 1
541.3816 -314.3505 2514.0 1
536.4216 -297.095 2376.0 1
561.17944 -297.095 2376.0 1
585.93744 -297.095 2376.0 1
619.1772 -301.2213 2409.0 1
144.27528 -401.90988 2967.0 1
173.71536 -398.52338 2942.0 1
202.63426 -395.13687 2917.0 1
233.02933 -395.13687 2917.0 1
250.78165 -376.17245 2777.0 1
273.06995 -367.23212 2711.0 1
298.9846 -364.38745 2690.0 1
319.59875 -356.1244 2629.0 1
341.7134 -350.706 2589.0 1
365.98517 -348.13223 2570.0 1
389.86078 -345.5585 2551.0 1
413.3406 -342.98477 2532.0 1
439.724 -342.98477 2532.0 1
466.10736 -342.98477 2532.0 1
492.4909 -342.98477 2532.0 1
515.1856 -340.54648 2514.0 1
515.10925 -324.02036 2392.0 1
528.9713 -317.3828 2343.0 1
557.16425 -319.55017 2359.0 1
581.7451 -319.55017 2359.0 1
144.27528 -432.826 2967.0 1
172.2392 -425.53198 2917.0 1
204.37093 -429.179 2942.0 1
231.11205 -422.03085 2893.0 1
250.78165 -405.1088 2777.0 1
275.28595 -398.69006 2733.0 1
301.31866 -395.4807 2711.0 1
322.0301 -386.43613 2649.0 1
344.35315 -380.60095 2609.0 1
368.6909 -377.68335 2589.0 1
392.7645 -374.91162 2570.0 1
416.44232 -372.1399 2551.0 1
443.02365 -372.1399 2551.0 1
466.10736 -369.36816 2532.0 1
496.18652 -372.1399 2551.0 1
504.11957 -358.8648 2460.0 1
508.00284 -344.13095 2359.0 1
528.9713 -341.79684 2343.0 1
557.16425 -344.13095 2359.0 1
175.19153 -463.7421 2967.0 1
204.37093 -459.8346 2942.0 1
223.6027 -437.4837 2799.0 1
250.78165 -434.0451 2777.0 1
275.28595 -427.16788 2733.0 1
301.31866 -423.72928 2711.0 1
324.46143 -417.1647 2669.0 1
346.99286 -410.9127 2629.0 1
371.53903 -407.78668 2609.0 1
395.6682 -404.6607 2589.0 1
416.44232 -398.72128 2551.0 1
443.02365 -398.72128 2551.0 1
469.605 -398.72128 2551.0 1
496.18652 -398.72128 2551.0 1
486.90573 -371.3688 2376.0 1
504.55728 -366.2109 2343.0 1
528.9713 -366.2109 2343.0 1
557.16425 -368.7117 2359.0 1
200.96706 -482.32092 2893.0 1
223.6027 -466.64923 2799.0 1
250.78165 -462.9814 2777.0 1
275.28595 -455.64572 2733.0 1
301.31866 -451.97787 2711.0 1
322.0301 -441.64124 2649.0 1
346.99286 -438.30685 2629.0 1
371.53903 -434.97244 2609.0 1
398.72473 -434.97244 2609.0 1
422.6457 -431.63806 2589.0 1
446.32333 -428.47037 2570.0 1
473.10266 -428.47037 2570.0 1
465.25998 -398.79422 2392.0 1
480.14313 -390.62494 2343.0 1
504.55728 -390.62494 2343.0 1
528.9713 -390.62494 2343.0 1
542.5207 -382.9558 2297.0 1
196.03493 -499.889 2822.0 1
223.6027 -495.8148 2799.0 1
250.78165 -491.91772 2777.0 1
275.28595 -484.12357 2733.0 1
303.76392 -484.12357 2733.0 1
327.0143 -476.50653 2690.0 1
349.6326 -469.2438 2649.0 1
374.38715 -465.701 2629.0 1
398.72473 -462.1582 2609.0 1
422.6457 -458.6154 2589.0 1
453.0963 -462.1582 2609.0 1
473.10266 -455.24973 2570.0 1
455.72916 -415.03897 2343.0 1
480.14313 -415.03897 2343.0 1
504.55728 -415.03897 2343.0 1
196.03493 -529.2944 2822.0 1
223.6027 -524.98047 2799.0 1
250.78165 -520.8542 2777.0 1
277.40118 -516.5403 2754.0 1
306.098 -516.5403 2754.0 1
334.7946 -516.5403 2754.0 1
357.81577 -508.47522 2711.0 1
377.2353 -496.8465 2649.0 1
401.78125 -493.09528 2629.0 1
425.9106 -489.3441 2609.0 1
449.623 -485.5929 2589.0 1
431.315 -439.45312 2343.0 1
452.61703 -436.45215 2327.0 1
476.86432 -436.45215 2327.0 1
561.83954 -489.3441 2609.0 1
196.03493 -558.6996 2822.0 1
223.6027 -554.14606 2799.0 1
250.78165 -549.79047 2777.0 1
277.40118 -545.23694 2754.0 1
306.098 -545.23694 2754.0 1
337.59064 -549.79047 2777.0 1
363.4912 -545.23694 2754.0 1
383.07397 -532.5662 2690.0 1
401.78125 -520.48944 2629.0 1
432.4405 -524.44904 2649.0 1
406.901 -463.86716 2343.0 1
428.3696 -460.69946 2327.0 1
452.61703 -460.69946 2327.0 1
538.75214 -520.48944 2629.0 1
566.1464 -520.48944 2629.0 1
197.63266 -592.898 2845.0 1
221.8452 -578.7268 2777.0 1
250.78165 -578.7268 2777.0 1
279.71793 -578.7268 2777.0 1
308.65436 -578.7268 2777.0 1
337.59064 -578.7268 2777.0 1
372.46628 -588.1048 2822.0 1
395.46335 -578.7268 2777.0 1
360.51807 -491.6156 2359.0 1
382.487 -488.2812 2343.0 1
404.1223 -484.94678 2327.0 1
431.315 -488.2812 2343.0 1
452.61703 -484.94678 2327.0 1
538.75214 -547.8836 2629.0 1
570.45337 -552.0516 2649.0 1
196.03493 -617.51 2822.0 1
223.6027 -612.4771 2799.0 1
252.76839 -612.4771 2799.0 1
279.71793 -607.6631 2777.0 1
311.09958 -612.4771 2799.0 1
340.2651 -612.4771 2799.0 1
338.35828 -519.91626 2376.0 1
355.62762 -509.19412 2327.0 1
379.87506 -509.19412 2327.0 1
404.1223 -509.19412 2327.0 1
428.3696 -509.19412 2327.0 1
531.58673 -598.03503 2733.0 1
542.8507 -579.6541 2649.0 1
566.1464 -575.2778 2629.0 1
169.40495 -657.6895 2869.0 1
197.63266 -652.18774 2845.0 1
223.6027 -641.6427 2799.0 1
250.78165 -636.5994 2777.0 1
281.9339 -641.6427 2799.0 1
313.65598 -646.9152 2822.0 1
343.06113 -646.9152 2822.0 1
335.93735 -540.7771 2359.0 1
355.62762 -533.4414 2327.0 1
377.42636 -530.0028 2312.0 1
401.51733 -530.0028 2312.0 1
428.3696 -533.4414 2327.0 1
523.22296 -616.6555 2690.0 1
546.9492 -611.8415 2669.0 1
169.40495 -687.5846 2869.0 1
197.63266 -681.83276 2845.0 1
223.6027 -670.8084 2799.0 1
252.76839 -670.8084 2799.0 1
281.9339 -670.8084 2799.0 1
313.65598 -676.32056 2822.0 1
331.38034 -557.68884 2327.0 1
355.62762 -557.68884 2327.0 1
379.87506 -557.68884 2327.0 1
401.51733 -554.09393 2312.0 1
495.19305 -644.6854 2690.0 1
523.22296 -644.6854 2690.0 1
551.2527 -644.6854 2690.0 1
170.82208 -723.48145 2893.0 1
197.63266 -711.4776 2845.0 1
225.4401 -705.72577 2822.0 1
252.76839 -699.97394 2799.0 1
284.2506 -705.72577 2822.0 1
311.09958 -699.97394 2799.0 1
353.3352 -578.185 2312.0 1
446.1532 -683.4686 2733.0 1
467.16333 -672.7152 2690.0 1
495.19305 -672.7152 2690.0 1
527.3076 -677.9669 2711.0 1
560.0645 -683.4686 2733.0 1
169.40495 -747.3745 2869.0 1
197.63266 -741.1225 2845.0 1
227.27748 -741.1225 2845.0 1
254.84544 -735.131 2822.0 1
286.56732 -741.1225 2845.0 1
446.1532 -711.9465 2733.0 1
470.81033 -706.2155 2711.0 1
499.05887 -706.2155 2711.0 1
535.6714 -717.417 2754.0 1
564.368 -717.417 2754.0 1
141.84395 -790.2736 2917.0 1
170.82208 -783.77155 2893.0 1
199.29987 -777.2694 2869.0 1
227.27748 -770.76733 2845.0 1
259.08987 -777.2694 2869.0 1
291.4022 -783.77155 2893.0 1
449.5814 -746.11365 2754.0 1
470.81033 -734.46405 2711.0 1
499.05887 -734.46405 2711.0 1
531.58673 -740.4243 2733.0 1
573.5897 -758.30505 2799.0 1
607.7084 -764.5362 2822.0 1
144.27528 -834.7357 2967.0 1
170.82208 -813.91656 2893.0 1
199.29987 -807.16437 2869.0 1
229.19476 -807.16437 2869.0 1
261.25723 -813.91656 2893.0 1
291.4022 -813.91656 2893.0 1
456.9275 -787.4706 2799.0 1
478.27798 -774.8103 2754.0 1
506.9746 -774.8103 2754.0 1
540.145 -781.2811 2777.0 1
573.5897 -787.4706 2799.0 1
607.7084 -793.9414 2822.0 1
141.84395 -851.06396 2917.0 1
170.82208 -844.0617 2893.0 1
200.96706 -844.0617 2893.0 1
231.11205 -844.0617 2893.0 1
263.4246 -851.06396 2917.0 1
456.9275 -816.6363 2799.0 1
486.093 -816.6363 2799.0 1
515.2585 -816.6363 2799.0 1
544.4242 -816.6363 2799.0 1
578.303 -823.34674 2822.0 1
598.01776 -810.2176 2777.0 1
713.4331 -844.0617 2893.0 1
111.44888 -881.45905 2917.0 1
141.84395 -881.45905 2917.0 1
172.2392 -881.45905 2917.0 1
200.96706 -874.2067 2893.0 1
231.11205 -874.2067 2893.0 1
261.25723 -874.2067 2893.0 1
486.093 -845.8018 2799.0 1
519.4925 -852.75195 2822.0 1
544.4242 -845.8018 2799.0 1
578.303 -852.75195 2822.0 1
602.7554 -845.8018 2799.0 1
631.9209 -845.8018 2799.0 1
114.35259 -935.61176 2993.0 1
143.05962 -919.6692 2942.0 1
170.82208 -904.3518 2893.0 1
200.96706 -904.3518 2893.0 1
231.11205 -904.3518 2893.0 1
256.9225 -889.347 2845.0 1
523.7265 -889.347 2845.0 1
553.3715 -889.347 2845.0 1
583.0163 -889.347 2845.0 1
602.7554 -874.9674 2799.0 1
113.359215 -958.40027 2967.0 1
143.05962 -950.32477 2942.0 1
170.82208 -934.4968 2893.0 1
200.96706 -934.4968 2893.0 1
231.11205 -934.4968 2893.0 1
528.14453 -926.7443 2869.0 1
558.0397 -926.7443 2869.0 1
587.9346 -926.7443 2869.0 1
622.998 -934.4968 2893.0 1
658.56134 -942.24927 2917.0 1
83.88786 -1006.6553 3019.0 1
113.359215 -989.3164 2967.0 1
143.05962 -980.9804 2942.0 1
173.71536 -980.9804 2942.0 1
204.37093 -980.9804 2942.0 1
233.02933 -972.6444 2917.0 1
546.18506 -989.3164 2967.0 1
567.376 -972.6444 2917.0 1
597.77106 -972.6444 2917.0 1
622.998 -964.64185 2893.0 1
653.14294 -964.64185 2893.0 1
83.16541 -1029.173 2993.0 1
113.359215 -1020.23267 2967.0 1
144.27528 -1020.23267 2967.0 1
173.71536 -1011.63617 2942.0 1
204.37093 -1011.63617 2942.0 1
560.7279 -1047.3976 3046.0 1
577.1013 -1020.23267 2967.0 1
602.8942 -1011.63617 2942.0 1
633.55 -1011.63617 2942.0 1
647.72455 -986.53436 2869.0 1
83.16541 -1060.3601 2993.0 1
113.359215 -1051.1488 2967.0 1
144.27528 -1051.1488 2967.0 1
175.19153 -1051.1488 2967.0 1
577.1013 -1051.1488 2967.0 1
602.8942 -1042.2917 2942.0 1
633.55 -1042.2917 2942.0 1
669.8497 -1051.1488 2967.0 1
51.526897 -1082.0648 2967.0 1
82.44296 -1082.0648 2967.0 1
113.359215 -1082.0648 2967.0 1
144.27528 -1082.0648 2967.0 1
178.26196 -1101.0293 3019.0 1
560.7279 -1110.8762 3046.0 1
582.1585 -1091.5471 2993.0 1
613.34546 -1091.5471 2993.0 1
638.93365 -1082.0648 2967.0 1
675.7196 -1091.5471 2993.0 1
20.972067 -1132.4872 3019.0 1
51.526897 -1112.981 2967.0 1
82.44296 -1112.981 2967.0 1
112.40405 -1103.603 2942.0 1
144.27528 -1112.981 2967.0 1
533.6777 -1152.7437 3073.0 1
555.75757 -1132.4872 3019.0 1
582.1585 -1122.7341 2993.0 1
613.34546 -1122.7341 2993.0 1
650.13165 -1132.4872 3019.0 1
687.68524 -1142.6155 3046.0 1
-10.395726 -1153.9211 2993.0 1
20.610838 -1143.8971 2967.0 1
51.526897 -1143.8971 2967.0 1
81.05363 -1124.6201 2917.0 1
113.359215 -1143.8971 2967.0 1
145.53957 -1153.9211 2993.0 1
176.72675 -1153.9211 2993.0 1
528.98865 -1174.3547 3046.0 1
550.9713 -1153.9211 2993.0 1
582.1585 -1153.9211 2993.0 1
613.34546 -1153.9211 2993.0 1
644.53265 -1153.9211 2993.0 1
681.58954 -1163.9452 3019.0 1
-70.921974 -1155.0154 2917.0 1
-40.193375 -1145.5123 2893.0 1
-10.131752 -1155.0154 2917.0 1
20.43717 -1164.9143 2942.0 1
50.658566 -1155.0154 2917.0 1
82.44296 -1174.8134 2967.0 1
114.35259 -1185.1083 2993.0 1
145.53957 -1185.1083 2993.0 1
644.53265 -1185.1083 2993.0 1
-70.338455 -1175.6573 2893.0 1
-39.859936 -1165.9042 2869.0 1
-9.881671 -1156.1511 2845.0 1
20.263504 -1185.4105 2917.0 1
51.09273 -1195.57 2942.0 1
