ply
format ascii 1.0
comment : created from Kinect user tracker
element vertex 663
property float x
property float y
property float z
property int userId
end_header
1188.9359 328.5218 2252.0 1
1212.4017 328.5218 2252.0 1
1188.7587 311.1516 2297.0 1
1196.3271 306.95233 2266.0 1
1212.4017 305.0559 2252.0 1
1180.0372 290.96808 2327.0 1
1172.7153 283.34064 2266.0 1
1188.9359 281.5901 2252.0 1
1204.3262 279.71448 2237.0 1
1148.3395 265.0014 2312.0 1
1172.4307 265.0014 2312.0 1
1188.7587 263.2821 2297.0 1
1181.0167 256.4049 2237.0 1
1196.7891 254.80023 2223.0 1
1148.3395 240.9104 2312.0 1
1164.824 239.3474 2297.0 1
1188.7587 239.3474 2297.0 1
1196.3271 236.1172 2266.0 1
1204.3262 233.0954 2237.0 1
1132.9423 213.9122 2281.0 1
1156.7103 213.9122 2281.0 1
1165.47 211.19258 2252.0 1
1181.0167 209.78587 2237.0 1
1196.7891 208.47296 2223.0 1
1131.5425 193.9787 2327.0 1
1140.8892 191.4779 2297.0 1
1156.7103 190.14415 2281.0 1
1172.7153 188.89374 2266.0 1
1196.3271 188.89374 2266.0 1
1204.3262 186.4763 2237.0 1
1131.5425 169.73138 2327.0 1
1155.7898 169.73138 2327.0 1
1172.4307 168.63728 2312.0 1
1165.47 164.2609 2252.0 1
1181.0167 163.1668 2237.0 1
1212.4017 164.2609 2252.0 1
1105.8538 148.5475 2376.0 1
1147.103 147.48465 2359.0 1
1148.3395 144.54622 2312.0 1
1164.824 143.60841 2297.0 1
1165.47 140.79501 2252.0 1
1181.0167 139.85721 2237.0 1
1204.3262 139.85721 2237.0 1
1005.655 130.0416 2496.0 1
1054.3962 132.9071 2551.0 1
1050.0443 129.10379 2478.0 1
1075.865 129.10379 2478.0 1
1086.1251 127.2803 2443.0 1
1103.8462 126.3946 2426.0 1
1105.8538 123.7896 2376.0 1
1130.6117 123.7896 2376.0 1
1147.103 122.9039 2359.0 1
1163.7368 122.0703 2343.0 1
1172.4307 120.4552 2312.0 1
1180.4783 118.840096 2281.0 1
1196.3271 118.0586 2266.0 1
1228.0144 118.840096 2281.0 1
1012.90735 104.78355 2514.0 1
1031.6633 104.0333 2496.0 1
1050.0443 103.283066 2478.0 1
1060.6692 101.824265 2443.0 1
1078.5671 101.1157 2426.0 1
1088.376 99.698586 2392.0 1
1105.8538 99.0317 2376.0 1
1130.6117 99.0317 2376.0 1
1131.5425 96.98938 2327.0 1
1155.7898 96.98938 2327.0 1
1172.4307 96.36418 2312.0 1
1188.7587 95.73898 2297.0 1
1220.6128 96.36418 2312.0 1
1244.7037 96.36418 2312.0 1
1012.90735 78.58762 2514.0 1
1024.2234 77.462265 2478.0 1
1042.4169 76.89959 2460.0 1
1060.6692 76.368164 2443.0 1
1071.0092 75.30533 2409.0 1
1081.0958 74.27375 2376.0 1
1105.8538 74.27375 2376.0 1
1114.9088 73.242165 2343.0 1
1124.2485 72.27311 2312.0 1
1148.3395 72.27311 2312.0 1
1164.824 71.80421 2297.0 1
1180.4783 71.30405 2281.0 1
1204.2463 71.30405 2281.0 1
1244.7037 72.27311 2312.0 1
993.7762 52.76689 2532.0 1
1005.655 52.01665 2496.0 1
1024.2234 51.641533 2478.0 1
1028.0094 50.55785 2426.0 1
1053.2883 50.55785 2426.0 1
1071.0092 50.20357 2409.0 1
1081.0958 49.51585 2376.0 1
1097.9414 49.16157 2359.0 1
1107.2953 48.49469 2327.0 1
1116.9545 47.86949 2297.0 1
1140.8892 47.86949 2297.0 1
1149.1038 47.22345 2266.0 1
1165.47 46.93169 2252.0 1
1188.9359 46.93169 2252.0 1
1204.3262 46.61909 2237.0 1
974.65204 26.581394 2551.0 1
993.7762 26.383415 2532.0 1
998.4027 25.820734 2478.0 1
1024.2234 25.820734 2478.0 1
1028.0094 25.278896 2426.0 1
1053.2883 25.278896 2426.0 1
1071.0092 25.101755 2409.0 1
1081.0958 24.757896 2376.0 1
1090.4946 24.414036 2343.0 1
1100.1576 24.091017 2312.0 1
1116.9545 23.934717 2297.0 1
1140.8892 23.934717 2297.0 1
1149.1038 23.611696 2266.0 1
1165.47 23.465816 2252.0 1
1181.0167 23.309517 2237.0 1
1196.7891 23.163637 2223.0 1
974.65204 0.0 2551.0 1
1001.2334 0.0 2551.0 1
1005.655 0.0 2496.0 1
1016.78357 0.0 2460.0 1
1028.0094 0.0 2426.0 1
1053.2883 0.0 2426.0 1
1071.0092 0.0 2409.0 1
1081.0958 0.0 2376.0 1
1097.9414 0.0 2359.0 1
1100.1576 0.0 2312.0 1
1116.9545 0.0 2297.0 1
1125.492 0.0 2266.0 1
1142.0043 0.0 2252.0 1
1157.7072 0.0 2237.0 1
1165.7063 0.0 2208.0 1
1181.1764 0.0 2194.0 1
981.9113 -26.779373 2570.0 1
993.7762 -26.383415 2532.0 1
1005.655 -26.008295 2496.0 1
1009.757 -25.456036 2443.0 1
1028.0094 -25.278896 2426.0 1
1053.2883 -25.278896 2426.0 1
1071.0092 -25.101755 2409.0 1
1081.0958 -24.757896 2376.0 1
1090.4946 -24.414036 2343.0 1
1100.1576 -24.091017 2312.0 1
1116.9545 -23.934717 2297.0 1
1125.492 -23.611696 2266.0 1
1134.3976 -23.309517 2237.0 1
1157.7072 -23.309517 2237.0 1
1165.7063 -23.007338 2208.0 1
1181.1764 -22.861458 2194.0 1
962.1933 -53.95471 2589.0 1
981.9113 -53.558746 2570.0 1
1001.2334 -53.16279 2551.0 1
1020.15967 -52.76683 2532.0 1
1024.2234 -51.641468 2478.0 1
1028.0094 -50.557793 2426.0 1
1053.2883 -50.557793 2426.0 1
1071.0092 -50.20351 2409.0 1
1081.0958 -49.515793 2376.0 1
1083.0479 -48.494633 2327.0 1
1100.1576 -48.182034 2312.0 1
1101.8802 -47.223392 2266.0 1
1118.5383 -46.931633 2252.0 1
1134.3976 -46.619034 2237.0 1
1150.4617 -46.327274 2223.0 1
1158.3151 -45.722916 2194.0 1
1181.1764 -45.722916 2194.0 1
962.1933 -80.93219 2589.0 1
981.9113 -80.33825 2570.0 1
1001.2334 -79.74431 2551.0 1
1020.15967 -79.15037 2532.0 1
1016.78357 -76.89965 2460.0 1
1028.0094 -75.83681 2426.0 1
1053.2883 -75.83681 2426.0 1
1063.4512 -74.773964 2392.0 1
1081.0958 -74.2738 2376.0 1
1090.4946 -73.242226 2343.0 1
1093.0198 -71.80427 2297.0 1
1109.1742 -71.30411 2281.0 1
1118.5383 -70.39756 2252.0 1
1134.3976 -69.928665 2237.0 1
1142.6989 -69.022125 2208.0 1
1158.3151 -68.58448 2194.0 1
1181.1764 -68.58448 2194.0 1
942.4403 -108.74314 2609.0 1
969.6262 -108.74314 2609.0 1
981.9113 -107.11762 2570.0 1
1008.6907 -107.11762 2570.0 1
1027.815 -106.32571 2551.0 1
1016.78357 -102.53282 2460.0 1
1035.2131 -101.824265 2443.0 1
1053.2883 -101.1157 2426.0 1
1063.4512 -99.698586 2392.0 1
1073.3607 -98.32314 2359.0 1
1083.0479 -96.98938 2327.0 1
1093.0198 -95.73898 2297.0 1
1116.9545 -95.73898 2297.0 1
1118.5383 -93.86338 2252.0 1
1134.3976 -93.23818 2237.0 1
1142.6989 -92.02946 2208.0 1
1158.3151 -91.44594 2194.0 1
1181.1764 -91.44594 2194.0 1
942.4403 -135.9289 2609.0 1
969.6262 -135.9289 2609.0 1
989.1706 -134.8869 2589.0 1
1016.1479 -134.8869 2589.0 1
1020.15967 -131.91719 2532.0 1
1016.78357 -128.166 2460.0 1
1035.2131 -127.2803 2443.0 1
1045.9075 -125.508896 2409.0 1
1056.3379 -123.7896 2376.0 1
1073.3607 -122.9039 2359.0 1
1076.0664 -120.4552 2312.0 1
1100.1576 -120.4552 2312.0 1
1116.9545 -119.6737 2297.0 1
1118.5383 -117.3292 2252.0 1
1134.3976 -116.5477 2237.0 1
1142.6989 -115.0368 2208.0 1
1158.3151 -114.307396 2194.0 1
1181.1764 -114.307396 2194.0 1
958.75464 -170.86713 2733.0 1
949.66486 -164.36505 2629.0 1
977.05914 -164.36505 2629.0 1
989.1706 -161.86426 2589.0 1
1016.1479 -161.86426 2589.0 1
1012.90735 -157.17525 2514.0 1
1024.2234 -154.92453 2478.0 1
1035.2131 -152.73633 2443.0 1
1045.9075 -150.61066 2409.0 1
1063.4512 -149.54782 2392.0 1
1073.3607 -147.48465 2359.0 1
1083.0479 -145.48401 2327.0 1
1100.1576 -144.54622 2312.0 1
1116.9545 -143.60841 2297.0 1
1125.492 -141.67029 2266.0 1
1134.3976 -139.85721 2237.0 1
1150.4617 -138.98193 2223.0 1
1158.3151 -137.16885 2194.0 1
1174.1777 -136.3561 2181.0 1
936.30304 -194.6768 2669.0 1
956.8894 -193.218 2649.0 1
977.05914 -191.7592 2629.0 1
1004.45325 -191.7592 2629.0 1
1008.6907 -187.45575 2570.0 1
1012.90735 -183.37111 2514.0 1
1024.2234 -180.74527 2478.0 1
1042.4169 -179.43234 2460.0 1
1053.2883 -176.9524 2426.0 1
1063.4512 -174.47243 2392.0 1
1081.0958 -173.30539 2376.0 1
1090.4946 -170.89838 2343.0 1
1100.1576 -168.63724 2312.0 1
1116.9545 -167.54314 2297.0 1
1140.8892 -167.54314 2297.0 1
1149.1038 -165.282 2266.0 1
1157.7072 -163.16673 2237.0 1
1158.3151 -160.03032 2194.0 1
1174.1777 -159.08209 2181.0 1
929.28687 -220.8207 2649.0 1
956.8894 -220.8207 2649.0 1
984.49207 -220.8207 2649.0 1
1012.0946 -220.8207 2649.0 1
1008.6907 -214.23524 2570.0 1
1020.15967 -211.06757 2532.0 1
1031.6633 -208.0666 2496.0 1
1050.0443 -206.56613 2478.0 1
1053.2883 -202.2314 2426.0 1
1056.3379 -198.0634 2376.0 1
1081.0958 -198.0634 2376.0 1
1097.9414 -196.64629 2359.0 1
1114.9088 -195.31253 2343.0 1
1124.2485 -192.72836 2312.0 1
1140.8892 -191.47797 2297.0 1
1164.824 -191.47797 2297.0 1
1165.47 -187.72676 2252.0 1
1158.3151 -182.89188 2194.0 1
1174.1777 -181.8082 2181.0 1
936.30304 -250.29884 2669.0 1
964.1139 -250.29884 2669.0 1
991.925 -250.29884 2669.0 1
1012.0946 -248.42325 2649.0 1
1008.6907 -241.01462 2570.0 1
1027.815 -239.2328 2551.0 1
1031.6633 -234.0749 2496.0 1
1042.4169 -230.69882 2460.0 1
1045.9075 -225.91605 2409.0 1
1056.3379 -222.8213 2376.0 1
1081.0958 -222.8213 2376.0 1
1097.9414 -221.22704 2359.0 1
1114.9088 -219.72656 2343.0 1
1131.5425 -218.22607 2327.0 1
1148.3395 -216.81938 2312.0 1
1164.824 -215.41267 2297.0 1
1157.7072 -209.78587 2237.0 1
1158.3151 -205.75334 2194.0 1
1181.1764 -205.75334 2194.0 1
951.03687 -282.4862 2711.0 1
964.1139 -278.1098 2669.0 1
991.925 -278.1098 2669.0 1
1027.7593 -280.298 2690.0 1
1001.2334 -265.8142 2551.0 1
1012.90735 -261.9588 2514.0 1
1024.2234 -258.20758 2478.0 1
1042.4169 -256.332 2460.0 1
1053.2883 -252.7892 2426.0 1
1056.3379 -247.5792 2376.0 1
1081.0958 -247.5792 2376.0 1
1097.9414 -245.8078 2359.0 1
1114.9088 -244.1406 2343.0 1
1139.3228 -244.1406 2343.0 1
1148.3395 -240.9104 2312.0 1
1172.4307 -240.9104 2312.0 1
1172.7153 -236.1172 2266.0 1
1165.7063 -230.0736 2208.0 1
1181.1764 -228.61479 2194.0 1
951.03687 -310.7348 2711.0 1
971.6997 -308.32776 2690.0 1
999.7296 -308.32776 2690.0 1
1012.0946 -303.62836 2649.0 1
1008.6907 -294.57336 2570.0 1
1020.15967 -290.2178 2532.0 1
1024.2234 -284.02832 2478.0 1
1035.2131 -280.01663 2443.0 1
1060.6692 -280.01663 2443.0 1
1063.4512 -274.17102 2392.0 1
1073.3607 -270.38855 2359.0 1
1097.9414 -270.38855 2359.0 1
1114.9088 -268.55463 2343.0 1
1139.3228 -268.55463 2343.0 1
1155.7898 -266.7207 2327.0 1
1180.0372 -266.7207 2327.0 1
1165.47 -258.1242 2252.0 1
1158.3151 -251.47626 2194.0 1
1174.1777 -249.98619 2181.0 1
958.75464 -341.73425 2733.0 1
979.28546 -338.98337 2711.0 1
1015.7104 -341.73425 2733.0 1
1004.45325 -328.7301 2629.0 1
1008.6907 -321.35275 2570.0 1
1027.815 -318.977 2551.0 1
1031.6633 -312.0998 2496.0 1
1042.4169 -307.59836 2460.0 1
1060.6692 -305.47266 2443.0 1
1078.5671 -303.347 2426.0 1
1081.0958 -297.095 2376.0 1
1105.8538 -297.095 2376.0 1
1114.9088 -292.96866 2343.0 1
1139.3228 -292.96866 2343.0 1
1163.7368 -292.96866 2343.0 1
1172.4307 -289.09244 2312.0 1
1172.7153 -283.34058 2266.0 1
1165.7063 -276.08826 2208.0 1
1181.1764 -274.3377 2194.0 1
966.1216 -373.0569 2754.0 1
987.2324 -370.21222 2733.0 1
1032.0629 -376.17245 2777.0 1
1016.1479 -350.706 2589.0 1
1020.15967 -342.98477 2532.0 1
1031.6633 -338.10822 2496.0 1
1042.4169 -333.23163 2460.0 1
1060.6692 -330.92883 2443.0 1
1078.5671 -328.626 2426.0 1
1088.376 -324.02036 2392.0 1
1105.8538 -321.853 2376.0 1
1122.5223 -319.55017 2359.0 1
1139.3228 -317.3828 2343.0 1
1163.7368 -317.3828 2343.0 1
1172.4307 -313.18356 2312.0 1
1188.7587 -311.15167 2297.0 1
1165.7063 -299.0957 2208.0 1
1174.1777 -295.4383 2181.0 1
952.7422 -408.31815 2799.0 1
974.1901 -405.1088 2777.0 1
994.8182 -401.75354 2754.0 1
1008.6907 -374.91162 2570.0 1
1012.90735 -366.74234 2514.0 1
1024.2234 -361.49066 2478.0 1
1042.4169 -358.8648 2460.0 1
1060.6692 -356.38486 2443.0 1
1078.5671 -353.9049 2426.0 1
1088.376 -348.94498 2392.0 1
1105.8538 -346.6109 2376.0 1
1114.9088 -341.79684 2343.0 1
1139.3228 -341.79684 2343.0 1
1155.7898 -339.46277 2327.0 1
1172.4307 -337.27457 2312.0 1
1196.5216 -337.27457 2312.0 1
1158.3151 -320.06073 2194.0 1
1174.1777 -318.1643 2181.0 1
952.7422 -437.4837 2799.0 1
981.9079 -437.4837 2799.0 1
994.8182 -430.4502 2754.0 1
1008.6907 -401.69098 2570.0 1
1012.90735 -392.9382 2514.0 1
1024.2234 -387.3114 2478.0 1
1035.2131 -381.84088 2443.0 1
1053.2883 -379.1838 2426.0 1
1071.0092 -376.5267 2409.0 1
1088.376 -373.8696 2392.0 1
1105.8538 -371.3688 2376.0 1
1122.5223 -368.7117 2359.0 1
1139.3228 -366.2109 2343.0 1
1163.7368 -366.2109 2343.0 1
1188.1509 -366.2109 2343.0 1
1212.565 -366.2109 2343.0 1
1165.7063 -345.11038 2208.0 1
1181.1764 -342.92218 2194.0 1
960.5711 -470.4838 2822.0 1
981.9079 -466.64923 2799.0 1
994.8182 -459.14685 2754.0 1
989.1706 -431.63806 2589.0 1
1008.6907 -428.47037 2570.0 1
1005.655 -416.1331 2496.0 1
1016.78357 -410.13116 2460.0 1
1035.2131 -407.29694 2443.0 1
1053.2883 -404.46268 2426.0 1
1071.0092 -401.62845 2409.0 1
1081.0958 -396.12668 2376.0 1
1097.9414 -393.29245 2359.0 1
1114.9088 -390.62494 2343.0 1
1139.3228 -390.62494 2343.0 1
1155.7898 -387.9574 2327.0 1
1180.0372 -387.9574 2327.0 1
1212.565 -390.62494 2343.0 1
1236.9791 -390.62494 2343.0 1
1181.1764 -365.78366 2194.0 1
938.7551 -503.96323 2845.0 1
960.5711 -499.889 2822.0 1
981.9079 -495.8148 2799.0 1
987.2324 -484.12357 2733.0 1
1008.6907 -455.24973 2570.0 1
1020.15967 -448.51843 2532.0 1
1031.6633 -442.1414 2496.0 1
1028.0094 -429.74158 2426.0 1
1060.6692 -432.75296 2443.0 1
1071.0092 -426.7302 2409.0 1
1081.0958 -420.88458 2376.0 1
1105.8538 -420.88458 2376.0 1
1122.5223 -417.8732 2359.0 1
1139.3228 -415.03897 2343.0 1
1163.7368 -415.03897 2343.0 1
1196.2646 -417.8732 2359.0 1
1229.6433 -420.88458 2376.0 1
1254.4014 -420.88458 2376.0 1
931.1659 -529.2944 2822.0 1
960.5711 -529.2944 2822.0 1
981.9079 -524.98047 2799.0 1
987.2324 -512.6015 2733.0 1
1008.6907 -482.02924 2570.0 1
1020.15967 -474.90195 2532.0 1
1024.2234 -464.7737 2478.0 1
1028.0094 -455.0206 2426.0 1
1053.2883 -455.0206 2426.0 1
1071.0092 -451.8321 2409.0 1
1088.376 -448.64355 2392.0 1
1097.9414 -442.45407 2359.0 1
1122.5223 -442.45407 2359.0 1
1147.103 -442.45407 2359.0 1
1163.7368 -439.45312 2343.0 1
1180.0372 -436.45215 2327.0 1
1212.565 -439.45312 2343.0 1
931.1659 -558.6996 2822.0 1
960.5711 -558.6996 2822.0 1
981.9079 -554.14606 2799.0 1
1027.815 -505.047 2551.0 1
1031.6633 -494.15808 2496.0 1
1035.2131 -483.66516 2443.0 1
1060.6692 -483.66516 2443.0 1
1071.0092 -476.93384 2409.0 1
1088.376 -473.56818 2392.0 1
1105.8538 -470.40048 2376.0 1
1130.6117 -470.40048 2376.0 1
1155.3696 -470.40048 2376.0 1
1171.6837 -467.03482 2359.0 1
1196.2646 -467.03482 2359.0 1
1229.6433 -470.40048 2376.0 1
1043.1254 -539.5476 2589.0 1
1039.1031 -523.9176 2514.0 1
1035.2131 -509.1212 2443.0 1
1060.6692 -509.1212 2443.0 1
1078.5671 -505.5784 2426.0 1
1088.376 -498.4928 2392.0 1
1105.8538 -495.1584 2376.0 1
1122.5223 -491.6156 2359.0 1
1155.3696 -495.1584 2376.0 1
1171.6837 -491.6156 2359.0 1
1196.2646 -491.6156 2359.0 1
1229.6433 -495.1584 2376.0 1
1262.8485 -498.4928 2392.0 1
1072.666 -598.03503 2733.0 1
1075.3579 -584.0305 2669.0 1
1054.3962 -558.2098 2551.0 1
1050.0443 -542.2359 2478.0 1
1060.6692 -534.5772 2443.0 1
1078.5671 -530.8573 2426.0 1
1088.376 -523.4174 2392.0 1
1105.8538 -519.91626 2376.0 1
1130.6117 -519.91626 2376.0 1
1147.103 -516.19635 2359.0 1
1171.6837 -516.19635 2359.0 1
1204.8855 -519.91626 2376.0 1
1220.8453 -516.19635 2359.0 1
1064.0312 -621.4696 2711.0 1
1075.3579 -611.8415 2669.0 1
1062.2495 -589.1467 2570.0 1
1050.0443 -568.05664 2478.0 1
1060.6692 -560.03326 2443.0 1
1086.1251 -560.03326 2443.0 1
1096.1111 -552.2391 2409.0 1
1105.8538 -544.6742 2376.0 1
1122.5223 -540.7771 2359.0 1
1147.103 -540.7771 2359.0 1
1171.6837 -540.7771 2359.0 1
1204.8855 -544.6742 2376.0 1
1229.6433 -544.6742 2376.0 1
1083.819 -644.6854 2690.0 1
1086.6357 -630.06616 2629.0 1
1065.2992 -602.50525 2514.0 1
1068.0499 -589.56366 2460.0 1
1086.1251 -585.48944 2443.0 1
1103.8462 -581.4152 2426.0 1
1113.3005 -573.2668 2392.0 1
1130.6117 -569.4322 2376.0 1
1155.3696 -569.4322 2376.0 1
1180.1274 -569.4322 2376.0 1
1204.8855 -569.4322 2376.0 1
1229.6433 -569.4322 2376.0 1
1101.1439 -683.4686 2733.0 1
1103.1688 -667.46356 2669.0 1
1057.6718 -624.1997 2496.0 1
1075.865 -619.69824 2478.0 1
1093.6831 -615.19684 2460.0 1
1103.8462 -606.6941 2426.0 1
1121.2128 -602.44275 2409.0 1
1138.2252 -598.19135 2392.0 1
1155.3696 -594.19006 2376.0 1
1180.1274 -594.19006 2376.0 1
1204.8855 -594.19006 2376.0 1
1229.6433 -594.19006 2376.0 1
1118.8718 -723.4085 2777.0 1
1129.6217 -711.9465 2733.0 1
1065.2992 -654.897 2514.0 1
1075.865 -645.519 2478.0 1
1093.6831 -640.83 2460.0 1
1103.8462 -631.97296 2426.0 1
1121.2128 -627.5445 2409.0 1
1138.2252 -623.11597 2392.0 1
1163.1499 -623.11597 2392.0 1
1188.0745 -623.11597 2392.0 1
1221.62 -627.5445 2409.0 1
1155.9392 -777.2694 2869.0 1
1156.9012 -758.30505 2799.0 1
1072.9266 -685.9694 2532.0 1
1083.6799 -676.2163 2496.0 1
1086.1251 -661.85754 2443.0 1
1111.5813 -661.85754 2443.0 1
1129.125 -657.2519 2426.0 1
1146.3147 -652.64624 2409.0 1
1171.4164 -652.64624 2409.0 1
1188.0745 -648.0406 2392.0 1
1165.609 -813.91656 2893.0 1
1166.4078 -793.9414 2822.0 1
1065.2992 -707.2887 2514.0 1
1083.6799 -702.22455 2496.0 1
1101.6857 -697.16046 2478.0 1
1119.3164 -692.0963 2460.0 1
1137.0374 -687.31354 2443.0 1
1154.404 -682.53076 2426.0 1
1179.6829 -682.53076 2426.0 1
1213.4054 -687.31354 2443.0 1
1165.609 -844.0617 2893.0 1
1062.2495 -749.82324 2570.0 1
1057.6718 -728.233 2496.0 1
1083.6799 -728.233 2496.0 1
1101.6857 -722.9813 2478.0 1
1119.3164 -717.7296 2460.0 1
1129.125 -707.8098 2426.0 1
1162.4934 -712.7697 2443.0 1
1187.9495 -712.7697 2443.0 1
1213.4054 -712.7697 2443.0 1
1165.609 -874.2067 2893.0 1
1062.2495 -776.6026 2570.0 1
1065.2992 -759.68054 2514.0 1
1083.6799 -754.2413 2496.0 1
1101.6857 -748.80206 2478.0 1
1111.5813 -738.22577 2443.0 1
1137.0374 -738.22577 2443.0 1
1162.4934 -738.22577 2443.0 1
1196.216 -743.3628 2460.0 1
1175.2788 -911.8542 2917.0 1
1054.3962 -797.44257 2551.0 1
1065.2992 -785.8764 2514.0 1
1083.6799 -780.2496 2496.0 1
1109.6882 -780.2496 2496.0 1
1119.3164 -768.996 2460.0 1
1137.0374 -763.68176 2443.0 1
1170.5829 -768.996 2460.0 1
1213.7216 -780.2496 2496.0 1
1035.4701 -830.1614 2570.0 1
1054.3962 -824.024 2551.0 1
1065.2992 -812.07227 2514.0 1
1083.6799 -806.2579 2496.0 1
1109.6882 -806.2579 2496.0 1
1127.5066 -800.44354 2478.0 1
1153.3273 -800.44354 2478.0 1
1187.7134 -806.2579 2496.0 1
1043.1254 -863.2761 2589.0 1
1046.5431 -844.27 2532.0 1
1057.6718 -832.2662 2496.0 1
1091.495 -838.26807 2514.0 1
1109.6882 -832.2662 2496.0 1
1135.6967 -832.2662 2496.0 1
1161.705 -832.2662 2496.0 1
1187.7134 -832.2662 2496.0 1
1016.1479 -890.2536 2589.0 1
1027.815 -877.1869 2551.0 1
1039.1031 -864.46405 2514.0 1
1057.6718 -858.2746 2496.0 1
1091.495 -864.46405 2514.0 1
1109.6882 -858.2746 2496.0 1
1135.6967 -858.2746 2496.0 1
1153.3273 -852.08514 2478.0 1
1008.6907 -910.49963 2570.0 1
1012.90735 -890.6599 2514.0 1
1031.6633 -884.2829 2496.0 1
1057.6718 -884.2829 2496.0 1
1083.6799 -884.2829 2496.0 1
1109.6882 -884.2829 2496.0 1
1135.6967 -884.2829 2496.0 1
1153.3273 -877.9058 2478.0 1
974.65204 -930.3497 2551.0 1
1001.2334 -930.3497 2551.0 1
1012.90735 -916.8558 2514.0 1
1031.6633 -910.2912 2496.0 1
1057.6718 -910.2912 2496.0 1
1083.6799 -910.2912 2496.0 1
1117.6908 -916.8558 2514.0 1
1143.8867 -916.8558 2514.0 1
974.65204 -956.9311 2551.0 1
993.7762 -949.8038 2532.0 1
1012.90735 -943.05164 2514.0 1
1031.6633 -936.2995 2496.0 1
1050.0443 -929.5473 2478.0 1
1083.6799 -936.2995 2496.0 1
1117.6908 -943.05164 2514.0 1
955.13196 -990.8377 2570.0 1
974.65204 -983.51245 2551.0 1
986.71136 -969.2475 2514.0 1
1005.655 -962.3078 2496.0 1
1031.6633 -962.3078 2496.0 1
1050.0443 -955.36804 2478.0 1
1083.6799 -962.3078 2496.0 1
948.0707 -1010.094 2551.0 1
967.39276 -1002.57074 2532.0 1
986.71136 -995.4435 2514.0 1
1012.90735 -995.4435 2514.0 1
1031.6633 -988.31616 2496.0 1
1050.0443 -981.1889 2478.0 1
1075.865 -981.1889 2478.0 1
928.3525 -1044.3966 2570.0 1
948.0707 -1036.6754 2551.0 1
960.51556 -1021.63934 2514.0 1
979.6466 -1014.32446 2496.0 1
1005.655 -1014.32446 2496.0 1
1031.6633 -1014.32446 2496.0 1
