ply
format ascii 1.0
comment : created from Kinect user tracker
element vertex 838
property float x
property float y
property float z
property int userId
end_header
550.17596 268.2108 1980.0 1
567.6364 266.72073 1969.0 1
584.8677 265.23065 1958.0 1
608.67035 266.72073 1969.0 1
550.17596 247.57921 1980.0 1
564.4652 244.82832 1958.0 1
581.5819 243.45288 1947.0 1
598.4692 242.07744 1936.0 1
635.18585 240.70201 1925.0 1
658.9885 242.07744 1936.0 1
511.99707 228.32301 1992.0 1
532.7538 228.32301 1992.0 1
547.11945 225.68675 1969.0 1
564.4652 224.42593 1958.0 1
578.29614 221.9043 1936.0 1
598.4692 221.9043 1936.0 1
615.1274 220.64348 1925.0 1
631.88617 219.49728 1915.0 1
651.8404 219.49728 1915.0 1
675.30286 220.64348 1925.0 1
695.36127 220.64348 1925.0 1
731.77234 225.68675 1969.0 1
511.95544 216.3192 2076.0 1
517.9087 209.963 2015.0 1
526.60254 205.1698 1969.0 1
544.0629 204.02359 1958.0 1
561.29407 202.8774 1947.0 1
578.29614 201.7312 1936.0 1
595.0688 200.58499 1925.0 1
605.22144 197.3548 1894.0 1
628.25653 198.39679 1904.0 1
644.69226 197.3548 1894.0 1
671.7948 199.543 1915.0 1
691.749 199.543 1915.0 1
715.41986 200.58499 1925.0 1
743.8838 202.8774 1947.0 1
499.87173 190.09207 2027.0 1
517.9087 188.96672 2015.0 1
529.54443 185.68442 1980.0 1
547.11945 184.65283 1969.0 1
561.29407 182.58968 1947.0 1
578.29614 181.55809 1936.0 1
591.97754 179.58871 1915.0 1
611.9319 179.58871 1915.0 1
635.18585 180.52652 1925.0 1
644.69226 177.61934 1894.0 1
675.30286 180.52652 1925.0 1
695.36127 180.52652 1925.0 1
496.91245 167.97038 2015.0 1
508.91275 165.05278 1980.0 1
529.54443 165.05278 1980.0 1
547.11945 164.13583 1969.0 1
561.29407 162.30191 1947.0 1
578.29614 161.38495 1936.0 1
598.4692 161.38495 1936.0 1
615.1274 160.46799 1925.0 1
635.18585 160.46799 1925.0 1
655.24426 160.46799 1925.0 1
679.16174 161.38495 1936.0 1
707.2818 163.21887 1958.0 1
499.87173 147.84938 2027.0 1
514.8244 146.09883 2003.0 1
526.60254 143.61887 1969.0 1
541.0064 142.01419 1947.0 1
561.29407 142.01419 1947.0 1
575.0104 140.4095 1925.0 1
595.0688 140.4095 1925.0 1
615.1274 140.4095 1925.0 1
635.18585 140.4095 1925.0 1
658.9885 141.21185 1936.0 1
686.87946 142.81653 1958.0 1
711.25525 143.61887 1969.0 1
496.91245 125.977776 2015.0 1
517.9087 125.977776 2015.0 1
529.54443 123.78958 1980.0 1
541.0064 121.72642 1947.0 1
558.1229 121.0387 1936.0 1
575.0104 120.350975 1925.0 1
595.0688 120.350975 1925.0 1
611.9319 119.72578 1915.0 1
631.88617 119.72578 1915.0 1
666.47705 122.41414 1958.0 1
690.73834 123.10186 1969.0 1
727.8717 125.977776 2015.0 1
502.83102 106.231895 2039.0 1
511.99707 103.783195 1992.0 1
529.54443 103.158 1980.0 1
544.0629 102.011795 1958.0 1
558.1229 100.8656 1936.0 1
584.8677 102.011795 1958.0 1
605.26996 102.011795 1958.0 1
615.1274 100.292496 1925.0 1
642.44507 101.4387 1947.0 1
670.22125 102.5849 1969.0 1
698.8069 103.783195 1992.0 1
732.2064 105.6067 2027.0 1
499.87173 84.48538 2027.0 1
514.8244 83.48506 2003.0 1
535.69574 83.48506 2003.0 1
547.11945 82.06794 1969.0 1
564.4652 81.60946 1958.0 1
588.15344 82.06794 1969.0 1
608.67035 82.06794 1969.0 1
625.6724 81.60946 1958.0 1
649.70435 82.06794 1969.0 1
678.0502 83.02658 1992.0 1
706.8754 83.98522 2015.0 1
727.8717 83.98522 2015.0 1
446.94504 68.17805 2181.0 1
463.64142 67.302765 2153.0 1
480.2057 66.490005 2127.0 1
499.29855 66.083626 2114.0 1
508.74957 64.48937 2063.0 1
520.99304 63.36401 2027.0 1
535.69574 62.61377 2003.0 1
550.17596 61.89479 1980.0 1
567.6364 61.55093 1969.0 1
588.15344 61.55093 1969.0 1
619.18066 62.61377 2003.0 1
636.537 62.26991 1992.0 1
660.9232 62.61377 2003.0 1
685.8791 62.988888 2015.0 1
711.08514 63.36401 2027.0 1
409.22458 46.32733 2223.0 1
426.74765 45.72297 2194.0 1
438.54303 44.59761 2140.0 1
455.2429 44.05577 2114.0 1
474.33575 43.78485 2101.0 1
490.32346 43.26385 2076.0 1
508.74957 42.992928 2063.0 1
524.07733 42.49277 2039.0 1
538.9051 41.99261 2015.0 1
553.5104 41.51329 1992.0 1
580.8976 41.99261 2015.0 1
601.8939 41.99261 2015.0 1
626.59973 42.24269 2027.0 1
647.7211 42.24269 2027.0 1
668.8424 42.24269 2027.0 1
694.04834 42.49277 2039.0 1
391.09732 23.465816 2252.0 1
406.4633 23.007338 2208.0 1
418.7729 22.434238 2153.0 1
433.21494 22.027859 2114.0 1
452.4434 21.892399 2101.0 1
468.6916 21.631899 2076.0 1
487.25302 21.496439 2063.0 1
499.87173 21.121319 2027.0 1
517.9087 20.996279 2015.0 1
535.69574 20.87124 2003.0 1
553.5104 20.75662 1992.0 1
580.8976 20.996279 2015.0 1
605.47845 21.121319 2027.0 1
668.8424 21.121319 2027.0 1
388.49234 0.0 2237.0 1
401.49295 0.0 2181.0 1
413.7157 0.0 2127.0 1
430.5509 0.0 2101.0 1
447.05972 0.0 2076.0 1
465.75662 0.0 2063.0 1
481.58456 0.0 2039.0 1
496.91245 0.0 2015.0 1
514.8244 0.0 2003.0 1
529.54443 0.0 1980.0 1
547.11945 0.0 1969.0 1
567.6364 0.0 1969.0 1
601.8939 0.0 2015.0 1
383.456 -23.007338 2208.0 1
398.91574 -22.580118 2167.0 1
411.1871 -22.027859 2114.0 1
430.5509 -21.892399 2101.0 1
447.05972 -21.631899 2076.0 1
463.04742 -21.371399 2051.0 1
475.91608 -20.996279 2015.0 1
493.95316 -20.87124 2003.0 1
508.91275 -20.63158 1980.0 1
526.60254 -20.51696 1969.0 1
544.0629 -20.40234 1958.0 1
561.29407 -20.28772 1947.0 1
588.15344 -20.51696 1969.0 1
383.456 -46.014675 2208.0 1
396.33853 -44.868477 2153.0 1
411.1871 -44.055717 2114.0 1
430.5509 -43.784798 2101.0 1
444.26022 -42.992878 2063.0 1
460.33823 -42.492718 2039.0 1
473.08182 -41.74248 2003.0 1
488.28122 -41.26316 1980.0 1
503.25818 -40.80468 1958.0 1
520.7187 -40.57544 1947.0 1
537.9498 -40.3462 1936.0 1
554.9518 -40.116962 1925.0 1
578.29614 -40.3462 1936.0 1
595.0688 -40.116962 1925.0 1
374.97766 -71.80427 2297.0 1
391.09732 -70.39756 2252.0 1
396.33853 -67.30282 2153.0 1
408.65854 -65.6773 2101.0 1
425.42773 -64.8958 2076.0 1
444.26022 -64.48942 2063.0 1
457.62903 -63.36406 2027.0 1
473.08182 -62.61382 2003.0 1
488.28122 -61.894836 1980.0 1
500.43088 -60.86326 1947.0 1
517.7768 -60.519398 1936.0 1
537.9498 -60.519398 1936.0 1
554.9518 -60.175537 1925.0 1
572.02325 -59.862938 1915.0 1
588.57715 -59.519077 1904.0 1
608.4169 -59.519077 1904.0 1
365.56134 -99.698586 2392.0 1
379.87506 -96.98938 2327.0 1
386.061 -92.65466 2223.0 1
391.55228 -88.65338 2127.0 1
408.65854 -87.5697 2101.0 1
425.42773 -86.5277 2076.0 1
439.0919 -84.98554 2039.0 1
454.91983 -83.98522 2015.0 1
470.48376 -83.02658 1992.0 1
485.56854 -82.06794 1969.0 1
500.43088 -81.15098 1947.0 1
514.8349 -80.23402 1925.0 1
534.8933 -80.23402 1925.0 1
552.0689 -79.817215 1915.0 1
565.7504 -78.94194 1894.0 1
585.4859 -78.94194 1894.0 1
605.22144 -78.94194 1894.0 1
624.95685 -78.94194 1894.0 1
382.487 -122.0703 2343.0 1
381.02466 -114.307396 2194.0 1
389.15915 -110.1394 2114.0 1
408.65854 -109.4621 2101.0 1
425.42773 -108.1596 2076.0 1
436.50775 -105.6067 2027.0 1
454.91983 -104.9815 2015.0 1
467.64954 -103.158 1980.0 1
482.85587 -102.011795 1958.0 1
497.60358 -100.8656 1936.0 1
512.1604 -99.7715 1915.0 1
529.0581 -99.198395 1904.0 1
546.0149 -98.6774 1894.0 1
565.7504 -98.6774 1894.0 1
582.08545 -98.1043 1883.0 1
605.22144 -98.6774 1894.0 1
624.95685 -98.6774 1894.0 1
376.33566 -135.48082 2167.0 1
391.55228 -132.98001 2127.0 1
408.65854 -131.35449 2101.0 1
422.76367 -128.97874 2063.0 1
439.0919 -127.47826 2039.0 1
449.7272 -124.53982 1992.0 1
465.05148 -123.10186 1969.0 1
480.1432 -121.72642 1947.0 1
494.7763 -120.350975 1925.0 1
512.1604 -119.72578 1915.0 1
526.2795 -118.41286 1894.0 1
546.0149 -118.41286 1894.0 1
562.46466 -117.725136 1883.0 1
582.08545 -117.725136 1883.0 1
601.7064 -117.725136 1883.0 1
624.95685 -118.41286 1894.0 1
648.0961 -119.038055 1904.0 1
373.90433 -157.03978 2153.0 1
391.55228 -155.14334 2127.0 1
406.12994 -152.29868 2088.0 1
422.76367 -150.47517 2063.0 1
436.50775 -147.84933 2027.0 1
452.21063 -146.09877 2003.0 1
465.05148 -143.61882 1969.0 1
480.1432 -142.01414 1947.0 1
494.7763 -140.40945 1925.0 1
512.1604 -139.68005 1915.0 1
526.2795 -138.14832 1894.0 1
546.0149 -138.14832 1894.0 1
562.46466 -137.34598 1883.0 1
582.08545 -137.34598 1883.0 1
601.7064 -137.34598 1883.0 1
624.95685 -138.14832 1894.0 1
648.0961 -138.87772 1904.0 1
373.90433 -179.47412 2153.0 1
391.55228 -177.30676 2127.0 1
408.65854 -175.1394 2101.0 1
422.76367 -171.97171 2063.0 1
433.92358 -167.97044 2015.0 1
452.21063 -166.97012 2003.0 1
465.05148 -164.13588 1969.0 1
480.1432 -162.30196 1947.0 1
494.7763 -160.46803 1925.0 1
512.1604 -159.63443 1915.0 1
526.2795 -157.88388 1894.0 1
542.84375 -156.96692 1883.0 1
562.46466 -156.96692 1883.0 1
582.08545 -156.96692 1883.0 1
605.22144 -157.88388 1894.0 1
628.25653 -158.71747 1904.0 1
373.90433 -201.90836 2153.0 1
393.9454 -200.68922 2140.0 1
408.65854 -197.0318 2101.0 1
422.76367 -193.46815 2063.0 1
436.50775 -190.09207 2027.0 1
454.91983 -188.96672 2015.0 1
465.05148 -184.65283 1969.0 1
480.1432 -182.58968 1947.0 1
494.7763 -180.52652 1925.0 1
509.2185 -178.55713 1904.0 1
526.2795 -177.61934 1894.0 1
542.84375 -176.58775 1883.0 1
562.46466 -176.58775 1883.0 1
582.08545 -176.58775 1883.0 1
605.22144 -177.61934 1894.0 1
628.25653 -178.55713 1904.0 1
373.90433 -224.34259 2153.0 1
393.9454 -222.98799 2140.0 1
408.65854 -218.9242 2101.0 1
422.76367 -214.9646 2063.0 1
439.0919 -212.46379 2039.0 1
454.91983 -209.963 2015.0 1
467.64954 -206.316 1980.0 1
485.56854 -205.1698 1969.0 1
497.60358 -201.7312 1936.0 1
512.1604 -199.543 1915.0 1
526.2795 -197.3548 1894.0 1
542.84375 -196.2086 1883.0 1
565.7504 -197.3548 1894.0 1
585.4859 -197.3548 1894.0 1
605.22144 -197.3548 1894.0 1
628.25653 -198.39679 1904.0 1
373.90433 -246.77684 2153.0 1
391.55228 -243.7967 2127.0 1
408.65854 -240.81659 2101.0 1
422.76367 -236.46103 2063.0 1
436.50775 -232.33472 2027.0 1
454.91983 -230.95927 2015.0 1
470.48376 -228.32301 1992.0 1
485.56854 -225.68675 1969.0 1
497.60358 -221.9043 1936.0 1
509.2185 -218.23645 1904.0 1
526.2795 -217.09026 1894.0 1
546.0149 -217.09026 1894.0 1
565.7504 -217.09026 1894.0 1
582.08545 -215.82944 1883.0 1
605.22144 -217.09026 1894.0 1
628.25653 -218.23645 1904.0 1
353.75558 -270.96164 2167.0 1
373.90433 -269.21106 2153.0 1
393.9454 -267.58554 2140.0 1
408.65854 -262.70898 2101.0 1
420.30457 -256.457 2051.0 1
439.0919 -254.95651 2039.0 1
454.91983 -251.95555 2015.0 1
475.91608 -251.95555 2015.0 1
488.28122 -247.57916 1980.0 1
503.25818 -244.82828 1958.0 1
509.2185 -238.07611 1904.0 1
526.2795 -236.82571 1894.0 1
542.84375 -235.45027 1883.0 1
565.7504 -236.82571 1894.0 1
582.08545 -235.45027 1883.0 1
605.22144 -236.82571 1894.0 1
628.25653 -238.07611 1904.0 1
353.75558 -293.54187 2167.0 1
373.90433 -291.64542 2153.0 1
393.9454 -289.88443 2140.0 1
408.65854 -284.6015 2101.0 1
422.76367 -279.454 2063.0 1
439.0919 -276.20297 2039.0 1
457.62903 -274.57745 2027.0 1
475.91608 -272.95193 2015.0 1
491.2405 -269.83636 1992.0 1
506.08548 -266.72076 1969.0 1
512.1604 -259.40594 1915.0 1
526.2795 -256.56128 1894.0 1
546.0149 -256.56128 1894.0 1
565.7504 -256.56128 1894.0 1
585.4859 -256.56128 1894.0 1
605.22144 -256.56128 1894.0 1
628.25653 -257.91586 1904.0 1
358.16324 -320.06073 2194.0 1
373.90433 -314.07965 2153.0 1
391.55228 -310.28677 2127.0 1
408.65854 -306.4939 2101.0 1
422.76367 -300.95047 2063.0 1
441.67606 -299.1999 2051.0 1
460.33823 -297.44934 2039.0 1
475.91608 -293.9482 2015.0 1
493.95316 -292.19766 2003.0 1
506.08548 -287.23773 1969.0 1
509.2185 -277.75552 1904.0 1
526.2795 -276.29672 1894.0 1
546.0149 -276.29672 1894.0 1
565.7504 -276.29672 1894.0 1
588.57715 -277.75552 1904.0 1
605.22144 -276.29672 1894.0 1
362.8974 -347.4549 2223.0 1
373.90433 -336.5139 2153.0 1
391.55228 -332.4501 2127.0 1
411.1871 -330.41818 2114.0 1
422.76367 -322.4469 2063.0 1
441.67606 -320.5713 2051.0 1
460.33823 -318.6957 2039.0 1
478.7503 -316.8201 2027.0 1
493.95316 -313.0689 2003.0 1
506.08548 -307.7547 1969.0 1
512.1604 -299.31448 1915.0 1
526.2795 -296.0322 1894.0 1
542.84375 -294.3129 1883.0 1
565.7504 -296.0322 1894.0 1
588.57715 -297.59518 1904.0 1
362.8974 -370.61853 2223.0 1
373.90433 -358.94812 2153.0 1
391.55228 -354.6134 2127.0 1
408.65854 -350.2787 2101.0 1
422.76367 -343.94333 2063.0 1
441.67606 -341.9427 2051.0 1
460.33823 -339.94205 2039.0 1
478.7503 -337.9414 2027.0 1
493.95316 -333.94012 2003.0 1
508.91275 -330.10556 1980.0 1
509.2185 -317.43484 1904.0 1
526.2795 -315.76767 1894.0 1
546.0149 -315.76767 1894.0 1
568.7375 -317.43484 1904.0 1
588.57715 -317.43484 1904.0 1
346.30518 -401.3992 2266.0 1
362.8974 -393.78217 2223.0 1
376.33566 -383.86234 2167.0 1
391.55228 -376.77673 2127.0 1
408.65854 -372.17108 2101.0 1
425.42773 -367.74258 2076.0 1
439.0919 -361.18842 2039.0 1
460.33823 -361.18842 2039.0 1
478.7503 -359.06274 2027.0 1
499.87173 -359.06274 2027.0 1
506.08548 -348.7886 1969.0 1
512.1604 -339.22305 1915.0 1
526.2795 -335.5031 1894.0 1
546.0149 -335.5031 1894.0 1
568.7375 -337.2745 1904.0 1
588.57715 -337.2745 1904.0 1
341.87323 -419.57175 2237.0 1
360.4487 -414.1325 2208.0 1
373.90433 -403.8167 2153.0 1
391.55228 -398.94016 2127.0 1
408.65854 -394.0636 2101.0 1
422.76367 -386.9363 2063.0 1
441.67606 -384.6856 2051.0 1
460.33823 -382.43488 2039.0 1
478.7503 -380.18414 2027.0 1
499.87173 -380.18414 2027.0 1
508.91275 -371.36884 1980.0 1
512.1604 -359.17743 1915.0 1
526.2795 -355.23868 1894.0 1
546.0149 -355.23868 1894.0 1
565.7504 -355.23868 1894.0 1
585.4859 -355.23868 1894.0 1
339.73364 -440.10956 2223.0 1
358.16324 -434.36813 2194.0 1
373.90433 -426.25095 2153.0 1
389.15915 -418.52972 2114.0 1
408.65854 -415.956 2101.0 1
425.42773 -411.0065 2076.0 1
439.0919 -403.68124 2039.0 1
460.33823 -403.68124 2039.0 1
478.7503 -401.30548 2027.0 1
496.91245 -398.92972 2015.0 1
508.91275 -392.00043 1980.0 1
514.8349 -381.1115 1925.0 1
526.2795 -374.97412 1894.0 1
546.0149 -374.97412 1894.0 1
565.7504 -374.97412 1894.0 1
585.4859 -374.97412 1894.0 1
337.44125 -460.1472 2208.0 1
353.75558 -451.60278 2167.0 1
373.90433 -448.68518 2153.0 1
389.15915 -440.5576 2114.0 1
408.65854 -437.8484 2101.0 1
422.76367 -429.9292 2063.0 1
441.67606 -427.4284 2051.0 1
460.33823 -424.92758 2039.0 1
478.7503 -422.4268 2027.0 1
496.91245 -419.926 2015.0 1
508.91275 -412.632 1980.0 1
512.1604 -399.086 1915.0 1
526.2795 -394.7096 1894.0 1
546.0149 -394.7096 1894.0 1
565.7504 -394.7096 1894.0 1
588.57715 -396.79358 1904.0 1
339.73364 -486.43683 2223.0 1
353.75558 -474.18292 2167.0 1
371.64667 -468.27478 2140.0 1
389.15915 -462.58545 2114.0 1
403.79587 -454.2703 2076.0 1
422.76367 -451.42563 2063.0 1
441.67606 -448.7998 2051.0 1
460.33823 -446.17395 2039.0 1
478.7503 -443.54813 2027.0 1
496.91245 -440.92227 2015.0 1
517.9087 -440.92227 2015.0 1
514.8349 -421.2285 1925.0 1
529.0581 -416.63324 1904.0 1
546.0149 -414.44507 1894.0 1
565.7504 -414.44507 1894.0 1
588.57715 -416.63324 1904.0 1
618.6424 -423.6355 1936.0 1
339.73364 -509.60046 2223.0 1
353.75558 -496.76303 2167.0 1
371.64667 -490.57355 2140.0 1
389.15915 -484.6133 2114.0 1
403.79587 -475.9022 2076.0 1
420.30457 -470.1712 2051.0 1
439.0919 -467.42032 2039.0 1
460.33823 -467.42032 2039.0 1
475.91608 -461.91855 2015.0 1
496.91245 -461.91855 2015.0 1
517.9087 -461.91855 2015.0 1
532.7538 -456.64603 1992.0 1
534.8933 -441.28696 1925.0 1
548.89777 -436.4729 1904.0 1
568.7375 -436.4729 1904.0 1
588.57715 -436.4729 1904.0 1
611.9319 -438.99457 1915.0 1
339.73364 -532.7642 2223.0 1
353.75558 -519.34326 2167.0 1
371.64667 -512.87244 2140.0 1
389.15915 -506.64127 2114.0 1
406.12994 -500.41013 2088.0 1
422.76367 -494.4186 2063.0 1
436.50775 -485.79086 2027.0 1
460.33823 -488.66678 2039.0 1
478.7503 -485.79086 2027.0 1
499.87173 -485.79086 2027.0 1
517.9087 -482.91492 2015.0 1
538.9051 -482.91492 2015.0 1
544.0629 -469.2543 1958.0 1
552.0689 -458.94894 1915.0 1
568.7375 -456.31268 1904.0 1
588.57715 -456.31268 1904.0 1
608.4169 -456.31268 1904.0 1
635.18585 -461.34552 1925.0 1
339.73364 -555.92786 2223.0 1
356.04105 -545.4245 2181.0 1
373.90433 -538.42224 2153.0 1
389.15915 -528.6691 2114.0 1
406.12994 -522.16705 2088.0 1
422.76367 -515.91504 2063.0 1
441.67606 -512.91406 2051.0 1
457.62903 -506.91217 2027.0 1
478.7503 -506.91217 2027.0 1
499.87173 -506.91217 2027.0 1
520.99304 -506.91217 2027.0 1
542.11444 -506.91217 2027.0 1
559.9013 -503.91122 2015.0 1
558.1229 -484.15488 1936.0 1
572.02325 -478.9032 1915.0 1
591.97754 -478.9032 1915.0 1
611.9319 -478.9032 1915.0 1
638.8154 -484.15488 1936.0 1
341.87323 -582.73846 2237.0 1
360.4487 -575.18396 2208.0 1
373.90433 -560.8565 2153.0 1
389.15915 -550.69696 2114.0 1
408.65854 -547.3105 2101.0 1
425.42773 -540.798 2076.0 1
441.67606 -534.28546 2051.0 1
463.04742 -534.28546 2051.0 1
481.58456 -531.1595 2039.0 1
499.87173 -528.0335 2027.0 1
520.99304 -528.0335 2027.0 1
542.11444 -528.0335 2027.0 1
566.5701 -531.1595 2039.0 1
584.357 -528.0335 2027.0 1
575.0104 -501.4625 1925.0 1
595.0688 -501.4625 1925.0 1
615.1274 -501.4625 1925.0 1
638.8154 -504.328 1936.0 1
662.7328 -507.19348 1947.0 1
341.87323 -606.04803 2237.0 1
360.4487 -598.19135 2208.0 1
376.33566 -587.0836 2167.0 1
389.15915 -572.72485 2114.0 1
408.65854 -569.2029 2101.0 1
425.42773 -562.4299 2076.0 1
444.26022 -558.90796 2063.0 1
465.75662 -558.90796 2063.0 1
484.4188 -555.65686 2051.0 1
502.83102 -552.4058 2039.0 1
524.07733 -552.4058 2039.0 1
548.53314 -555.65686 2051.0 1
569.90454 -555.65686 2051.0 1
594.73535 -558.90796 2063.0 1
609.0629 -552.4058 2039.0 1
598.4692 -524.5011 1936.0 1
618.6424 -524.5011 1936.0 1
638.8154 -524.5011 1936.0 1
662.7328 -527.4812 1947.0 1
686.87946 -530.4613 1958.0 1
351.04282 -646.2379 2297.0 1
365.18283 -629.35754 2237.0 1
381.02466 -617.2599 2194.0 1
396.33853 -605.725 2153.0 1
408.65854 -591.0953 2101.0 1
425.42773 -584.06177 2076.0 1
444.26022 -580.40436 2063.0 1
465.75662 -580.40436 2063.0 1
484.4188 -577.02826 2051.0 1
505.79028 -577.02826 2051.0 1
524.07733 -573.6522 2039.0 1
548.53314 -577.02826 2051.0 1
569.90454 -577.02826 2051.0 1
598.48303 -584.06177 2076.0 1
616.2319 -580.40436 2063.0 1
601.86957 -547.7689 1947.0 1
618.6424 -544.6742 1936.0 1
638.8154 -544.6742 1936.0 1
658.9885 -544.6742 1936.0 1
686.87946 -550.86365 1958.0 1
711.25525 -553.95844 1969.0 1
353.3352 -674.54913 2312.0 1
369.917 -661.1282 2266.0 1
388.49234 -652.6672 2237.0 1
401.49295 -636.3286 2181.0 1
416.2443 -624.36646 2140.0 1
430.5509 -612.9878 2101.0 1
449.6439 -609.1949 2088.0 1
468.6916 -605.6938 2076.0 1
487.25302 -601.90094 2063.0 1
505.79028 -598.3998 2051.0 1
527.1617 -598.3998 2051.0 1
548.53314 -598.3998 2051.0 1
573.23895 -601.90094 2063.0 1
594.73535 -601.90094 2063.0 1
620.11505 -605.6938 2076.0 1
649.4751 -612.9878 2101.0 1
683.8299 -624.36646 2140.0 1
646.0747 -571.2661 1958.0 1
666.47705 -571.2661 1958.0 1
690.73834 -574.47546 1969.0 1
711.25525 -574.47546 1969.0 1
735.8604 -577.6848 1980.0 1
358.07285 -708.00775 2343.0 1
372.3657 -689.2726 2281.0 1
393.52866 -684.73987 2266.0 1
409.22458 -671.74615 2223.0 1
424.21906 -659.05457 2181.0 1
435.879 -642.7369 2127.0 1
452.4434 -634.8802 2101.0 1
471.4008 -630.95184 2088.0 1
487.25302 -623.39734 2063.0 1
508.74957 -623.39734 2063.0 1
530.246 -623.39734 2063.0 1
551.7425 -623.39734 2063.0 1
576.8512 -627.3257 2076.0 1
598.48303 -627.3257 2076.0 1
623.6995 -630.95184 2088.0 1
653.4937 -638.80853 2114.0 1
679.6758 -642.7369 2127.0 1
649.70435 -594.99243 1969.0 1
670.22125 -594.99243 1969.0 1
690.73834 -594.99243 1969.0 1
711.25525 -594.99243 1969.0 1
740.3202 -601.94257 1992.0 1
358.07285 -732.4218 2343.0 1
372.3657 -713.0406 2281.0 1
393.52866 -708.35156 2266.0 1
417.14032 -708.35156 2266.0 1
435.11145 -699.2862 2237.0 1
444.07605 -677.4042 2167.0 1
455.2429 -660.83636 2114.0 1
477.27072 -660.83636 2114.0 1
490.32346 -648.9576 2076.0 1
511.95544 -648.9576 2076.0 1
533.58734 -648.9576 2076.0 1
551.7425 -644.8938 2063.0 1
576.8512 -648.9576 2076.0 1
601.9425 -652.7088 2088.0 1
627.5827 -656.7726 2101.0 1
653.4937 -660.83636 2114.0 1
683.8299 -668.964 2140.0 1
673.9655 -618.948 1980.0 1
694.5972 -618.948 1980.0 1
715.22876 -618.948 1980.0 1
740.3202 -622.6992 1992.0 1
765.27954 -626.1378 2003.0 1
358.07285 -756.8358 2343.0 1
377.42636 -746.8222 2312.0 1
396.13367 -736.8086 2281.0 1
419.9016 -736.8086 2281.0 1
440.75214 -731.96326 2266.0 1
458.42093 -722.5957 2237.0 1
463.64142 -695.46204 2153.0 1
480.2057 -687.0635 2127.0 1
499.29855 -682.86426 2114.0 1
518.1206 -678.665 2101.0 1
536.67163 -674.4657 2088.0 1
558.4287 -674.4657 2088.0 1
583.79785 -678.665 2101.0 1
605.69025 -678.665 2101.0 1
627.5827 -678.665 2101.0 1
653.4937 -682.86426 2114.0 1
692.45764 -699.9843 2167.0 1
702.6658 -647.00903 2003.0 1
711.25525 -636.02637 1969.0 1
735.8604 -639.5796 1980.0 1
769.8643 -650.88525 2015.0 1
800.2803 -658.63776 2039.0 1
360.51807 -786.5849 2359.0 1
377.42636 -770.9132 2312.0 1
396.13367 -760.5766 2281.0 1
419.9016 -760.5766 2281.0 1
440.75214 -755.57495 2266.0 1
464.3638 -755.57495 2266.0 1
481.73053 -745.9052 2237.0 1
489.23636 -722.56445 2167.0 1
502.369 -709.2268 2127.0 1
524.5324 -709.2268 2127.0 1
543.3543 -704.8921 2114.0 1
561.9055 -700.5574 2101.0 1
587.4101 -704.8921 2114.0 1
609.4379 -704.8921 2114.0 1
635.3491 -709.2268 2127.0 1
657.5124 -709.2268 2127.0 1
692.45764 -722.56445 2167.0 1
723.94684 -731.5673 2194.0 1
715.2948 -679.8841 2039.0 1
719.5635 -664.2124 1992.0 1
740.3202 -664.2124 1992.0 1
769.8643 -671.88153 2015.0 1
363.11612 -817.0114 2376.0 1
379.87506 -800.16223 2327.0 1
401.51733 -795.00433 2312.0 1
419.9016 -784.34467 2281.0 1
443.66974 -784.34467 2281.0 1
470.71652 -789.84644 2297.0 1
494.65134 -789.84644 2297.0 1
495.33206 -754.4289 2194.0 1
511.81644 -745.14465 2167.0 1
527.7383 -735.8604 2140.0 1
550.03705 -735.8604 2140.0 1
565.3823 -726.92004 2114.0 1
591.0224 -731.39026 2127.0 1
616.9334 -735.8604 2140.0 1
639.2323 -735.8604 2140.0 1
665.5497 -740.3306 2153.0 1
696.93134 -749.9587 2181.0 1
728.5664 -759.2429 2208.0 1
719.5045 -705.2569 2051.0 1
727.8717 -692.8779 2015.0 1
748.8681 -692.8779 2015.0 1
774.4491 -697.0043 2027.0 1
363.11612 -841.7693 2376.0 1
382.487 -830.07806 2343.0 1
404.1223 -824.40955 2327.0 1
422.84702 -813.7812 2297.0 1
446.78183 -813.7812 2297.0 1
470.71652 -813.7812 2297.0 1
494.65134 -813.7812 2297.0 1
515.12305 -772.6847 2181.0 1
537.8492 -772.6847 2181.0 1
556.97675 -767.7248 2167.0 1
572.33594 -758.1592 2140.0 1
594.63464 -758.1592 2140.0 1
620.68115 -762.76483 2153.0 1
647.29736 -767.7248 2167.0 1
669.87744 -767.7248 2167.0 1
696.93134 -772.6847 2181.0 1
728.5664 -782.25024 2208.0 1
706.8754 -713.8742 2015.0 1
727.8717 -713.8742 2015.0 1
757.7876 -722.37695 2039.0 1
365.56134 -872.36237 2392.0 1
382.487 -854.49207 2343.0 1
404.1223 -848.65686 2327.0 1
425.6083 -843.1864 2312.0 1
452.61703 -848.65686 2327.0 1
476.86432 -848.65686 2327.0 1
563.91644 -800.1518 2194.0 1
583.3012 -795.4107 2181.0 1
602.1371 -790.3049 2167.0 1
624.71716 -790.3049 2167.0 1
647.29736 -790.3049 2167.0 1
674.2052 -795.4107 2181.0 1
710.3523 -810.7281 2223.0 1
728.5664 -805.25757 2208.0 1
343.05768 -903.66406 2409.0 1
363.11612 -891.2851 2376.0 1
382.487 -878.9061 2343.0 1
404.1223 -872.9042 2327.0 1
428.3696 -872.9042 2327.0 1
452.61703 -872.9042 2327.0 1
476.86432 -872.9042 2327.0 1
574.9686 -839.14343 2237.0 1
590.5223 -828.2649 2208.0 1
609.63947 -823.01324 2194.0 1
632.50085 -823.01324 2194.0 1
651.47925 -818.13666 2181.0 1
682.55164 -828.2649 2208.0 1
714.8259 -839.14343 2237.0 1
738.13544 -839.14343 2237.0 1
343.05768 -928.7658 2409.0 1
363.11612 -916.04297 2376.0 1
382.487 -903.3201 2343.0 1
404.1223 -897.1515 2327.0 1
428.3696 -897.1515 2327.0 1
455.72916 -903.3201 2343.0 1
594.2456 -891.3684 2312.0 1
610.0459 -879.4167 2281.0 1
617.6976 -857.05536 2223.0 1
636.53687 -851.2723 2208.0 1
659.5443 -851.2723 2208.0 1
682.55164 -851.2723 2208.0 1
724.0928 -873.6336 2266.0 1
317.9558 -953.8677 2409.0 1
340.63678 -947.13635 2392.0 1
360.51807 -934.06964 2359.0 1
382.487 -927.7343 2343.0 1
406.901 -927.7343 2343.0 1
431.315 -927.7343 2343.0 1
458.84125 -934.06964 2359.0 1
590.3902 -909.52014 2297.0 1
614.3251 -909.52014 2297.0 1
629.6459 -897.24536 2266.0 1
644.8972 -885.7626 2237.0 1
664.02496 -880.2191 2223.0 1
691.5163 -885.7626 2237.0 1
714.8259 -885.7626 2237.0 1
738.13544 -885.7626 2237.0 1
317.9558 -978.9694 2409.0 1
340.63678 -972.061 2392.0 1
360.51807 -958.65045 2359.0 1
382.487 -952.1483 2343.0 1
406.901 -952.1483 2343.0 1
431.315 -952.1483 2343.0 1
598.101 -945.64624 2327.0 1
614.3251 -933.4549 2297.0 1
633.81384 -926.95276 2281.0 1
649.2215 -915.1678 2252.0 1
668.20685 -909.0721 2237.0 1
691.5163 -909.0721 2237.0 1
728.886 -926.95276 2281.0 1
