ply
format ascii 1.0
comment : created from Kinect user tracker
element vertex 313
property float x
property float y
property float z
property int userId
end_header
1343.7632 52.01665 2496.0 1
1339.8765 26.977354 2589.0 1
1327.2579 26.195854 2514.0 1
1343.7632 26.008295 2496.0 1
1339.8765 0.0 2589.0 1
1336.761 0.0 2532.0 1
1343.7632 0.0 2496.0 1
1315.7229 -27.602552 2649.0 1
1312.8992 -26.977354 2589.0 1
1330.0435 -26.779373 2570.0 1
1336.761 -26.383415 2532.0 1
1343.7632 -26.008295 2496.0 1
1288.1204 -55.205105 2649.0 1
1305.7892 -54.788307 2629.0 1
1312.8992 -53.95471 2589.0 1
1330.0435 -53.558746 2570.0 1
1346.792 -53.16279 2551.0 1
1363.1444 -52.76683 2532.0 1
1260.5178 -82.80779 2649.0 1
1297.8457 -83.43299 2669.0 1
1305.7892 -82.182594 2629.0 1
1312.8992 -80.93219 2589.0 1
1330.0435 -80.33825 2570.0 1
1356.823 -80.33825 2570.0 1
1383.6023 -80.33825 2570.0 1
1260.5178 -110.41035 2649.0 1
1278.395 -109.576744 2629.0 1
1295.8555 -108.74314 2609.0 1
1333.1835 -109.576744 2629.0 1
1370.9281 -110.41035 2649.0 1
1398.5308 -110.41035 2649.0 1
1404.5986 -108.74314 2609.0 1
1251.001 -136.9709 2629.0 1
1278.395 -136.9709 2629.0 1
1295.8555 -135.9289 2609.0 1
1343.3256 -138.0129 2649.0 1
1370.9281 -138.0129 2649.0 1
1398.5308 -138.0129 2649.0 1
1393.8313 -134.8869 2589.0 1
1251.001 -164.36505 2629.0 1
1278.395 -164.36505 2629.0 1
1305.7892 -164.36505 2629.0 1
1353.4677 -166.86584 2669.0 1
1370.9281 -165.61545 2649.0 1
1387.9718 -164.36505 2629.0 1
1393.8313 -161.86426 2589.0 1
1223.6067 -191.7592 2629.0 1
1251.001 -191.7592 2629.0 1
1278.395 -191.7592 2629.0 1
1325.6566 -194.6768 2669.0 1
1364.117 -196.20854 2690.0 1
1370.9281 -193.218 2649.0 1
1387.9718 -191.7592 2629.0 1
1393.8313 -188.8416 2589.0 1
1232.9152 -220.8207 2649.0 1
1260.5178 -220.8207 2649.0 1
1288.1204 -220.8207 2649.0 1
1336.087 -224.23845 2690.0 1
1364.117 -224.23845 2690.0 1
1370.9281 -220.8207 2649.0 1
1377.4128 -217.48628 2609.0 1
1393.8313 -215.81909 2589.0 1
1214.2981 -244.67204 2609.0 1
1241.484 -244.67204 2609.0 1
1288.1204 -248.42325 2649.0 1
1346.5175 -254.23761 2711.0 1
1353.4677 -250.29884 2669.0 1
1370.9281 -248.42325 2649.0 1
1377.4128 -244.67204 2609.0 1
1393.8313 -242.79645 2589.0 1
1223.6067 -273.9418 2629.0 1
1241.484 -271.8578 2609.0 1
1297.8457 -278.1098 2669.0 1
1336.087 -280.298 2690.0 1
1353.4677 -278.1098 2669.0 1
1370.9281 -276.0258 2649.0 1
1398.5308 -276.0258 2649.0 1
1393.8313 -269.7738 2589.0 1
1223.6067 -301.33594 2629.0 1
1241.484 -299.04355 2609.0 1
1328.9668 -313.25644 2733.0 1
1336.087 -308.32776 2690.0 1
1353.4677 -305.92075 2669.0 1
1370.9281 -303.62836 2649.0 1
1377.4128 -299.04355 2609.0 1
1393.8313 -296.75116 2589.0 1
1214.4128 -333.7317 2669.0 1
1223.6067 -328.7301 2629.0 1
1241.484 -326.2293 2609.0 1
1328.9668 -341.73425 2733.0 1
1336.087 -336.35754 2690.0 1
1353.4677 -333.7317 2669.0 1
1381.2786 -333.7317 2669.0 1
1387.9718 -328.7301 2629.0 1
1393.8313 -323.72852 2589.0 1
1205.3126 -358.8336 2649.0 1
1223.6067 -356.1244 2629.0 1
1241.484 -353.4152 2609.0 1
1308.0573 -364.38745 2690.0 1
1325.6566 -361.5428 2669.0 1
1353.4677 -361.5428 2669.0 1
1381.2786 -361.5428 2669.0 1
1398.5308 -358.8336 2649.0 1
1415.366 -356.1244 2629.0 1
1205.3126 -386.43613 2649.0 1
1223.6067 -383.51852 2629.0 1
1231.967 -377.68335 2589.0 1
1308.0573 -392.4172 2690.0 1
1336.087 -392.4172 2690.0 1
1353.4677 -389.35373 2669.0 1
1381.2786 -389.35373 2669.0 1
1398.5308 -386.43613 2649.0 1
1426.1333 -386.43613 2649.0 1
1186.6017 -417.1647 2669.0 1
1205.3126 -414.0387 2649.0 1
1223.6067 -410.9127 2629.0 1
1241.484 -407.78668 2609.0 1
1318.2689 -423.72928 2711.0 1
1346.5175 -423.72928 2711.0 1
1353.4677 -417.1647 2669.0 1
1381.2786 -417.1647 2669.0 1
1409.0897 -417.1647 2669.0 1
1426.1333 -414.0387 2649.0 1
1195.938 -448.47678 2690.0 1
1205.3126 -441.64124 2649.0 1
1214.2981 -434.97244 2609.0 1
1251.001 -438.30685 2629.0 1
1308.0573 -448.47678 2690.0 1
1346.5175 -451.97787 2711.0 1
1364.117 -448.47678 2690.0 1
1381.2786 -444.97565 2669.0 1
1409.0897 -444.97565 2669.0 1
1426.1333 -441.64124 2649.0 1
1244.398 -495.8148 2799.0 1
1223.9679 -476.50653 2690.0 1
1223.6067 -465.701 2629.0 1
1260.5178 -469.2438 2649.0 1
1328.9668 -484.12357 2733.0 1
1346.5175 -480.22647 2711.0 1
1374.7662 -480.22647 2711.0 1
1392.1467 -476.50653 2690.0 1
1409.0897 -472.7866 2669.0 1
1436.9006 -472.7866 2669.0 1
1225.2183 -529.2944 2822.0 1
1254.6235 -529.2944 2822.0 1
1253.0884 -516.5403 2754.0 1
1251.9977 -504.53644 2690.0 1
1290.0204 -508.47522 2711.0 1
1328.9668 -512.6015 2733.0 1
1346.5175 -508.47522 2711.0 1
1374.7662 -508.47522 2711.0 1
1392.1467 -504.53644 2690.0 1
1409.0897 -500.5977 2669.0 1
1436.9006 -500.5977 2669.0 1
1236.0691 -577.5077 2917.0 1
1225.2183 -558.6996 2822.0 1
1254.6235 -558.6996 2822.0 1
1273.5637 -554.14606 2799.0 1
1281.785 -545.23694 2754.0 1
1300.489 -541.07935 2733.0 1
1328.9668 -541.07935 2733.0 1
1346.5175 -536.7238 2711.0 1
1385.9225 -541.07935 2733.0 1
1414.4003 -541.07935 2733.0 1
1442.8783 -541.07935 2733.0 1
1448.2063 -532.5662 2690.0 1
1225.8992 -602.9012 2893.0 1
1235.2041 -592.898 2845.0 1
1254.6235 -588.1048 2822.0 1
1273.5637 -583.3116 2799.0 1
1281.785 -573.9336 2754.0 1
1300.489 -569.5572 2733.0 1
1339.1783 -573.9336 2754.0 1
1357.4446 -569.5572 2733.0 1
1396.5718 -573.9336 2754.0 1
1466.1079 -578.7268 2777.0 1
1482.6617 -573.9336 2754.0 1
1205.6738 -638.2979 2917.0 1
1225.8992 -633.0462 2893.0 1
1235.2041 -622.54285 2845.0 1
1244.398 -612.4771 2799.0 1
1273.5637 -612.4771 2799.0 1
1292.4897 -607.6631 2777.0 1
1310.4818 -602.63025 2754.0 1
1350.3625 -607.6631 2777.0 1
1482.6617 -602.63025 2754.0 1
1205.6738 -668.693 2917.0 1
1225.8992 -663.1912 2893.0 1
1235.2041 -652.18774 2845.0 1
1254.6235 -646.9152 2822.0 1
1273.5637 -641.6427 2799.0 1
1302.7291 -641.6427 2799.0 1
1321.4263 -636.5994 2777.0 1
1409.0897 -611.8415 2669.0 1
1482.6617 -631.3269 2754.0 1
1195.4241 -711.0713 2967.0 1
1216.007 -705.0798 2942.0 1
1215.7292 -687.5846 2869.0 1
1235.2041 -681.83276 2845.0 1
1254.6235 -676.32056 2822.0 1
1284.0288 -676.32056 2822.0 1
1313.434 -676.32056 2822.0 1
1502.0083 -681.83276 2845.0 1
1495.0442 -665.5359 2777.0 1
1174.7125 -748.48944 2993.0 1
1205.8997 -748.48944 2993.0 1
1205.6738 -729.4834 2917.0 1
1215.7292 -717.47955 2869.0 1
1235.2041 -711.4776 2845.0 1
1264.849 -711.4776 2845.0 1
1294.494 -711.4776 2845.0 1
1346.4792 -723.48145 2893.0 1
1489.8656 -705.72577 2822.0 1
1482.6617 -688.72034 2754.0 1
1174.7125 -779.6765 2993.0 1
1195.4241 -772.9035 2967.0 1
1205.6738 -759.8785 2917.0 1
1225.8992 -753.62646 2893.0 1
1245.6241 -747.3745 2869.0 1
1275.519 -747.3745 2869.0 1
1502.0083 -741.1225 2845.0 1
1482.6617 -717.417 2754.0 1
1174.0908 -832.5371 3073.0 1
1184.9171 -817.9074 3019.0 1
1205.8997 -810.8635 2993.0 1
1226.3402 -803.8196 2967.0 1
1257.2565 -803.8196 2967.0 1
1256.0442 -783.77155 2893.0 1
1506.8883 -758.30505 2799.0 1
1184.7887 -872.43524 3101.0 1
1184.9171 -849.36536 3019.0 1
1216.3752 -849.36536 3019.0 1
1237.0867 -842.05054 2993.0 1
1279.2913 -849.36536 3019.0 1
1506.8883 -787.4706 2799.0 1
1163.775 -888.701 3046.0 1
1195.5143 -888.701 3046.0 1
1216.3752 -880.8235 3019.0 1
1247.8331 -880.8235 3019.0 1
1268.2738 -873.23773 2993.0 1
1514.6791 -837.0595 2869.0 1
1506.8883 -816.6363 2799.0 1
1162.8824 -945.52124 3129.0 1
1184.7887 -937.0602 3101.0 1
1206.1115 -928.5992 3073.0 1
1227.2538 -920.4403 3046.0 1
1247.8331 -912.28143 3019.0 1
1484.7839 -866.9544 2869.0 1
1502.0083 -859.7021 2845.0 1
1519.2708 -852.75195 2822.0 1
1150.868 -995.9436 3186.0 1
1152.4763 -969.37256 3101.0 1
1184.7887 -969.37256 3101.0 1
1206.1115 -960.6198 3073.0 1
1238.1322 -960.6198 3073.0 1
1472.3633 -889.347 2845.0 1
1502.0083 -889.347 2845.0 1
1519.2708 -882.15717 2822.0 1
1130.2782 -1010.72955 3129.0 1
1152.4763 -1001.685 3101.0 1
1184.7887 -1001.685 3101.0 1
1217.1011 -1001.685 3101.0 1
1260.695 -1010.72955 3129.0 1
1484.7839 -926.7443 2869.0 1
1502.0083 -918.9919 2845.0 1
1531.6532 -918.9919 2845.0 1
1117.67 -1062.3397 3186.0 1
1130.2782 -1043.3336 3129.0 1
1152.4763 -1033.9973 3101.0 1
1184.7887 -1033.9973 3101.0 1
1228.0907 -1043.3336 3129.0 1
1484.7839 -956.6393 2869.0 1
1502.0083 -948.6367 2845.0 1
1531.6532 -948.6367 2845.0 1
1071.0718 -1116.1696 3246.0 1
1130.2782 -1075.938 3129.0 1
1162.8824 -1075.938 3129.0 1
1195.4866 -1075.938 3129.0 1
1484.7839 -986.53436 2869.0 1
1502.0083 -978.28174 2845.0 1
1531.6532 -978.28174 2845.0 1
1041.7047 -1118.4619 3157.0 1
1097.6741 -1108.5421 3129.0 1
1130.2782 -1108.5421 3129.0 1
1162.8824 -1108.5421 3129.0 1
1491.9078 -1042.2917 2942.0 1
1484.7839 -1016.4293 2869.0 1
1514.6791 -1016.4293 2869.0 1
1544.574 -1016.4293 2869.0 1
1023.2266 -1130.9347 3101.0 1
1055.539 -1130.9347 3101.0 1
1097.6741 -1141.1462 3129.0 1
1120.1638 -1130.9347 3101.0 1
1491.9078 -1072.9474 2942.0 1
1509.6252 -1063.8298 2917.0 1
1527.3497 -1055.077 2893.0 1
1570.4155 -1063.8298 2917.0 1
1517.7703 -1122.7341 2993.0 1
1509.6252 -1094.225 2917.0 1
1527.3497 -1085.2222 2893.0 1
1583.8748 -1103.603 2942.0 1
1512.9075 -1174.3547 3046.0 1
1491.9078 -1134.2585 2942.0 1
1522.5634 -1134.2585 2942.0 1
1540.0205 -1124.6201 2917.0 1
1583.8748 -1134.2585 2942.0 1
1491.9078 -1164.9143 2942.0 1
1522.5634 -1164.9143 2942.0 1
1540.0205 -1155.0154 2917.0 1
1583.8748 -1164.9143 2942.0 1
1535.5016 -1205.7295 2967.0 1
1553.2191 -1195.57 2942.0 1
1583.8748 -1195.57 2942.0 1
