ply
format ascii 1.0
comment : created from Kinect user tracker
element vertex 776
property float x
property float y
property float z
property int userId
end_header
210.65068 182.9335 1596.0 1
228.27791 183.73584 1603.0 1
246.20374 184.6528 1611.0 1
195.8439 167.8662 1611.0 1
211.57458 167.0326 1603.0 1
227.28105 166.30319 1596.0 1
242.84155 165.57379 1589.0 1
259.399 165.57379 1589.0 1
275.95633 165.57379 1589.0 1
291.041 164.7402 1581.0 1
180.72452 152.4863 1626.0 1
194.87137 150.32935 1603.0 1
210.65068 149.6729 1596.0 1
226.28421 149.01643 1589.0 1
239.47935 146.95328 1567.0 1
256.9503 147.60973 1574.0 1
273.35132 147.60973 1574.0 1
289.75238 147.60973 1574.0 1
306.1535 147.60973 1574.0 1
327.06293 149.6729 1596.0 1
179.05731 134.29295 1611.0 1
194.0204 133.04256 1596.0 1
208.67087 131.79214 1581.0 1
224.14812 131.20863 1574.0 1
239.47935 130.6251 1567.0 1
254.66484 130.0416 1560.0 1
268.48865 128.87456 1546.0 1
285.88654 129.45807 1553.0 1
302.06888 129.45807 1553.0 1
319.68558 130.0416 1560.0 1
342.18588 132.45903 1589.0 1
361.90396 133.62607 1603.0 1
163.78154 118.60045 1626.0 1
178.16815 116.92283 1603.0 1
192.1969 115.318146 1581.0 1
207.74696 114.80756 1574.0 1
223.15126 114.29699 1567.0 1
238.40958 113.78641 1560.0 1
253.52211 113.275826 1553.0 1
267.273 112.25467 1539.0 1
283.30933 112.25467 1539.0 1
300.70734 112.76524 1546.0 1
316.8166 112.76524 1546.0 1
332.926 112.76524 1546.0 1
356.9371 115.318146 1581.0 1
378.60718 116.92283 1603.0 1
391.858 115.901665 1589.0 1
146.83865 101.6575 1626.0 1
161.46483 100.21954 1603.0 1
177.39012 99.7819 1596.0 1
191.34593 98.40646 1574.0 1
207.74696 98.40646 1574.0 1
220.16072 96.6559 1546.0 1
236.27 96.6559 1546.0 1
251.23665 96.21826 1539.0 1
267.273 96.21826 1539.0 1
283.30933 96.21826 1539.0 1
299.34576 96.21826 1539.0 1
315.3821 96.21826 1539.0 1
331.41855 96.21826 1539.0 1
350.61563 97.093544 1553.0 1
376.95386 99.7819 1596.0 1
393.58426 99.7819 1596.0 1
145.48405 83.9331 1611.0 1
162.27063 83.9331 1611.0 1
177.39012 83.151596 1596.0 1
191.34593 82.0054 1574.0 1
205.89915 81.276 1560.0 1
220.16072 80.5466 1546.0 1
236.27 80.5466 1546.0 1
251.23665 80.1819 1539.0 1
267.273 80.1819 1539.0 1
283.30933 80.1819 1539.0 1
300.70734 80.5466 1546.0 1
318.2511 80.9113 1553.0 1
337.44827 81.6407 1567.0 1
356.9371 82.3701 1581.0 1
378.60718 83.5163 1603.0 1
395.3105 83.5163 1603.0 1
131.73306 68.73033 1649.0 1
146.83865 67.7717 1626.0 1
161.46483 66.81306 1603.0 1
176.61209 66.22954 1589.0 1
191.34593 65.60433 1574.0 1
205.89915 65.02081 1560.0 1
221.15756 64.72906 1553.0 1
236.27 64.437294 1546.0 1
251.23665 64.14553 1539.0 1
267.273 64.14553 1539.0 1
283.30933 64.14553 1539.0 1
300.70734 64.437294 1546.0 1
322.55453 65.60433 1574.0 1
338.9557 65.60433 1574.0 1
358.74323 66.22954 1589.0 1
384.03946 67.7717 1626.0 1
397.28336 67.14649 1611.0 1
129.89568 50.82875 1626.0 1
144.12946 49.89095 1596.0 1
160.05464 49.67213 1589.0 1
174.94489 49.20323 1574.0 1
190.49496 48.984413 1567.0 1
205.89915 48.76559 1560.0 1
220.16072 48.32795 1546.0 1
235.20021 48.10913 1539.0 1
251.23665 48.10913 1539.0 1
267.273 48.10913 1539.0 1
283.30933 48.10913 1539.0 1
304.79196 48.984413 1567.0 1
322.55453 49.20323 1574.0 1
342.18588 49.67213 1589.0 1
361.90396 50.10977 1603.0 1
129.89568 33.88585 1626.0 1
145.48405 33.573246 1611.0 1
158.54375 32.802166 1574.0 1
174.16687 32.65629 1567.0 1
190.49496 32.65629 1567.0 1
204.05135 32.218647 1546.0 1
219.16388 32.072765 1539.0 1
235.20021 32.072765 1539.0 1
251.23665 32.072765 1539.0 1
267.273 32.072765 1539.0 1
287.17514 32.510406 1560.0 1
306.1535 32.802166 1574.0 1
323.98904 32.948048 1581.0 1
343.69333 33.260647 1596.0 1
367.0966 33.88585 1626.0 1
128.69737 16.786604 1611.0 1
144.12946 16.630304 1596.0 1
160.05464 16.557364 1589.0 1
174.16687 16.328125 1567.0 1
190.49496 16.328125 1567.0 1
204.97525 16.182243 1553.0 1
219.16388 16.036364 1539.0 1
235.20021 16.036364 1539.0 1
252.37938 16.109304 1546.0 1
269.7043 16.182243 1553.0 1
288.46375 16.328125 1567.0 1
307.51505 16.474005 1581.0 1
327.06293 16.630304 1596.0 1
350.15372 16.942904 1626.0 1
370.4831 17.099203 1641.0 1
131.73306 0.0 1649.0 1
146.11621 0.0 1618.0 1
161.46483 0.0 1603.0 1
174.94489 0.0 1574.0 1
188.79303 0.0 1553.0 1
205.89915 0.0 1560.0 1
222.15442 0.0 1560.0 1
236.27 0.0 1546.0 1
253.52211 0.0 1553.0 1
270.91998 0.0 1560.0 1
289.75238 0.0 1574.0 1
309.0711 0.0 1589.0 1
330.13684 0.0 1611.0 1
350.15372 0.0 1626.0 1
368.90274 0.0 1634.0 1
385.92896 0.0 1634.0 1
131.09398 -17.099203 1641.0 1
146.83865 -16.942904 1626.0 1
162.97572 -16.859543 1618.0 1
176.61209 -16.557364 1589.0 1
191.34593 -16.401064 1574.0 1
206.82306 -16.328125 1567.0 1
223.15126 -16.328125 1567.0 1
240.54915 -16.401064 1574.0 1
256.9503 -16.401064 1574.0 1
273.35132 -16.401064 1574.0 1
293.80228 -16.630304 1596.0 1
311.7942 -16.703243 1603.0 1
333.21072 -16.942904 1626.0 1
351.8765 -17.026264 1634.0 1
372.2892 -17.182564 1649.0 1
133.01126 -34.698566 1665.0 1
148.19325 -34.198406 1641.0 1
162.97572 -33.719086 1618.0 1
176.61209 -33.114727 1589.0 1
191.34593 -32.802128 1574.0 1
206.82306 -32.65625 1567.0 1
224.14812 -32.802128 1574.0 1
244.98112 -33.406487 1603.0 1
260.54172 -33.26061 1596.0 1
279.777 -33.573208 1611.0 1
296.56357 -33.573208 1611.0 1
313.35025 -33.573208 1611.0 1
333.21072 -33.885807 1626.0 1
355.1067 -34.365128 1649.0 1
122.191864 -54.986374 1759.0 1
137.64468 -53.86101 1723.0 1
151.08307 -52.29801 1673.0 1
166.09825 -51.54777 1649.0 1
177.39012 -49.89099 1596.0 1
193.16943 -49.672173 1589.0 1
210.65068 -49.89099 1596.0 1
232.6925 -51.078873 1634.0 1
249.71875 -51.078873 1634.0 1
265.43912 -50.828793 1626.0 1
280.99268 -50.578712 1618.0 1
297.85217 -50.578712 1618.0 1
317.8239 -51.078873 1634.0 1
339.56345 -51.79785 1657.0 1
353.3839 -51.29769 1641.0 1
103.86313 -73.31514 1759.0 1
118.51013 -71.106094 1706.0 1
133.65034 -69.73065 1673.0 1
149.63817 -69.063774 1657.0 1
166.90407 -69.063774 1657.0 1
182.39172 -68.3969 1641.0 1
199.49089 -68.3969 1641.0 1
217.64597 -68.73033 1649.0 1
233.68936 -68.3969 1641.0 1
252.01115 -68.73033 1649.0 1
267.88782 -68.3969 1641.0 1
284.987 -68.3969 1641.0 1
302.08618 -68.3969 1641.0 1
320.74152 -68.73033 1649.0 1
336.28464 -68.3969 1641.0 1
99.78891 -88.048996 1690.0 1
115.661995 -86.7465 1665.0 1
131.09398 -85.4961 1641.0 1
148.19325 -85.4961 1641.0 1
166.09825 -85.912895 1649.0 1
184.17007 -86.3297 1657.0 1
201.43596 -86.3297 1657.0 1
218.70186 -86.3297 1657.0 1
235.96786 -86.3297 1657.0 1
254.45638 -86.7465 1665.0 1
270.49976 -86.3297 1657.0 1
287.76566 -86.3297 1657.0 1
305.03156 -86.3297 1657.0 1
82.17904 -105.65878 1690.0 1
98.312744 -104.09578 1665.0 1
113.9948 -102.5953 1641.0 1
129.89568 -101.6575 1626.0 1
146.11621 -101.15734 1618.0 1
164.58734 -102.15766 1634.0 1
182.39172 -102.5953 1641.0 1
200.46342 -103.09546 1649.0 1
219.75775 -104.09578 1665.0 1
238.24637 -104.59594 1673.0 1
264.69577 -108.28462 1732.0 1
80.57436 -120.86154 1657.0 1
96.00992 -118.6004 1626.0 1
111.9108 -117.50631 1611.0 1
128.05829 -116.92278 1603.0 1
144.76161 -116.92278 1603.0 1
162.97572 -118.016884 1618.0 1
181.6137 -119.18392 1634.0 1
199.49089 -119.6945 1641.0 1
219.75775 -121.44507 1665.0 1
240.66728 -123.26856 1690.0 1
266.0712 -126.9885 1741.0 1
287.15094 -128.30142 1759.0 1
63.61412 -138.79443 1665.0 1
79.45595 -136.21027 1634.0 1
94.65185 -133.62611 1603.0 1
110.8688 -133.04259 1596.0 1
127.49908 -133.04259 1596.0 1
143.49731 -132.45908 1589.0 1
161.46483 -133.62611 1603.0 1
180.72452 -135.5434 1626.0 1
198.63992 -136.21027 1634.0 1
218.70186 -138.12755 1657.0 1
238.24637 -139.4613 1673.0 1
262.09772 -142.96243 1715.0 1
282.74326 -144.37955 1732.0 1
46.48705 -156.89395 1673.0 1
62.429714 -153.23653 1634.0 1
77.948524 -150.32935 1603.0 1
93.35282 -148.26619 1581.0 1
108.85426 -146.95328 1567.0 1
125.182365 -146.95328 1567.0 1
141.51056 -146.95328 1567.0 1
160.05464 -149.01643 1589.0 1
178.16815 -150.32935 1603.0 1
197.66739 -152.4863 1626.0 1
216.59007 -153.89299 1641.0 1
237.10712 -156.1437 1665.0 1
259.49966 -159.23845 1698.0 1
282.74326 -162.42697 1732.0 1
46.04246 -172.6594 1657.0 1
61.55096 -167.8662 1611.0 1
77.26775 -165.57379 1589.0 1
92.52617 -163.2814 1567.0 1
107.88173 -161.8226 1553.0 1
123.504745 -161.0932 1546.0 1
140.24628 -161.8226 1553.0 1
158.54375 -164.0108 1574.0 1
177.39012 -166.30319 1596.0 1
195.8439 -167.8662 1611.0 1
216.59007 -170.9922 1641.0 1
237.10712 -173.493 1665.0 1
258.27704 -176.09799 1690.0 1
279.96808 -178.703 1715.0 1
45.181076 -186.3721 1626.0 1
60.40476 -181.2142 1581.0 1
76.19797 -179.60953 1567.0 1
91.69952 -178.00484 1553.0 1
107.39546 -177.2025 1546.0 1
123.504745 -177.2025 1546.0 1
139.61412 -177.2025 1546.0 1
156.4285 -178.00484 1553.0 1
175.72292 -181.2142 1581.0 1
195.8439 -184.6528 1611.0 1
214.61028 -186.3721 1626.0 1
235.96786 -189.92532 1657.0 1
258.27704 -193.70778 1690.0 1
281.27405 -197.49023 1723.0 1
28.915499 -208.19156 1665.0 1
44.541985 -200.43909 1603.0 1
60.137314 -196.81293 1574.0 1
75.857574 -195.06236 1560.0 1
91.28619 -193.3118 1546.0 1
107.39546 -193.3118 1546.0 1
122.94553 -192.43652 1539.0 1
138.98198 -192.43652 1539.0 1
155.7234 -193.3118 1546.0 1
173.38884 -195.06236 1560.0 1
194.0204 -199.5638 1596.0 1
212.63048 -201.4394 1611.0 1
235.96786 -207.19124 1657.0 1
255.67899 -209.19188 1673.0 1
279.96808 -214.44356 1715.0 1
308.60565 -222.19604 1777.0 1
27.838766 -217.14241 1603.0 1
44.347477 -216.19418 1596.0 1
59.869865 -212.26585 1567.0 1
75.1768 -209.42119 1546.0 1
91.28619 -209.42119 1546.0 1
106.909195 -208.47296 1539.0 1
122.38633 -207.52475 1532.0 1
139.61412 -209.42119 1546.0 1
155.7234 -209.42119 1546.0 1
173.38884 -211.31763 1560.0 1
193.16943 -215.24597 1589.0 1
212.63048 -218.22609 1611.0 1
233.68936 -222.28989 1641.0 1
254.45638 -225.54092 1665.0 1
277.19287 -230.01111 1698.0 1
310.16867 -241.9316 1786.0 1
28.099266 -236.03386 1618.0 1
44.15297 -231.80333 1589.0 1
59.869865 -228.59398 1567.0 1
74.83642 -224.50934 1539.0 1
90.872856 -224.50934 1539.0 1
106.42293 -223.48817 1532.0 1
122.94553 -224.50934 1539.0 1
138.98198 -224.50934 1539.0 1
157.13358 -227.57281 1560.0 1
174.16687 -228.59398 1567.0 1
194.0204 -232.8245 1596.0 1
212.63048 -235.0127 1611.0 1
233.68936 -239.3891 1641.0 1
253.23376 -241.72318 1657.0 1
277.19287 -247.70425 1698.0 1
307.04266 -257.91586 1768.0 1
28.099266 -252.8934 1618.0 1
43.73617 -246.01619 1574.0 1
59.334972 -242.7339 1553.0 1
75.1768 -241.6398 1546.0 1
90.872856 -240.5457 1539.0 1
106.909195 -240.5457 1539.0 1
123.504745 -241.6398 1546.0 1
138.98198 -240.5457 1539.0 1
157.83867 -244.92209 1567.0 1
174.94489 -246.01619 1574.0 1
194.0204 -249.45479 1596.0 1
213.55438 -252.8934 1618.0 1
233.68936 -256.48828 1641.0 1
254.45638 -260.2395 1665.0 1
275.8869 -264.147 1690.0 1
310.16867 -279.1518 1786.0 1
27.595633 -264.91806 1589.0 1
43.541664 -261.2502 1567.0 1
59.334972 -258.91614 1553.0 1
75.1768 -257.7491 1546.0 1
90.872856 -256.58206 1539.0 1
106.909195 -256.58206 1539.0 1
122.94553 -256.58206 1539.0 1
139.61412 -257.7491 1546.0 1
157.83867 -261.2502 1567.0 1
176.61209 -264.91806 1589.0 1
194.0204 -266.0851 1596.0 1
212.63048 -268.5859 1611.0 1
232.6925 -272.42047 1634.0 1
253.23376 -276.255 1657.0 1
275.8869 -281.75677 1690.0 1
296.27533 -284.4243 1706.0 1
11.086922 -282.7154 1596.0 1
27.4567 -280.0583 1581.0 1
43.541664 -277.57834 1567.0 1
59.334972 -275.0984 1553.0 1
75.1768 -273.8584 1546.0 1
90.872856 -272.61844 1539.0 1
107.39546 -273.8584 1546.0 1
123.504745 -273.8584 1546.0 1
140.24628 -275.0984 1553.0 1
158.54375 -278.81833 1574.0 1
177.39012 -282.7154 1596.0 1
194.0204 -282.7154 1596.0 1
213.55438 -286.6125 1618.0 1
232.6925 -289.44672 1634.0 1
253.23376 -293.52094 1657.0 1
273.11172 -296.3552 1673.0 1
296.27533 -302.2008 1706.0 1
11.086922 -299.3458 1596.0 1
27.335133 -295.21945 1574.0 1
43.541664 -293.90656 1567.0 1
59.334972 -291.2807 1553.0 1
75.1768 -289.96777 1546.0 1
90.872856 -288.65488 1539.0 1
107.39546 -289.96777 1546.0 1
123.504745 -289.96777 1546.0 1
140.87842 -292.59363 1560.0 1
159.24884 -296.53238 1581.0 1
177.39012 -299.3458 1596.0 1
196.69487 -303.4721 1618.0 1
214.61028 -304.9726 1626.0 1
234.82861 -309.28647 1649.0 1
254.45638 -312.2874 1665.0 1
275.8869 -316.97644 1690.0 1
10.982721 -313.00638 1581.0 1
27.335133 -311.62054 1574.0 1
43.541664 -310.23468 1567.0 1
59.334972 -307.46295 1553.0 1
75.1768 -306.0771 1546.0 1
90.872856 -304.69122 1539.0 1
107.39546 -306.0771 1546.0 1
124.06395 -307.46295 1553.0 1
142.14272 -311.62054 1574.0 1
160.75974 -315.9761 1596.0 1
179.83534 -320.33167 1618.0 1
198.63992 -323.49933 1634.0 1
215.66617 -323.49933 1634.0 1
235.96786 -328.05286 1657.0 1
254.45638 -329.63672 1665.0 1
285.6817 -346.465 1750.0 1
313.29465 -357.15594 1804.0 1
11.086922 -332.60638 1596.0 1
27.335133 -328.0216 1574.0 1
43.541664 -326.5628 1567.0 1
59.334972 -323.6452 1553.0 1
75.1768 -322.1864 1546.0 1
91.28619 -322.1864 1546.0 1
107.39546 -322.1864 1546.0 1
124.06395 -323.6452 1553.0 1
142.77486 -329.4804 1581.0 1
165.29243 -341.9844 1641.0 1
183.2809 -343.65158 1649.0 1
200.46342 -343.65158 1649.0 1
218.70186 -345.3188 1657.0 1
237.10712 -346.986 1665.0 1
259.49966 -353.8632 1698.0 1
285.6817 -364.69998 1750.0 1
311.73166 -374.078 1795.0 1
-5.543461 -349.2367 1596.0 1
11.038295 -347.70496 1589.0 1
27.213566 -342.89093 1567.0 1
43.347157 -341.3592 1560.0 1
59.067528 -338.2957 1546.0 1
75.1768 -338.2957 1546.0 1
91.28619 -338.2957 1546.0 1
107.39546 -338.2957 1546.0 1
124.06395 -339.82742 1553.0 1
149.63817 -362.58472 1657.0 1
166.90407 -362.58472 1657.0 1
185.05923 -364.33527 1665.0 1
202.4085 -364.33527 1665.0 1
221.86954 -367.8364 1681.0 1
240.66728 -369.8058 1690.0 1
262.09772 -375.27628 1715.0 1
287.15094 -384.90436 1759.0 1
-5.5191474 -364.26233 1589.0 1
11.038295 -364.26233 1589.0 1
27.335133 -360.82373 1574.0 1
43.541664 -359.21906 1567.0 1
59.334972 -356.00967 1553.0 1
75.1768 -354.405 1546.0 1
91.28619 -354.405 1546.0 1
107.39546 -354.405 1546.0 1
124.06395 -356.00967 1553.0 1
150.36063 -381.68457 1665.0 1
167.70987 -381.68457 1665.0 1
186.83759 -385.3524 1681.0 1
204.35356 -385.3524 1681.0 1
224.11331 -389.24948 1698.0 1
242.94579 -391.0834 1706.0 1
266.0712 -399.1068 1741.0 1
290.08936 -407.35944 1777.0 1
313.29465 -413.54892 1804.0 1
-5.543461 -382.49738 1596.0 1
10.982721 -378.9025 1581.0 1
27.335133 -377.22485 1574.0 1
43.541664 -375.54724 1567.0 1
59.60242 -373.86963 1560.0 1
76.19797 -375.54724 1567.0 1
92.11284 -373.86963 1560.0 1
108.368 -373.86963 1560.0 1
135.6475 -406.94272 1698.0 1
153.34074 -406.94272 1698.0 1
170.22804 -405.02542 1690.0 1
188.72708 -406.94272 1698.0 1
206.4202 -406.94272 1698.0 1
225.1692 -408.86 1706.0 1
246.64836 -415.09116 1732.0 1
267.44662 -419.40503 1750.0 1
291.5586 -428.03278 1786.0 1
-5.5191474 -397.37714 1589.0 1
10.934094 -393.62592 1574.0 1
27.335133 -393.62592 1574.0 1
43.541664 -391.87537 1567.0 1
59.869865 -391.87537 1567.0 1
76.19797 -391.87537 1567.0 1
92.93949 -393.62592 1574.0 1
117.9544 -424.63586 1698.0 1
135.6475 -424.63586 1698.0 1
153.34074 -424.63586 1698.0 1
171.03386 -424.63586 1698.0 1
188.72708 -424.63586 1698.0 1
208.48683 -428.8872 1715.0 1
228.60086 -433.13858 1732.0 1
249.21169 -437.64 1750.0 1
270.1975 -442.14145 1768.0 1
293.0278 -448.89362 1795.0 1
-5.5191474 -413.93448 1589.0 1
10.982721 -411.8505 1581.0 1
27.335133 -410.02698 1574.0 1
43.541664 -408.2035 1567.0 1
59.869865 -408.2035 1567.0 1
76.53835 -410.02698 1574.0 1
92.52617 -408.2035 1567.0 1
119.13533 -446.75748 1715.0 1
137.00558 -446.75748 1715.0 1
154.06319 -444.413 1706.0 1
171.83966 -444.413 1706.0 1
190.61658 -446.75748 1715.0 1
210.55347 -451.186 1732.0 1
229.78874 -453.5305 1741.0 1
250.49335 -458.21948 1759.0 1
270.1975 -460.564 1768.0 1
296.1295 -472.547 1814.0 1
-22.173738 -432.3883 1596.0 1
-5.5191474 -430.49185 1589.0 1
10.982721 -428.3245 1581.0 1
27.335133 -426.42807 1574.0 1
43.541664 -424.53162 1567.0 1
59.869865 -424.53162 1567.0 1
76.53835 -426.42807 1574.0 1
101.73745 -466.79514 1723.0 1
119.13533 -464.62778 1715.0 1
137.00558 -464.62778 1715.0 1
155.5984 -466.79514 1723.0 1
173.55202 -466.79514 1723.0 1
191.50575 -466.79514 1723.0 1
210.55347 -469.23343 1732.0 1
230.97662 -474.11 1750.0 1
251.77501 -478.98654 1768.0 1
272.9484 -483.8631 1786.0 1
297.76196 -494.15805 1824.0 1
-22.076485 -447.04922 1589.0 1
-5.5191474 -447.04922 1589.0 1
10.982721 -444.7985 1581.0 1
27.335133 -442.82913 1574.0 1
43.541664 -440.85974 1567.0 1
60.137314 -442.82913 1574.0 1
76.53835 -442.82913 1574.0 1
101.73745 -484.74878 1723.0 1
119.69106 -484.74878 1723.0 1
137.64468 -484.74878 1723.0 1
155.5984 -484.74878 1723.0 1
174.45856 -487.28082 1732.0 1
192.50607 -487.28082 1732.0 1
212.74167 -492.34497 1750.0 1
232.16449 -494.877 1759.0 1
251.77501 -497.4091 1768.0 1
275.69928 -507.53732 1804.0 1
-22.076485 -463.60666 1589.0 1
-5.4913607 -461.27258 1581.0 1
10.934094 -459.23026 1574.0 1
27.335133 -459.23026 1574.0 1
43.73617 -459.23026 1574.0 1
60.137314 -459.23026 1574.0 1
84.659004 -507.9542 1741.0 1
102.26887 -505.32834 1732.0 1
119.69106 -502.7025 1723.0 1
137.64468 -502.7025 1723.0 1
156.41116 -505.32834 1732.0 1
175.3651 -507.9542 1741.0 1
194.50671 -510.58002 1750.0 1
213.83577 -513.2059 1759.0 1
233.35237 -515.8317 1768.0 1
253.05667 -518.4575 1777.0 1
275.69928 -526.3351 1804.0 1
-22.076485 -480.16403 1589.0 1
-5.4913607 -477.74658 1581.0 1
10.934094 -475.63132 1574.0 1
27.213566 -473.51605 1567.0 1
43.541664 -473.51605 1567.0 1
59.869865 -473.51605 1567.0 1
84.659004 -526.0954 1741.0 1
102.80029 -526.0954 1741.0 1
120.31626 -523.3758 1732.0 1
139.08264 -526.0954 1741.0 1
158.03668 -528.815 1750.0 1
177.17818 -531.5346 1759.0 1
195.50703 -531.5346 1759.0 1
214.92986 -534.2543 1768.0 1
235.72813 -539.6935 1786.0 1
256.90164 -545.13275 1804.0 1
280.13126 -553.89594 1833.0 1
-22.076485 -496.7214 1589.0 1
-5.4913607 -494.22058 1581.0 1
10.934094 -492.03238 1574.0 1
27.213566 -489.84418 1567.0 1
43.347157 -487.656 1560.0 1
59.869865 -489.84418 1567.0 1
85.53428 -549.8634 1759.0 1
103.86313 -549.8634 1759.0 1
121.566666 -547.05 1750.0 1
139.80162 -547.05 1750.0 1
158.84944 -549.8634 1759.0 1
177.17818 -549.8634 1759.0 1
196.50735 -552.6768 1768.0 1
216.02396 -555.4902 1777.0 1
236.91602 -561.117 1795.0 1
256.90164 -563.9304 1804.0 1
-22.076485 -513.27875 1589.0 1
-5.4913607 -510.69458 1581.0 1
10.885468 -506.1723 1567.0 1
27.092 -503.91116 1560.0 1
43.152653 -501.65002 1553.0 1
59.869865 -506.1723 1567.0 1
85.53428 -568.19214 1759.0 1
103.86313 -568.19214 1759.0 1
122.81706 -571.0993 1768.0 1
140.5206 -568.19214 1759.0 1
159.6622 -571.0993 1768.0 1
179.8978 -576.9137 1786.0 1
198.508 -576.9137 1786.0 1
218.21216 -579.82086 1795.0 1
239.42377 -585.95825 1814.0 1
253.05667 -574.00653 1777.0 1
313.44745 -662.514 2051.0 1
-22.076485 -529.8361 1589.0 1
-5.4913607 -527.1686 1581.0 1
10.885468 -522.5004 1567.0 1
27.213566 -522.5004 1567.0 1
43.541664 -522.5004 1567.0 1
59.869865 -522.5004 1567.0 1
85.971924 -589.52185 1768.0 1
104.394554 -589.52185 1768.0 1
122.81706 -589.52185 1768.0 1
141.23958 -589.52185 1768.0 1
159.6622 -589.52185 1768.0 1
178.99126 -592.5228 1777.0 1
199.50832 -598.5248 1795.0 1
221.7376 -608.1945 1824.0 1
247.21097 -624.5331 1873.0 1
292.07608 -683.8854 2051.0 1
313.44745 -683.8854 2051.0 1
-26.161121 -647.4884 1883.0 1
-5.4913607 -543.6427 1581.0 1
10.934094 -541.23566 1574.0 1
27.213566 -538.8286 1567.0 1
43.347157 -536.42163 1560.0 1
59.869865 -538.8286 1567.0 1
86.40956 -611.03925 1777.0 1
104.394554 -607.9445 1768.0 1
122.81706 -607.9445 1768.0 1
141.23958 -607.9445 1768.0 1
160.47496 -611.03925 1777.0 1
180.80434 -617.2287 1795.0 1
202.73157 -627.2007 1824.0 1
226.4787 -640.6112 1863.0 1
252.75441 -658.49194 1915.0 1
290.36722 -701.13055 2039.0 1
317.26813 -713.8534 2076.0 1
-25.883255 -660.0236 1863.0 1
-5.467047 -557.6367 1574.0 1
10.885468 -555.15674 1567.0 1
27.092 -552.6768 1560.0 1
43.347157 -552.6768 1560.0 1
59.869865 -555.15674 1567.0 1
86.8472 -632.7441 1786.0 1
105.45739 -632.7441 1786.0 1
124.692665 -635.9326 1795.0 1
143.39651 -635.9326 1795.0 1
162.1005 -635.9326 1795.0 1
181.71088 -639.12115 1804.0 1
204.84335 -652.93805 1843.0 1
231.46294 -674.54913 1904.0 1
255.52612 -685.8861 1936.0 1
292.07608 -726.6283 2051.0 1
317.26813 -735.4853 2076.0 1
-26.45288 -694.3888 1904.0 1
-5.467047 -574.0378 1574.0 1
10.934094 -574.0378 1574.0 1
27.092 -568.932 1560.0 1
43.347157 -568.932 1560.0 1
59.869865 -571.48486 1567.0 1
76.53835 -574.0378 1574.0 1
105.45739 -651.3542 1786.0 1
124.692665 -654.6365 1795.0 1
143.39651 -654.6365 1795.0 1
162.91325 -657.91876 1804.0 1
183.72542 -665.21277 1824.0 1
204.84335 -672.1421 1843.0 1
234.01582 -702.0475 1925.0 1
267.53693 -739.2469 2027.0 1
295.63626 -757.1172 2076.0 1
323.07553 -770.97577 2114.0 1
-26.161121 -706.35095 1883.0 1
-5.4913607 -593.0647 1581.0 1
10.885468 -587.813 1567.0 1
27.213566 -587.813 1567.0 1
43.347157 -585.1872 1560.0 1
59.60242 -585.1872 1560.0 1
76.53835 -590.43884 1574.0 1
105.45739 -669.9643 1786.0 1
124.692665 -673.3404 1795.0 1
144.1155 -676.71643 1804.0 1
162.91325 -676.71643 1804.0 1
183.72542 -684.2189 1824.0 1
207.06628 -698.8485 1863.0 1
250.79202 -773.8725 2063.0 1
272.28842 -773.8725 2063.0 1
299.19644 -788.1271 2101.0 1
327.04904 -802.7568 2140.0 1
-25.883255 -718.261 1863.0 1
-6.4708447 -718.261 1863.0 1
10.885468 -604.1411 1567.0 1
27.213566 -604.1411 1567.0 1
43.347157 -601.4424 1560.0 1
59.869865 -604.1411 1567.0 1
76.19797 -604.1411 1567.0 1
105.988815 -692.04425 1795.0 1
124.692665 -692.04425 1795.0 1
144.1155 -695.5141 1804.0 1
162.91325 -695.5141 1804.0 1
184.63196 -706.69476 1833.0 1
207.06628 -718.261 1863.0 1
253.83119 -805.00745 2088.0 1
275.5881 -805.00745 2088.0 1
302.89902 -820.0435 2127.0 1
325.0623 -820.0435 2127.0 1
-6.4708447 -737.6735 1863.0 1
10.934094 -623.2411 1574.0 1
27.213566 -620.46936 1567.0 1
43.541664 -620.46936 1567.0 1
59.869865 -620.46936 1567.0 1
76.53835 -623.2411 1574.0 1
105.988815 -710.7482 1795.0 1
124.692665 -710.7482 1795.0 1
144.1155 -714.3119 1804.0 1
162.91325 -714.3119 1804.0 1
185.63922 -729.75433 1843.0 1
232.0743 -826.7645 2088.0 1
255.41156 -831.912 2101.0 1
279.01974 -837.05945 2114.0 1
304.75027 -847.35443 2140.0 1
329.03577 -852.5019 2153.0 1
-6.4708447 -757.08594 1863.0 1
10.934094 -639.64215 1574.0 1
27.213566 -636.7975 1567.0 1
43.541664 -636.7975 1567.0 1
59.869865 -636.7975 1567.0 1
76.53835 -639.64215 1574.0 1
105.988815 -729.4521 1795.0 1
125.31786 -733.1095 1804.0 1
144.1155 -733.1095 1804.0 1
163.81631 -737.17334 1814.0 1
187.65375 -757.08594 1863.0 1
234.96411 -859.08734 2114.0 1
256.99194 -859.08734 2114.0 1
282.45142 -869.6532 2140.0 1
308.59528 -880.6255 2167.0 1
339.73364 -903.38275 2223.0 1
