ply
format ascii 1.0
comment : created from Kinect user tracker
element vertex 868
property float x
property float y
property float z
property int userId
end_header
142.47614 320.5713 2051.0 1
99.73326 299.1999 2051.0 1
120.3962 297.44934 2039.0 1
139.97533 293.9482 2015.0 1
76.98646 272.95187 2015.0 1
97.982704 272.95187 2015.0 1
118.97909 272.95187 2015.0 1
138.3776 269.8363 1992.0 1
159.13419 269.8363 1992.0 1
181.96796 272.95187 2015.0 1
205.38164 276.2029 2039.0 1
227.96187 277.82843 2051.0 1
36.487366 262.70905 2101.0 1
55.990078 251.95561 2015.0 1
76.52798 250.45512 2003.0 1
97.399185 250.45512 2003.0 1
116.91245 247.57921 1980.0 1
137.54399 247.57921 1980.0 1
158.17554 247.57921 1980.0 1
179.8909 249.07968 1992.0 1
202.9642 251.95561 2015.0 1
222.62682 250.45512 2003.0 1
55.65664 229.58383 2003.0 1
75.64922 226.94757 1980.0 1
96.86429 228.32301 1992.0 1
117.62101 228.32301 1992.0 1
137.54399 226.94757 1980.0 1
157.2968 225.68675 1969.0 1
177.81384 225.68675 1969.0 1
198.33078 225.68675 1969.0 1
223.96059 230.95927 2015.0 1
244.95683 230.95927 2015.0 1
35.202232 211.2134 2027.0 1
55.990078 209.963 2015.0 1
76.52798 208.7126 2003.0 1
97.982704 209.963 2015.0 1
116.91245 206.316 1980.0 1
136.77986 205.1698 1969.0 1
157.2968 205.1698 1969.0 1
176.82048 204.02359 1958.0 1
198.33078 205.1698 1969.0 1
222.62682 208.7126 2003.0 1
244.95683 209.963 2015.0 1
14.421335 194.6873 2076.0 1
35.619034 192.3428 2051.0 1
56.323517 190.09207 2027.0 1
76.98646 188.96672 2015.0 1
97.982704 188.96672 2015.0 1
116.91245 185.68442 1980.0 1
137.54399 185.68442 1980.0 1
157.2968 184.65283 1969.0 1
178.80722 185.68442 1980.0 1
200.64749 186.80978 1992.0 1
223.96059 188.96672 2015.0 1
252.37239 194.6873 2076.0 1
14.331028 171.97166 2063.0 1
35.619034 170.97134 2051.0 1
56.323517 168.9707 2027.0 1
77.44494 168.9707 2027.0 1
97.399185 166.97006 2003.0 1
116.91245 165.05278 1980.0 1
136.77986 164.13583 1969.0 1
157.2968 164.13583 1969.0 1
178.80722 165.05278 1980.0 1
202.9642 167.97038 2015.0 1
229.29562 171.97166 2063.0 1
253.83119 174.05566 2088.0 1
14.685309 154.19518 2114.0 1
35.827435 150.47523 2063.0 1
56.9904 149.59995 2051.0 1
78.3619 149.59995 2051.0 1
97.399185 146.09883 2003.0 1
118.27052 146.09883 2003.0 1
139.14172 146.09883 2003.0 1
159.13419 145.2965 1992.0 1
180.88428 146.09883 2003.0 1
205.38164 148.72467 2039.0 1
232.0743 152.29872 2088.0 1
256.99194 154.19518 2114.0 1
-7.478115 134.60553 2153.0 1
14.775616 132.98001 2127.0 1
36.487366 131.35449 2101.0 1
58.018505 130.54173 2088.0 1
78.3619 128.2285 2051.0 1
97.982704 125.977776 2015.0 1
118.27052 125.22754 2003.0 1
139.14172 125.22754 2003.0 1
159.13419 124.53982 1992.0 1
180.88428 125.22754 2003.0 1
205.38164 127.47826 2039.0 1
234.96411 132.16725 2114.0 1
258.5723 132.98001 2127.0 1
37.164665 111.493996 2140.0 1
59.46341 111.493996 2140.0 1
78.82038 107.4823 2063.0 1
97.982704 104.9815 2015.0 1
118.97909 104.9815 2015.0 1
139.14172 104.3563 2003.0 1
158.17554 103.158 1980.0 1
181.96796 104.9815 2015.0 1
205.38164 106.231895 2039.0 1
236.40901 110.816696 2127.0 1
15.539752 93.23818 2237.0 1
38.84923 93.23818 2237.0 1
60.963886 91.44594 2194.0 1
82.79388 90.32058 2167.0 1
99.14974 84.98554 2039.0 1
118.97909 83.98522 2015.0 1
139.14172 83.48506 2003.0 1
159.13419 83.02658 1992.0 1
183.05164 84.48538 2027.0 1
207.79909 85.985855 2063.0 1
240.85487 90.32058 2167.0 1
-54.753613 70.39751 2252.0 1
-30.88485 69.49097 2223.0 1
-7.721249 69.49097 2223.0 1
15.442498 69.49097 2223.0 1
38.3456 69.022064 2208.0 1
60.963886 68.58443 2194.0 1
82.79388 67.74041 2167.0 1
101.53245 65.27087 2088.0 1
119.687645 63.36401 2027.0 1
139.97533 62.988888 2015.0 1
160.97157 62.988888 2015.0 1
183.05164 63.36401 2027.0 1
218.27466 67.74041 2167.0 1
243.85583 68.58443 2194.0 1
266.71725 68.58443 2194.0 1
-78.21947 46.93169 2252.0 1
-54.048523 46.32733 2223.0 1
-30.67645 46.01473 2208.0 1
-7.669149 46.01473 2208.0 1
15.338298 46.01473 2208.0 1
38.102467 45.72297 2194.0 1
60.60266 45.45205 2181.0 1
82.79388 45.16029 2167.0 1
104.061035 44.59761 2140.0 1
124.0571 43.78485 2101.0 1
142.47614 42.74285 2051.0 1
163.84749 42.74285 2051.0 1
194.43028 44.86853 2153.0 1
218.27466 45.16029 2167.0 1
240.85487 45.16029 2167.0 1
265.1369 45.45205 2181.0 1
287.86285 45.45205 2181.0 1
314.43393 46.01473 2208.0 1
337.44125 46.01473 2208.0 1
-78.21947 23.465816 2252.0 1
-53.683823 23.007338 2208.0 1
-30.67645 23.007338 2208.0 1
-7.6205225 22.861458 2194.0 1
15.338298 23.007338 2208.0 1
37.876698 22.725998 2181.0 1
60.21365 22.580118 2167.0 1
82.79388 22.580118 2167.0 1
104.693184 22.434238 2153.0 1
125.592316 22.163319 2127.0 1
147.7556 22.163319 2127.0 1
171.99593 22.434238 2153.0 1
194.43028 22.434238 2153.0 1
218.27466 22.580118 2167.0 1
240.85487 22.580118 2167.0 1
263.43497 22.580118 2167.0 1
287.86285 22.725998 2181.0 1
312.44025 22.861458 2194.0 1
333.3149 22.725998 2181.0 1
-102.99477 0.0 2281.0 1
-77.69846 0.0 2237.0 1
-53.683823 0.0 2208.0 1
-30.481943 0.0 2194.0 1
-7.575369 0.0 2181.0 1
15.150738 0.0 2181.0 1
37.633568 0.0 2167.0 1
59.824635 0.0 2153.0 1
82.25898 0.0 2153.0 1
104.061035 0.0 2140.0 1
126.359924 0.0 2140.0 1
148.65866 0.0 2140.0 1
170.95741 0.0 2140.0 1
194.43028 0.0 2153.0 1
216.86449 0.0 2153.0 1
239.29883 0.0 2153.0 1
263.43497 0.0 2167.0 1
286.01505 0.0 2167.0 1
306.60156 0.0 2153.0 1
331.17535 0.0 2167.0 1
356.04105 0.0 2181.0 1
-102.31747 -23.611696 2266.0 1
-78.21947 -23.465816 2252.0 1
-53.683823 -23.007338 2208.0 1
-30.481943 -22.861458 2194.0 1
-7.575369 -22.725998 2181.0 1
15.053484 -22.580118 2167.0 1
37.633568 -22.580118 2167.0 1
59.824635 -22.434238 2153.0 1
81.76229 -22.298779 2140.0 1
103.42889 -22.163319 2127.0 1
126.359924 -22.298779 2140.0 1
148.65866 -22.298779 2140.0 1
170.95741 -22.298779 2140.0 1
193.25629 -22.298779 2140.0 1
215.55504 -22.298779 2140.0 1
237.85391 -22.298779 2140.0 1
261.73303 -22.434238 2153.0 1
286.01505 -22.580118 2167.0 1
308.59528 -22.580118 2167.0 1
331.17535 -22.580118 2167.0 1
356.04105 -22.725998 2181.0 1
-102.31747 -47.223392 2266.0 1
-78.21947 -46.931633 2252.0 1
-53.683823 -46.014675 2208.0 1
-30.481943 -45.722916 2194.0 1
-7.575369 -45.451996 2181.0 1
15.150738 -45.451996 2181.0 1
37.633568 -45.160236 2167.0 1
59.824635 -44.868477 2153.0 1
81.76229 -44.597557 2140.0 1
103.42889 -44.326637 2127.0 1
125.592316 -44.326637 2127.0 1
147.7556 -44.326637 2127.0 1
170.95741 -44.597557 2140.0 1
193.25629 -44.597557 2140.0 1
215.55504 -44.597557 2140.0 1
237.85391 -44.597557 2140.0 1
261.73303 -44.868477 2153.0 1
284.16724 -44.868477 2153.0 1
308.59528 -45.160236 2167.0 1
333.3149 -45.451996 2181.0 1
360.4487 -46.014675 2208.0 1
-128.48558 -72.27316 2312.0 1
-102.31747 -70.835205 2266.0 1
-78.21947 -70.39756 2252.0 1
-53.683823 -69.022125 2208.0 1
-30.481943 -68.58448 2194.0 1
-7.526742 -67.74046 2167.0 1
15.053484 -67.74046 2167.0 1
37.633568 -67.74046 2167.0 1
59.824635 -67.30282 2153.0 1
81.76229 -66.89644 2140.0 1
104.061035 -66.89644 2140.0 1
125.592316 -66.49006 2127.0 1
147.7556 -66.49006 2127.0 1
169.91888 -66.49006 2127.0 1
192.0823 -66.49006 2127.0 1
215.55504 -66.89644 2140.0 1
239.29883 -67.30282 2153.0 1
261.73303 -67.30282 2153.0 1
284.16724 -67.30282 2153.0 1
308.59528 -67.74046 2167.0 1
335.30167 -68.58448 2194.0 1
360.4487 -69.022125 2208.0 1
386.061 -69.49102 2223.0 1
-128.48558 -96.36418 2312.0 1
-102.99477 -95.0721 2281.0 1
-78.705734 -94.4469 2266.0 1
-54.388912 -93.23818 2237.0 1
-30.481943 -91.44594 2194.0 1
-7.526742 -90.32058 2167.0 1
15.053484 -90.32058 2167.0 1
37.633568 -90.32058 2167.0 1
59.824635 -89.73706 2153.0 1
82.25898 -89.73706 2153.0 1
104.061035 -89.19522 2140.0 1
126.359924 -89.19522 2140.0 1
147.7556 -88.65338 2127.0 1
168.88036 -88.11154 2114.0 1
192.0823 -88.65338 2127.0 1
214.24559 -88.65338 2127.0 1
237.85391 -89.19522 2140.0 1
261.73303 -89.73706 2153.0 1
286.01505 -90.32058 2167.0 1
308.59528 -90.32058 2167.0 1
335.30167 -91.44594 2194.0 1
365.18283 -93.23818 2237.0 1
388.49234 -93.23818 2237.0 1
-128.48558 -120.4552 2312.0 1
-104.39452 -120.4552 2312.0 1
-79.78246 -119.6737 2297.0 1
-55.093998 -118.0586 2266.0 1
-30.67645 -115.0368 2208.0 1
-7.526742 -112.900696 2167.0 1
15.053484 -112.900696 2167.0 1
37.390434 -112.171295 2153.0 1
59.824635 -112.171295 2153.0 1
82.25898 -112.171295 2153.0 1
103.42889 -110.816696 2127.0 1
126.359924 -111.493996 2140.0 1
148.65866 -111.493996 2140.0 1
169.91888 -110.816696 2127.0 1
193.25629 -111.493996 2140.0 1
215.55504 -111.493996 2140.0 1
237.85391 -111.493996 2140.0 1
261.73303 -112.171295 2153.0 1
286.01505 -112.900696 2167.0 1
310.58896 -113.6301 2181.0 1
337.44125 -115.0368 2208.0 1
367.63156 -117.3292 2252.0 1
-156.80013 -148.5475 2376.0 1
-130.20834 -146.48433 2343.0 1
-104.39452 -144.54622 2312.0 1
-80.82446 -145.48401 2327.0 1
-56.21241 -144.54622 2312.0 1
-30.67645 -138.04413 2208.0 1
-7.575369 -136.3561 2181.0 1
15.053484 -135.48082 2167.0 1
37.390434 -134.60553 2153.0 1
59.824635 -134.60553 2153.0 1
82.25898 -134.60553 2153.0 1
104.061035 -133.79277 2140.0 1
126.359924 -133.79277 2140.0 1
148.65866 -133.79277 2140.0 1
169.91888 -132.98001 2127.0 1
192.0823 -132.98001 2127.0 1
215.55504 -133.79277 2140.0 1
237.85391 -133.79277 2140.0 1
261.73303 -134.60553 2153.0 1
286.01505 -135.48082 2167.0 1
314.43393 -138.04413 2208.0 1
339.73364 -138.98193 2223.0 1
369.917 -141.67029 2266.0 1
-186.67775 -178.19237 2443.0 1
-157.85602 -174.47243 2392.0 1
-132.04227 -173.30539 2376.0 1
-106.51672 -172.06541 2359.0 1
-81.93593 -172.06541 2359.0 1
-55.4587 -166.3761 2281.0 1
-31.079357 -163.16673 2237.0 1
-7.6205225 -160.03032 2194.0 1
15.150738 -159.08209 2181.0 1
37.633568 -158.06093 2167.0 1
59.824635 -157.03978 2153.0 1
82.25898 -157.03978 2153.0 1
104.693184 -157.03978 2153.0 1
127.127525 -157.03978 2153.0 1
148.65866 -156.09155 2140.0 1
169.91888 -155.14334 2127.0 1
192.0823 -155.14334 2127.0 1
215.55504 -156.09155 2140.0 1
236.40901 -155.14334 2127.0 1
263.43497 -158.06093 2167.0 1
289.57867 -160.03032 2194.0 1
322.69354 -165.282 2266.0 1
344.16562 -164.26083 2252.0 1
367.63156 -164.26083 2252.0 1
-184.0797 -200.81429 2409.0 1
-157.85602 -199.39717 2392.0 1
-132.04227 -198.0634 2376.0 1
-107.28433 -198.0634 2376.0 1
-82.5264 -198.0634 2376.0 1
-31.482264 -188.8938 2266.0 1
-7.669149 -184.05891 2208.0 1
15.241045 -182.89188 2194.0 1
37.633568 -180.64116 2167.0 1
59.824635 -179.47412 2153.0 1
82.25898 -179.47412 2153.0 1
104.693184 -179.47412 2153.0 1
127.127525 -179.47412 2153.0 1
149.56174 -179.47412 2153.0 1
169.91888 -177.30676 2127.0 1
193.25629 -178.39044 2140.0 1
215.55504 -178.39044 2140.0 1
239.29883 -179.47412 2153.0 1
263.43497 -180.64116 2167.0 1
293.40628 -185.30933 2223.0 1
324.82962 -190.1442 2281.0 1
346.30518 -188.8938 2266.0 1
374.97766 -191.47797 2297.0 1
-210.65767 -227.5103 2426.0 1
-182.78067 -224.32178 2392.0 1
-157.85602 -224.32178 2392.0 1
-132.93144 -224.32178 2392.0 1
-108.00679 -224.32178 2392.0 1
-31.482264 -212.5055 2266.0 1
-7.721249 -208.47296 2223.0 1
15.338298 -207.06625 2208.0 1
38.102467 -205.75334 2194.0 1
60.21365 -203.22128 2167.0 1
82.79388 -203.22128 2167.0 1
104.693184 -201.90836 2153.0 1
127.127525 -201.90836 2153.0 1
149.56174 -201.90836 2153.0 1
171.99593 -201.90836 2153.0 1
194.43028 -201.90836 2153.0 1
216.86449 -201.90836 2153.0 1
240.85487 -203.22128 2167.0 1
268.4192 -207.06625 2208.0 1
305.1531 -216.81938 2312.0 1
331.38034 -218.22607 2327.0 1
355.62762 -218.22607 2327.0 1
379.87506 -218.22607 2327.0 1
-209.1815 -251.01779 2409.0 1
-182.78067 -249.2464 2392.0 1
-157.85602 -249.2464 2392.0 1
-133.87619 -251.01779 2409.0 1
-108.77439 -251.01779 2409.0 1
-31.690662 -237.68019 2281.0 1
-7.769876 -233.0954 2237.0 1
15.442498 -231.6366 2223.0 1
38.3456 -230.0736 2208.0 1
60.60266 -227.2602 2181.0 1
82.79388 -225.80139 2167.0 1
105.373955 -225.80139 2167.0 1
127.954185 -225.80139 2167.0 1
149.56174 -224.34259 2153.0 1
171.99593 -224.34259 2153.0 1
194.43028 -224.34259 2153.0 1
219.68483 -227.2602 2181.0 1
243.85583 -228.61479 2194.0 1
273.76813 -234.6584 2252.0 1
309.2447 -244.1406 2343.0 1
333.65884 -244.1406 2343.0 1
355.62762 -242.47339 2327.0 1
382.487 -244.1406 2343.0 1
-209.1815 -276.11954 2409.0 1
-182.78067 -274.17102 2392.0 1
-157.85602 -274.17102 2392.0 1
-132.93144 -274.17102 2392.0 1
-31.912956 -263.2821 2297.0 1
-7.821976 -258.1242 2252.0 1
15.442498 -254.80023 2223.0 1
38.102467 -251.47626 2194.0 1
60.963886 -251.47626 2194.0 1
82.79388 -248.38152 2167.0 1
105.373955 -248.38152 2167.0 1
127.954185 -248.38152 2167.0 1
150.53427 -248.38152 2167.0 1
173.11435 -248.38152 2167.0 1
195.69456 -248.38152 2167.0 1
220.99428 -251.47626 2194.0 1
247.0791 -254.80023 2223.0 1
275.47006 -259.72888 2266.0 1
317.9558 -276.11954 2409.0 1
340.63678 -274.17102 2392.0 1
360.51807 -270.38855 2359.0 1
385.09894 -270.38855 2359.0 1
-234.2833 -301.2213 2409.0 1
-209.1815 -301.2213 2409.0 1
-182.78067 -299.09564 2392.0 1
-157.85602 -299.09564 2392.0 1
-32.121357 -289.09244 2312.0 1
-7.870603 -283.34058 2266.0 1
15.643952 -281.59003 2252.0 1
38.3456 -276.08826 2208.0 1
60.963886 -274.3377 2194.0 1
83.328766 -272.7122 2181.0 1
106.054726 -272.7122 2181.0 1
127.954185 -270.96164 2167.0 1
150.53427 -270.96164 2167.0 1
174.23276 -272.7122 2181.0 1
198.13286 -274.3377 2194.0 1
223.91534 -277.96387 2223.0 1
248.63515 -279.71442 2237.0 1
275.47006 -283.34058 2266.0 1
299.08173 -283.34058 2266.0 1
340.63678 -299.09564 2392.0 1
363.11612 -297.095 2376.0 1
387.87415 -297.095 2376.0 1
-263.046 -330.92883 2443.0 1
-232.62999 -324.02036 2392.0 1
-207.70532 -324.02036 2392.0 1
-185.37872 -328.626 2426.0 1
-158.9779 -326.32318 2409.0 1
-32.329754 -315.21545 2327.0 1
-7.870603 -306.9524 2266.0 1
15.539752 -303.02405 2237.0 1
38.6061 -301.12762 2223.0 1
61.3529 -299.0957 2208.0 1
83.825455 -297.19928 2194.0 1
106.054726 -295.4383 2181.0 1
128.78084 -295.4383 2181.0 1
151.50679 -295.4383 2181.0 1
175.27129 -297.19928 2194.0 1
199.39714 -299.0957 2208.0 1
223.91534 -301.12762 2223.0 1
250.30235 -305.05597 2252.0 1
277.29355 -308.9843 2281.0 1
340.63678 -324.02036 2392.0 1
363.11612 -321.853 2376.0 1
390.48608 -324.02036 2392.0 1
412.632 -321.853 2376.0 1
-259.3851 -351.42493 2409.0 1
-234.2833 -351.42493 2409.0 1
-209.1815 -351.42493 2409.0 1
-185.37872 -353.9049 2426.0 1
-58.570805 -351.42493 2409.0 1
-32.329754 -339.46277 2327.0 1
-7.9227033 -332.7523 2281.0 1
15.643952 -328.5218 2252.0 1
38.6061 -324.29126 2223.0 1
61.3529 -322.10306 2208.0 1
83.825455 -320.06073 2194.0 1
106.686874 -320.06073 2194.0 1
128.78084 -318.1643 2181.0 1
151.50679 -318.1643 2181.0 1
176.3897 -322.10306 2208.0 1
200.75174 -324.29126 2223.0 1
226.83643 -328.5218 2252.0 1
251.8584 -330.5641 2266.0 1
279.23862 -335.08636 2297.0 1
343.05768 -351.42493 2409.0 1
368.1594 -351.42493 2409.0 1
390.48608 -348.94498 2392.0 1
-259.3851 -376.5267 2409.0 1
-232.62999 -373.8696 2392.0 1
-209.1815 -376.5267 2409.0 1
-182.78067 -373.8696 2392.0 1
-58.570805 -376.5267 2409.0 1
-32.552048 -366.2109 2343.0 1
-7.9227033 -356.5203 2281.0 1
15.741206 -354.17578 2266.0 1
38.6061 -347.4549 2223.0 1
61.3529 -345.11038 2208.0 1
84.360344 -345.11038 2208.0 1
107.367645 -345.11038 2208.0 1
130.37509 -345.11038 2208.0 1
153.3824 -345.11038 2208.0 1
177.588 -347.4549 2223.0 1
202.01604 -349.6431 2237.0 1
228.2466 -354.17578 2266.0 1
253.5256 -356.5203 2281.0 1
282.88562 -363.71008 2327.0 1
347.8995 -381.84088 2443.0 1
368.1594 -376.5267 2409.0 1
393.2613 -376.5267 2409.0 1
-288.50198 -407.29694 2443.0 1
-257.55463 -398.79422 2392.0 1
-234.2833 -401.62845 2409.0 1
-58.157475 -398.79422 2392.0 1
-32.552048 -390.62494 2343.0 1
-7.870603 -377.78748 2266.0 1
15.741206 -377.78748 2266.0 1
38.84923 -372.9526 2237.0 1
61.7697 -370.61853 2223.0 1
84.93345 -370.61853 2223.0 1
108.097046 -370.61853 2223.0 1
131.2608 -370.61853 2223.0 1
154.4244 -370.61853 2223.0 1
177.588 -370.61853 2223.0 1
203.37064 -375.4534 2252.0 1
228.2466 -377.78748 2266.0 1
253.5256 -380.2883 2281.0 1
281.06213 -385.4566 2312.0 1
345.4786 -404.46268 2426.0 1
373.3555 -407.29694 2443.0 1
393.2613 -401.62845 2409.0 1
-286.4944 -429.74158 2426.0 1
-257.55463 -423.7188 2392.0 1
-58.570805 -426.7302 2409.0 1
-32.77434 -417.8732 2359.0 1
-8.030377 -409.54764 2312.0 1
15.845407 -404.05627 2281.0 1
39.352867 -401.3992 2266.0 1
62.158714 -396.26212 2237.0 1
84.93345 -393.78217 2223.0 1
108.097046 -393.78217 2223.0 1
131.2608 -393.78217 2223.0 1
154.4244 -393.78217 2223.0 1
178.7064 -396.26212 2237.0 1
204.63493 -401.3992 2266.0 1
229.75749 -404.05627 2281.0 1
255.30396 -406.89053 2297.0 1
282.88562 -412.2047 2327.0 1
350.32043 -435.76434 2460.0 1
375.95355 -435.76434 2460.0 1
396.03647 -429.74158 2426.0 1
-284.48682 -451.8321 2409.0 1
-257.55463 -448.64355 2392.0 1
-58.157475 -448.64355 2392.0 1
-33.01053 -445.6426 2376.0 1
-8.082478 -436.45215 2327.0 1
16.164955 -436.45215 2327.0 1
39.613365 -427.8244 2281.0 1
62.964527 -425.011 2266.0 1
86.04144 -422.38516 2252.0 1
108.777824 -419.57175 2237.0 1
132.08745 -419.57175 2237.0 1
155.39693 -419.57175 2237.0 1
181.02312 -425.011 2266.0 1
205.98953 -427.8244 2281.0 1
231.36913 -430.82535 2297.0 1
256.97116 -433.63876 2312.0 1
282.88562 -436.45215 2327.0 1
347.8995 -458.2091 2443.0 1
375.95355 -461.39764 2460.0 1
398.81168 -458.2091 2443.0 1
-282.47922 -473.56818 2392.0 1
-257.55463 -473.56818 2392.0 1
-58.570805 -476.93384 2409.0 1
-33.01053 -470.40048 2376.0 1
-8.138051 -463.86716 2343.0 1
16.164955 -460.69946 2327.0 1
40.151733 -457.72977 2312.0 1
63.381325 -451.5924 2281.0 1
86.57633 -448.62268 2266.0 1
110.187996 -448.62268 2266.0 1
133.7998 -448.62268 2266.0 1
157.41147 -448.62268 2266.0 1
181.02312 -448.62268 2266.0 1
205.98953 -451.5924 2281.0 1
231.36913 -454.76007 2297.0 1
256.97116 -457.72977 2312.0 1
282.88562 -460.69946 2327.0 1
347.8995 -483.66516 2443.0 1
375.95355 -487.03082 2460.0 1
404.5253 -490.59445 2478.0 1
-307.40387 -498.4928 2392.0 1
-282.47922 -498.4928 2392.0 1
-255.83186 -495.1584 2376.0 1
-58.98413 -505.5784 2426.0 1
-33.01053 -495.1584 2376.0 1
-8.252671 -495.1584 2376.0 1
16.276102 -488.2812 2343.0 1
40.41223 -484.94678 2327.0 1
63.825912 -478.6948 2297.0 1
87.14944 -475.36038 2281.0 1
110.9174 -475.36038 2281.0 1
133.7998 -472.2344 2266.0 1
158.45346 -475.36038 2281.0 1
182.22142 -475.36038 2281.0 1
208.78905 -481.8208 2312.0 1
232.88002 -481.8208 2312.0 1
258.63834 -484.94678 2327.0 1
282.88562 -484.94678 2327.0 1
355.44705 -520.1664 2496.0 1
375.95355 -512.664 2460.0 1
404.5253 -516.41516 2478.0 1
-282.47922 -523.4174 2392.0 1
-257.55463 -523.4174 2392.0 1
-58.98413 -530.8573 2426.0 1
-33.232822 -523.4174 2392.0 1
-8.252671 -519.91626 2376.0 1
16.387249 -516.19635 2359.0 1
40.690098 -512.69525 2343.0 1
64.242714 -505.9118 2312.0 1
87.76074 -502.62952 2297.0 1
111.69542 -502.62952 2297.0 1
134.6855 -499.1284 2281.0 1
158.45346 -499.1284 2281.0 1
182.22142 -499.1284 2281.0 1
205.98953 -499.1284 2281.0 1
232.88002 -505.9118 2312.0 1
258.63834 -509.19412 2327.0 1
286.77576 -516.19635 2359.0 1
334.19016 -554.0522 2532.0 1
355.44705 -546.1747 2496.0 1
378.70444 -542.2359 2478.0 1
413.3406 -554.0522 2532.0 1
-307.40387 -548.34204 2392.0 1
-284.48682 -552.2391 2409.0 1
-257.55463 -548.34204 2392.0 1
-59.397457 -560.03326 2443.0 1
-33.232822 -548.34204 2392.0 1
-8.308245 -548.34204 2392.0 1
16.505342 -544.6742 2376.0 1
40.690098 -537.10925 2343.0 1
64.65951 -533.4414 2327.0 1
88.33384 -530.0028 2312.0 1
111.69542 -526.5642 2297.0 1
135.63025 -526.5642 2297.0 1
158.45346 -522.89636 2281.0 1
182.22142 -522.89636 2281.0 1
205.98953 -522.89636 2281.0 1
232.88002 -530.0028 2312.0 1
258.63834 -533.4414 2327.0 1
284.8307 -537.10925 2343.0 1
334.19016 -580.4356 2532.0 1
358.01038 -576.3093 2514.0 1
384.2062 -576.3093 2514.0 1
404.5253 -568.05664 2478.0 1
-307.40387 -573.2668 2392.0 1
-284.48682 -577.341 2409.0 1
-59.810783 -589.56366 2460.0 1
-33.705193 -581.4152 2426.0 1
-8.308245 -573.2668 2392.0 1
16.61649 -573.2668 2392.0 1
40.690098 -561.52344 2343.0 1
64.65951 -557.68884 2327.0 1
88.906944 -557.68884 2327.0 1
112.42482 -554.09393 2312.0 1
136.51595 -554.09393 2312.0 1
159.56493 -550.4991 2297.0 1
183.4996 -550.4991 2297.0 1
207.43443 -550.4991 2297.0 1
231.36913 -550.4991 2297.0 1
258.63834 -557.68884 2327.0 1
336.6979 -611.3727 2551.0 1
360.5737 -606.81915 2532.0 1
384.2062 -602.50525 2514.0 1
-309.5886 -602.44275 2409.0 1
-284.48682 -602.44275 2409.0 1
-60.24842 -619.69824 2478.0 1
-33.94138 -610.94543 2443.0 1
-8.367291 -602.44275 2409.0 1
16.734583 -602.44275 2409.0 1
41.2632 -594.19006 2376.0 1
65.104095 -585.93744 2343.0 1
88.906944 -581.93616 2327.0 1
112.42482 -578.185 2312.0 1
135.63025 -574.4338 2297.0 1
159.56493 -574.4338 2297.0 1
183.4996 -574.4338 2297.0 1
207.43443 -574.4338 2297.0 1
232.88002 -578.185 2312.0 1
258.63834 -581.93616 2327.0 1
-60.68606 -650.208 2496.0 1
-34.177567 -640.83 2460.0 1
-8.485386 -636.4015 2443.0 1
17.088865 -640.83 2460.0 1
42.13153 -631.97296 2426.0 1
66.02106 -618.948 2376.0 1
88.906944 -606.1835 2327.0 1
113.15422 -606.1835 2327.0 1
135.63025 -598.36847 2297.0 1
159.56493 -598.36847 2297.0 1
183.4996 -598.36847 2297.0 1
207.43443 -598.36847 2297.0 1
232.88002 -602.276 2312.0 1
258.63834 -606.1835 2327.0 1
-61.56134 -685.9694 2532.0 1
-34.927807 -681.09283 2514.0 1
-8.669473 -676.2163 2496.0 1
17.338945 -676.2163 2496.0 1
43.0346 -671.3397 2478.0 1
68.35513 -666.46313 2460.0 1
90.129555 -639.1002 2359.0 1
113.15422 -630.4308 2327.0 1
135.63025 -622.3032 2297.0 1
160.60693 -626.367 2312.0 1
183.4996 -622.3032 2297.0 1
207.43443 -622.3032 2297.0 1
231.36913 -622.3032 2297.0 1
256.97116 -626.367 2312.0 1
-60.68606 -702.22455 2496.0 1
-34.927807 -707.2887 2514.0 1
-8.731993 -707.2887 2514.0 1
17.589027 -712.35284 2532.0 1
43.9724 -712.35284 2532.0 1
70.355774 -712.35284 2532.0 1
90.129555 -663.681 2359.0 1
113.15422 -654.6781 2327.0 1
135.63025 -646.2379 2297.0 1
159.56493 -646.2379 2297.0 1
182.22142 -641.7365 2281.0 1
205.98953 -641.7365 2281.0 1
232.88002 -650.458 2312.0 1
256.97116 -650.458 2312.0 1
-35.44186 -744.2798 2551.0 1
-8.794514 -738.7363 2532.0 1
17.853 -749.82324 2570.0 1
44.63233 -749.82324 2570.0 1
71.93961 -755.3667 2589.0 1
91.39037 -697.88995 2392.0 1
112.42482 -674.54913 2312.0 1
135.63025 -670.1727 2297.0 1
159.56493 -670.1727 2297.0 1
182.22142 -665.5046 2281.0 1
207.43443 -670.1727 2297.0 1
234.39091 -678.92554 2327.0 1
260.4167 -683.5937 2343.0 1
-36.247673 -788.38763 2609.0 1
-8.9265 -776.6026 2570.0 1
17.98499 -782.34406 2589.0 1
45.30963 -788.38763 2609.0 1
73.05108 -794.4312 2629.0 1
90.129555 -712.84265 2359.0 1
113.15422 -703.17285 2327.0 1
135.63025 -694.1075 2297.0 1
159.56493 -694.1075 2297.0 1
183.4996 -694.1075 2297.0 1
208.78905 -698.6402 2312.0 1
232.88002 -698.6402 2312.0 1
255.30396 -694.1075 2297.0 1
-36.247673 -815.57336 2609.0 1
-9.061961 -815.57336 2609.0 1
18.262856 -821.8254 2629.0 1
45.656967 -821.8254 2629.0 1
73.60681 -828.0774 2649.0 1
90.129555 -737.4234 2359.0 1
113.93224 -732.4218 2343.0 1
136.51595 -722.7312 2312.0 1
159.56493 -718.0422 2297.0 1
183.4996 -718.0422 2297.0 1
208.78905 -722.7312 2312.0 1
232.88002 -722.7312 2312.0 1
-35.969807 -836.29877 2589.0 1
-9.200895 -855.67993 2649.0 1
18.540724 -862.1403 2669.0 1
46.35163 -862.1403 2669.0 1
75.32958 -875.70715 2711.0 1
90.129555 -762.00415 2359.0 1
113.15422 -751.6675 2327.0 1
137.40166 -751.6675 2327.0 1
160.60693 -746.8222 2312.0 1
183.4996 -741.9769 2297.0 1
210.14365 -751.6675 2327.0 1
236.00255 -756.8358 2343.0 1
19.443794 -933.29846 2799.0 1
48.227234 -925.9628 2777.0 1
77.7748 -933.29846 2799.0 1
89.51825 -781.2499 2343.0 1
113.15422 -775.9148 2327.0 1
137.40166 -775.9148 2327.0 1
161.64893 -775.9148 2327.0 1
185.89621 -775.9148 2327.0 1
208.78905 -770.9132 2312.0 1
231.36913 -765.9116 2297.0 1
19.763342 -978.28174 2845.0 1
48.6093 -962.4642 2799.0 1
77.7748 -962.4642 2799.0 1
90.129555 -811.1658 2359.0 1
113.15422 -800.16223 2327.0 1
137.40166 -800.16223 2327.0 1
160.60693 -795.00433 2312.0 1
185.89621 -800.16223 2327.0 1
210.14365 -800.16223 2327.0 1
236.00255 -805.664 2343.0 1
19.930063 -1016.4293 2869.0 1
49.824966 -1016.4293 2869.0 1
79.052986 -1007.92664 2845.0 1
90.129555 -835.7465 2359.0 1
113.93224 -830.07806 2343.0 1
137.40166 -824.40955 2327.0 1
161.64893 -824.40955 2327.0 1
185.89621 -824.40955 2327.0 1
210.14365 -824.40955 2327.0 1
20.43717 -1072.9474 2942.0 1
49.824966 -1046.3243 2869.0 1
66.465645 -872.36237 2392.0 1
91.39037 -872.36237 2392.0 1
113.93224 -854.49207 2343.0 1
137.40166 -848.65686 2327.0 1
161.64893 -848.65686 2327.0 1
185.89621 -848.65686 2327.0 1
213.03345 -860.3273 2359.0 1
20.43717 -1103.603 2942.0 1
50.241764 -1085.2222 2893.0 1
66.465645 -897.287 2392.0 1
90.77907 -891.2851 2376.0 1
113.93224 -878.9061 2343.0 1
137.40166 -872.9042 2327.0 1
162.76039 -878.9061 2343.0 1
187.1744 -878.9061 2343.0 1
20.610838 -1143.8971 2967.0 1
50.658566 -1124.6201 2917.0 1
66.465645 -922.2116 2392.0 1
90.77907 -916.04297 2376.0 1
113.93224 -903.3201 2343.0 1
137.40166 -897.1515 2327.0 1
162.76039 -903.3201 2343.0 1
187.1744 -903.3201 2343.0 1
-10.395726 -1185.1083 2993.0 1
20.43717 -1164.9143 2942.0 1
50.658566 -1155.0154 2917.0 1
80.38675 -1145.5123 2893.0 1
91.39037 -947.13635 2392.0 1
113.93224 -927.7343 2343.0 1
137.40166 -921.3989 2327.0 1
161.64893 -921.3989 2327.0 1
188.45258 -934.06964 2359.0 1
210.14365 -921.3989 2327.0 1
-10.048391 -1175.6573 2893.0 1
20.263504 -1185.4105 2917.0 1
51.09273 -1195.57 2942.0 1
92.03989 -978.9694 2409.0 1
114.71027 -958.65045 2359.0 1
138.3464 -952.1483 2343.0 1
165.0528 -965.5589 2376.0 1
188.45258 -958.65045 2359.0 1
