ply
format ascii 1.0
comment : created from Kinect user tracker
element vertex 166
property float x
property float y
property float z
property int userId
end_header
1482.6617 0.0 2754.0 1
1466.1079 -28.936312 2777.0 1
1482.6617 -28.696651 2754.0 1
1477.7228 -58.331104 2799.0 1
1482.6617 -57.393303 2754.0 1
1477.7228 -87.496796 2799.0 1
1482.6617 -86.090096 2754.0 1
1489.8656 -117.62099 2822.0 1
1495.0442 -115.745384 2777.0 1
1472.3633 -148.2245 2845.0 1
1489.8656 -147.0262 2822.0 1
1495.0442 -144.6817 2777.0 1
1460.4602 -176.43141 2822.0 1
1502.0083 -177.86937 2845.0 1
1506.8883 -174.99345 2799.0 1
1472.3633 -207.51424 2845.0 1
1477.7228 -204.159 2799.0 1
1471.3561 -199.34496 2733.0 1
1467.0596 -241.16054 2893.0 1
1472.3633 -237.15926 2845.0 1
1466.1079 -231.49077 2777.0 1
1436.9006 -222.48788 2669.0 1
1454.889 -269.05484 2869.0 1
1460.4602 -264.6472 2822.0 1
1431.2634 -254.23761 2711.0 1
1426.1333 -248.42325 2649.0 1
1454.889 -298.9498 2869.0 1
1437.1715 -289.3634 2777.0 1
1409.0897 -278.1098 2669.0 1
1415.366 -273.9418 2629.0 1
1431.055 -323.4576 2822.0 1
1425.2684 -315.66345 2754.0 1
1409.0897 -305.92075 2669.0 1
1415.366 -301.33594 2629.0 1
1442.7185 -355.73874 2845.0 1
1403.0148 -338.98337 2711.0 1
1398.5308 -331.2309 2649.0 1
1393.8313 -323.72852 2589.0 1
1392.1467 -364.38745 2690.0 1
1398.5308 -358.8336 2649.0 1
1393.8313 -350.706 2589.0 1
1403.0148 -395.4807 2711.0 1
1398.5308 -386.43613 2649.0 1
1404.5986 -380.60095 2609.0 1
1425.2684 -430.4502 2754.0 1
1409.0897 -417.1647 2669.0 1
1393.8313 -404.6607 2589.0 1
1448.5571 -466.64923 2799.0 1
1409.0897 -444.97565 2669.0 1
1393.8313 -431.63806 2589.0 1
1472.3633 -503.96323 2845.0 1
1409.0897 -472.7866 2669.0 1
1415.366 -465.701 2629.0 1
1472.3633 -533.6083 2845.0 1
1453.9652 -516.5403 2754.0 1
1426.1333 -496.8465 2649.0 1
1497.2046 -572.75616 2893.0 1
1489.8656 -558.6996 2822.0 1
1436.9006 -528.4086 2669.0 1
1497.2046 -602.9012 2893.0 1
1489.8656 -588.1048 2822.0 1
1482.6617 -573.9336 2754.0 1
1509.6252 -638.2979 2917.0 1
1502.0083 -622.54285 2845.0 1
1506.8883 -612.4771 2799.0 1
1517.7703 -686.11523 2993.0 1
1497.2046 -663.1912 2893.0 1
1514.6791 -657.6895 2869.0 1
1531.6532 -652.18774 2845.0 1
1473.6692 -711.0713 2967.0 1
1491.9078 -705.0798 2942.0 1
1509.6252 -699.08826 2917.0 1
1514.6791 -687.5846 2869.0 1
1544.574 -687.5846 2869.0 1
1461.2521 -735.73535 2942.0 1
1479.2301 -729.4834 2917.0 1
1509.6252 -729.4834 2917.0 1
1540.0205 -729.4834 2917.0 1
1544.574 -717.47955 2869.0 1
1455.3961 -779.6765 2993.0 1
1461.2521 -766.391 2942.0 1
1479.2301 -759.8785 2917.0 1
1522.5634 -766.391 2942.0 1
1540.0205 -759.8785 2917.0 1
1544.574 -747.3745 2869.0 1
1436.5812 -817.9074 3019.0 1
1442.7532 -803.8196 2967.0 1
1473.6692 -803.8196 2967.0 1
1479.2301 -790.2736 2917.0 1
1509.6252 -790.2736 2917.0 1
1540.0205 -790.2736 2917.0 1
1417.6896 -856.96155 3046.0 1
1436.5812 -849.36536 3019.0 1
1442.7532 -834.7357 2967.0 1
1461.2521 -827.7022 2942.0 1
1479.2301 -820.6687 2917.0 1
1522.5634 -827.7022 2942.0 1
1540.0205 -820.6687 2917.0 1
1405.123 -880.8235 3019.0 1
1436.5812 -880.8235 3019.0 1
1430.5966 -858.358 2942.0 1
1461.2521 -858.358 2942.0 1
1479.2301 -851.06396 2917.0 1
1535.5016 -865.652 2967.0 1
1417.6896 -920.4403 3046.0 1
1411.8372 -896.56805 2967.0 1
1430.5966 -889.01355 2942.0 1
1461.2521 -889.01355 2942.0 1
1491.9078 -889.01355 2942.0 1
1398.2355 -960.6198 3073.0 1
1405.123 -943.7394 3019.0 1
1424.2091 -935.61176 2993.0 1
1430.5966 -919.6692 2942.0 1
1461.2521 -919.6692 2942.0 1
1403.5599 -1019.7741 3157.0 1
1385.9503 -983.9189 3046.0 1
1405.123 -975.1973 3019.0 1
1411.8372 -958.40027 2967.0 1
1442.7532 -958.40027 2967.0 1
1473.6692 -958.40027 2967.0 1
1482.6617 -889.59705 2754.0 1
1354.2109 -1015.65814 3046.0 1
1385.9503 -1015.65814 3046.0 1
1405.123 -1006.6553 3019.0 1
1411.8372 -989.3164 2967.0 1
1481.1682 -1015.65814 3046.0 1
1482.6617 -918.2937 2754.0 1
1354.2109 -1047.3976 3046.0 1
1385.9503 -1047.3976 3046.0 1
1405.123 -1038.1134 3019.0 1
1424.2091 -1029.173 2993.0 1
1481.1682 -1047.3976 3046.0 1
1489.8656 -970.373 2822.0 1
1506.8883 -962.4642 2799.0 1
1337.7683 -1118.4619 3157.0 1
1334.1941 -1088.7024 3073.0 1
1354.2109 -1079.1368 3046.0 1
1373.6652 -1069.5713 3019.0 1
1405.123 -1069.5713 3019.0 1
1449.429 -1079.1368 3046.0 1
1494.2975 -1088.7024 3073.0 1
1502.0083 -1007.92664 2845.0 1
1519.2708 -999.7782 2822.0 1
1314.0385 -1130.9347 3101.0 1
1334.1941 -1120.723 3073.0 1
1354.2109 -1110.8762 3046.0 1
1398.2355 -1120.723 3073.0 1
1417.6896 -1110.8762 3046.0 1
1449.429 -1110.8762 3046.0 1
1507.913 -1130.9347 3101.0 1
1502.0083 -1037.5715 2845.0 1
1531.6532 -1037.5715 2845.0 1
1378.6631 -1163.2471 3101.0 1
1398.2355 -1152.7437 3073.0 1
1475.6006 -1163.2471 3101.0 1
1507.913 -1163.2471 3101.0 1
1514.6791 -1076.2192 2869.0 1
1519.2708 -1058.5886 2822.0 1
1398.2355 -1184.7643 3073.0 1
1449.429 -1174.3547 3046.0 1
1514.6791 -1106.1141 2869.0 1
1531.6532 -1096.8612 2845.0 1
1514.6791 -1136.0093 2869.0 1
1544.574 -1136.0093 2869.0 1
1527.3497 -1175.6573 2893.0 1
1570.4155 -1185.4105 2917.0 1
