ply
format ascii 1.0
comment : created from Kinect user tracker
element vertex 1075
property float x
property float y
property float z
property int userId
end_header
111.834435 256.56122 1894.0 1
129.4164 252.36197 1863.0 1
147.23108 249.65277 1843.0 1
169.14441 253.71657 1873.0 1
89.61892 230.44873 1843.0 1
108.23259 229.19832 1833.0 1
127.3324 229.19832 1833.0 1
145.71323 228.07297 1824.0 1
162.91325 225.57216 1804.0 1
183.72542 228.07297 1824.0 1
204.84335 230.44873 1843.0 1
225.26303 231.69913 1853.0 1
70.41491 211.24464 1843.0 1
88.695015 209.06686 1824.0 1
107.1107 207.92065 1814.0 1
125.31786 206.77446 1804.0 1
143.39651 205.74287 1795.0 1
162.91325 206.77446 1804.0 1
182.71814 207.92065 1814.0 1
201.6201 207.92065 1814.0 1
224.04736 211.24464 1843.0 1
243.25137 211.24464 1843.0 1
70.032845 190.9986 1833.0 1
88.695015 190.06079 1824.0 1
105.988815 187.039 1795.0 1
124.692665 187.039 1795.0 1
144.1155 187.97679 1804.0 1
162.91325 187.97679 1804.0 1
180.80434 187.039 1795.0 1
199.50832 187.039 1795.0 1
219.30626 187.97679 1804.0 1
243.25137 192.0406 1843.0 1
265.30365 194.1246 1863.0 1
50.68283 171.05473 1824.0 1
69.306915 170.11693 1814.0 1
88.20875 170.11693 1814.0 1
107.701164 171.05473 1824.0 1
125.31786 169.17914 1804.0 1
144.1155 169.17914 1804.0 1
162.1005 168.33511 1795.0 1
180.80434 168.33511 1795.0 1
199.50832 168.33511 1795.0 1
217.11806 167.49109 1786.0 1
239.42377 170.11693 1814.0 1
263.87958 173.77435 1853.0 1
281.65952 172.83655 1843.0 1
32.3541 155.29967 1863.0 1
51.488644 154.46606 1853.0 1
70.41491 153.63246 1843.0 1
88.695015 152.04863 1824.0 1
108.23259 152.79887 1833.0 1
126.01253 151.21503 1814.0 1
143.39651 149.6312 1795.0 1
162.1005 149.6312 1795.0 1
180.80434 149.6312 1795.0 1
200.50864 150.38142 1804.0 1
219.30626 150.38142 1804.0 1
241.9315 152.79887 1833.0 1
266.7277 156.13327 1873.0 1
51.488644 135.15782 1853.0 1
70.41491 134.42842 1843.0 1
89.61892 134.42842 1843.0 1
108.23259 133.69902 1833.0 1
125.31786 131.58377 1804.0 1
144.1155 131.58377 1804.0 1
162.1005 130.9273 1795.0 1
181.71088 131.58377 1804.0 1
200.50864 131.58377 1804.0 1
220.52193 132.31317 1814.0 1
248.53084 137.34602 1883.0 1
274.13284 140.4095 1925.0 1
33.257168 119.72578 1915.0 1
52.044376 117.09994 1873.0 1
70.41491 115.22434 1843.0 1
89.61892 115.22434 1843.0 1
108.23259 114.59914 1833.0 1
125.31786 112.78606 1804.0 1
144.1155 112.78606 1804.0 1
162.91325 112.78606 1804.0 1
181.71088 112.78606 1804.0 1
200.50864 112.78606 1804.0 1
222.8317 114.59914 1833.0 1
252.75441 119.72578 1915.0 1
274.13284 120.350975 1925.0 1
52.322243 98.1043 1883.0 1
71.17905 97.0623 1863.0 1
90.10519 96.5413 1853.0 1
108.23259 95.4993 1833.0 1
127.3324 95.4993 1833.0 1
144.91437 94.5094 1814.0 1
164.71938 95.030396 1824.0 1
182.71814 94.5094 1814.0 1
202.73157 95.030396 1824.0 1
224.04736 96.0203 1843.0 1
254.07428 100.292496 1925.0 1
53.211414 79.817215 1915.0 1
72.36345 78.94194 1894.0 1
91.56399 78.48346 1883.0 1
108.82305 76.81625 1843.0 1
127.3324 76.39946 1833.0 1
145.71323 76.02434 1824.0 1
163.81631 75.60754 1814.0 1
181.71088 75.190735 1804.0 1
203.73189 76.39946 1833.0 1
225.26303 77.233055 1853.0 1
256.978 81.15098 1947.0 1
53.48928 60.175488 1925.0 1
73.54786 60.175488 1925.0 1
93.12004 59.86289 1915.0 1
110.00399 58.23737 1863.0 1
127.3324 57.29957 1833.0 1
146.4322 57.29957 1833.0 1
164.71938 57.01823 1824.0 1
182.71814 56.70563 1814.0 1
203.73189 57.29957 1833.0 1
227.69437 58.54997 1873.0 1
258.42984 61.20707 1958.0 1
35.410633 42.49277 2039.0 1
56.323517 42.24269 2027.0 1
76.52798 41.74253 2003.0 1
95.21098 40.80473 1958.0 1
110.59445 39.03333 1873.0 1
128.02707 38.408127 1843.0 1
147.23108 38.408127 1843.0 1
165.53214 38.19973 1833.0 1
184.63196 38.19973 1833.0 1
204.84335 38.408127 1843.0 1
242.1608 41.51329 1992.0 1
-28.32848 21.246359 2039.0 1
-7.0821533 21.246359 2039.0 1
14.164307 21.246359 2039.0 1
35.410633 21.246359 2039.0 1
55.990078 20.996279 2015.0 1
76.52798 20.87124 2003.0 1
96.28077 20.63158 1980.0 1
114.31439 20.1731 1936.0 1
130.11107 19.516642 1873.0 1
147.23108 19.20404 1843.0 1
166.43521 19.20404 1843.0 1
185.63922 19.20404 1843.0 1
205.95482 19.30824 1853.0 1
243.49803 20.87124 2003.0 1
265.95306 20.996279 2015.0 1
286.94946 20.996279 2015.0 1
-71.65487 0.0 2063.0 1
-49.28311 0.0 2027.0 1
-27.995039 0.0 2015.0 1
-6.9571133 0.0 2003.0 1
13.997586 0.0 2015.0 1
34.99383 0.0 2015.0 1
55.65664 0.0 2003.0 1
76.107704 0.0 1992.0 1
95.74588 0.0 1969.0 1
115.61343 0.0 1958.0 1
133.72333 0.0 1925.0 1
149.62767 0.0 1873.0 1
167.33827 0.0 1853.0 1
185.63922 0.0 1843.0 1
221.4042 0.0 1992.0 1
243.49803 0.0 2003.0 1
264.36923 0.0 2003.0 1
286.94946 0.0 2015.0 1
307.9457 0.0 2015.0 1
330.90103 0.0 2027.0 1
-70.821266 -21.246359 2039.0 1
-48.991352 -20.996279 2015.0 1
-27.82832 -20.87124 2003.0 1
-6.9571133 -20.87124 2003.0 1
13.997586 -20.996279 2015.0 1
34.78543 -20.87124 2003.0 1
55.350986 -20.75662 1992.0 1
75.64922 -20.63158 1980.0 1
95.74588 -20.51696 1969.0 1
115.61343 -20.40234 1958.0 1
135.2516 -20.28772 1947.0 1
155.53929 -20.28772 1947.0 1
176.82048 -20.40234 1958.0 1
198.33078 -20.51696 1969.0 1
220.07045 -20.63158 1980.0 1
239.36476 -20.51696 1969.0 1
262.9174 -20.75662 1992.0 1
285.24057 -20.87124 2003.0 1
307.9457 -20.996279 2015.0 1
328.94208 -20.996279 2015.0 1
349.93832 -20.996279 2015.0 1
-92.06766 -42.492718 2039.0 1
-70.404465 -42.242638 2027.0 1
-48.699593 -41.74248 2003.0 1
-27.675493 -41.51324 1992.0 1
-6.918906 -41.51324 1992.0 1
13.914227 -41.74248 2003.0 1
34.5944 -41.51324 1992.0 1
55.017548 -41.26316 1980.0 1
75.22895 -41.03392 1969.0 1
95.21098 -40.80468 1958.0 1
115.61343 -40.80468 1958.0 1
136.01573 -40.80468 1958.0 1
156.41805 -40.80468 1958.0 1
176.82048 -40.80468 1958.0 1
198.33078 -41.03392 1969.0 1
218.84784 -41.03392 1969.0 1
239.36476 -41.03392 1969.0 1
261.33356 -41.26316 1980.0 1
285.24057 -41.74248 2003.0 1
306.1118 -41.74248 2003.0 1
326.98312 -41.74248 2003.0 1
349.93832 -41.992558 2015.0 1
368.72552 -41.74248 2003.0 1
-92.6095 -64.114296 2051.0 1
-69.98766 -62.988937 2015.0 1
-48.699593 -62.61382 2003.0 1
-27.675493 -62.26996 1992.0 1
-6.918906 -62.26996 1992.0 1
13.837812 -62.26996 1992.0 1
34.5944 -62.26996 1992.0 1
54.711895 -61.55098 1969.0 1
75.22895 -61.55098 1969.0 1
95.21098 -61.20712 1958.0 1
115.61343 -61.20712 1958.0 1
136.01573 -61.20712 1958.0 1
156.41805 -61.20712 1958.0 1
176.82048 -61.20712 1958.0 1
197.22278 -61.20712 1958.0 1
217.62521 -61.20712 1958.0 1
239.36476 -61.55098 1969.0 1
261.33356 -61.894836 1980.0 1
281.9652 -61.894836 1980.0 1
306.1118 -62.61382 2003.0 1
325.1874 -62.26996 1992.0 1
347.85434 -62.61382 2003.0 1
370.93457 -62.988937 2015.0 1
-92.6095 -85.4857 2051.0 1
-70.404465 -84.48538 2027.0 1
-48.699593 -83.48506 2003.0 1
-27.675493 -83.02658 1992.0 1
-6.877226 -82.52642 1980.0 1
13.678039 -82.06794 1969.0 1
34.194965 -82.06794 1969.0 1
54.711895 -82.06794 1969.0 1
75.22895 -82.06794 1969.0 1
95.21098 -81.60946 1958.0 1
114.96391 -81.15098 1947.0 1
135.2516 -81.15098 1947.0 1
155.53929 -81.15098 1947.0 1
176.82048 -81.60946 1958.0 1
197.22278 -81.60946 1958.0 1
217.62521 -81.60946 1958.0 1
239.36476 -82.06794 1969.0 1
259.88168 -82.06794 1969.0 1
281.9652 -82.52642 1980.0 1
302.59677 -82.52642 1980.0 1
326.98312 -83.48506 2003.0 1
347.85434 -83.48506 2003.0 1
370.93457 -83.98522 2015.0 1
-93.15134 -107.4823 2063.0 1
-70.821266 -106.231895 2039.0 1
-48.991352 -104.9815 2015.0 1
-27.675493 -103.783195 1992.0 1
-6.877226 -103.158 1980.0 1
13.678039 -102.5849 1969.0 1
34.194965 -102.5849 1969.0 1
54.40624 -102.011795 1958.0 1
74.80868 -102.011795 1958.0 1
94.1412 -100.8656 1936.0 1
114.31439 -100.8656 1936.0 1
135.2516 -101.4387 1947.0 1
154.66054 -100.8656 1936.0 1
175.8271 -101.4387 1947.0 1
196.11479 -101.4387 1947.0 1
217.62521 -102.011795 1958.0 1
238.02753 -102.011795 1958.0 1
259.88168 -102.5849 1969.0 1
280.39874 -102.5849 1969.0 1
300.91568 -102.5849 1969.0 1
325.1874 -103.783195 1992.0 1
347.85434 -104.3563 2003.0 1
370.93457 -104.9815 2015.0 1
391.93094 -104.9815 2015.0 1
-116.7596 -131.35449 2101.0 1
-93.15134 -128.97874 2063.0 1
-71.23807 -128.2285 2051.0 1
-49.28311 -126.72802 2027.0 1
-27.82832 -125.22754 2003.0 1
-6.877226 -123.78958 1980.0 1
13.678039 -123.10186 1969.0 1
34.194965 -123.10186 1969.0 1
54.40624 -122.41414 1958.0 1
74.80868 -122.41414 1958.0 1
94.676094 -121.72642 1947.0 1
114.31439 -121.0387 1936.0 1
135.2516 -121.72642 1947.0 1
154.66054 -121.0387 1936.0 1
174.83372 -121.0387 1936.0 1
196.11479 -121.72642 1947.0 1
216.4026 -121.72642 1947.0 1
238.02753 -122.41414 1958.0 1
259.88168 -123.10186 1969.0 1
280.39874 -123.10186 1969.0 1
302.59677 -123.78958 1980.0 1
325.1874 -124.53982 1992.0 1
349.93832 -125.977776 2015.0 1
377.5617 -128.2285 2051.0 1
394.26505 -126.72802 2027.0 1
-116.03715 -152.29868 2088.0 1
-93.738335 -151.4234 2076.0 1
-71.23807 -149.5999 2051.0 1
-49.57487 -148.72461 2039.0 1
-27.675493 -145.29643 1992.0 1
-6.877226 -144.42116 1980.0 1
13.678039 -143.61882 1969.0 1
34.194965 -143.61882 1969.0 1
54.40624 -142.81648 1958.0 1
74.80868 -142.81648 1958.0 1
94.676094 -142.01414 1947.0 1
114.96391 -142.01414 1947.0 1
134.48746 -141.21179 1936.0 1
154.66054 -141.21179 1936.0 1
174.83372 -141.21179 1936.0 1
196.11479 -142.01414 1947.0 1
216.4026 -142.01414 1947.0 1
238.02753 -142.81648 1958.0 1
258.42984 -142.81648 1958.0 1
280.39874 -143.61882 1969.0 1
302.59677 -144.42116 1980.0 1
326.98312 -146.09877 2003.0 1
352.02234 -147.84933 2027.0 1
377.5617 -149.5999 2051.0 1
398.9332 -149.5999 2051.0 1
-116.7596 -175.1394 2101.0 1
-93.738335 -173.0554 2076.0 1
-71.65487 -171.97171 2063.0 1
-49.86663 -170.9714 2051.0 1
-27.82832 -166.97012 2003.0 1
-6.877226 -165.05284 1980.0 1
13.678039 -164.13588 1969.0 1
34.194965 -164.13588 1969.0 1
54.40624 -163.21892 1958.0 1
74.80868 -163.21892 1958.0 1
94.676094 -162.30196 1947.0 1
114.31439 -161.385 1936.0 1
135.2516 -162.30196 1947.0 1
156.41805 -163.21892 1958.0 1
174.83372 -161.385 1936.0 1
196.11479 -162.30196 1947.0 1
216.4026 -162.30196 1947.0 1
238.02753 -163.21892 1958.0 1
258.42984 -163.21892 1958.0 1
280.39874 -164.13588 1969.0 1
302.59677 -165.05284 1980.0 1
326.98312 -166.97012 2003.0 1
356.19034 -170.9714 2051.0 1
377.5617 -170.9714 2051.0 1
401.26727 -171.97171 2063.0 1
-118.204506 -199.47008 2127.0 1
-94.280174 -195.81265 2088.0 1
-72.5232 -195.81265 2088.0 1
-50.766224 -195.81265 2088.0 1
-28.32848 -191.21744 2039.0 1
-6.918906 -186.80978 1992.0 1
13.678039 -184.65283 1969.0 1
34.194965 -184.65283 1969.0 1
54.40624 -183.62126 1958.0 1
73.96813 -181.55809 1936.0 1
94.1412 -181.55809 1936.0 1
114.31439 -181.55809 1936.0 1
135.2516 -182.58968 1947.0 1
155.53929 -182.58968 1947.0 1
175.8271 -182.58968 1947.0 1
195.00679 -181.55809 1936.0 1
216.4026 -182.58968 1947.0 1
238.02753 -183.62126 1958.0 1
259.88168 -184.65283 1969.0 1
280.39874 -184.65283 1969.0 1
306.1118 -187.84135 2003.0 1
332.86002 -191.21744 2039.0 1
356.19034 -192.3428 2051.0 1
379.77072 -193.46815 2063.0 1
401.26727 -193.46815 2063.0 1
-118.204506 -221.63339 2127.0 1
-94.867165 -218.9242 2101.0 1
-72.97473 -218.9242 2101.0 1
-51.398373 -220.2788 2114.0 1
-28.661919 -214.9646 2063.0 1
-6.918906 -207.56639 1992.0 1
13.678039 -205.1698 1969.0 1
34.003933 -204.02359 1958.0 1
54.40624 -204.02359 1958.0 1
74.388405 -202.8774 1947.0 1
95.21098 -204.02359 1958.0 1
115.61343 -204.02359 1958.0 1
135.2516 -202.8774 1947.0 1
155.53929 -202.8774 1947.0 1
175.8271 -202.8774 1947.0 1
196.11479 -202.8774 1947.0 1
216.4026 -202.8774 1947.0 1
238.02753 -204.02359 1958.0 1
259.88168 -205.1698 1969.0 1
281.9652 -206.316 1980.0 1
307.9457 -209.963 2015.0 1
336.77792 -214.9646 2063.0 1
358.27432 -214.9646 2063.0 1
379.77072 -214.9646 2063.0 1
398.9332 -213.7142 2051.0 1
-143.93143 -249.98619 2181.0 1
-118.926956 -245.28677 2140.0 1
-95.45416 -242.30666 2114.0 1
-73.42626 -242.30666 2114.0 1
-52.030518 -245.28677 2140.0 1
-28.842531 -237.9511 2076.0 1
-6.9571133 -229.58383 2003.0 1
13.754452 -226.94757 1980.0 1
34.194965 -225.68675 1969.0 1
54.40624 -224.42593 1958.0 1
74.80868 -224.42593 1958.0 1
95.21098 -224.42593 1958.0 1
115.61343 -224.42593 1958.0 1
136.01573 -224.42593 1958.0 1
156.41805 -224.42593 1958.0 1
176.82048 -224.42593 1958.0 1
196.11479 -223.16512 1947.0 1
216.4026 -223.16512 1947.0 1
239.36476 -225.68675 1969.0 1
258.42984 -224.42593 1958.0 1
281.9652 -226.94757 1980.0 1
315.28137 -236.46103 2063.0 1
336.77792 -236.46103 2063.0 1
358.27432 -236.46103 2063.0 1
379.77072 -236.46103 2063.0 1
-143.00752 -270.96164 2167.0 1
-118.926956 -267.58554 2140.0 1
-96.62814 -267.58554 2140.0 1
-74.32933 -267.58554 2140.0 1
-52.346592 -269.21106 2153.0 1
-29.009253 -261.08347 2088.0 1
-7.0821533 -254.95651 2039.0 1
13.997586 -251.95555 2015.0 1
34.385998 -247.57916 1980.0 1
54.711895 -246.20372 1969.0 1
75.22895 -246.20372 1969.0 1
95.21098 -244.82828 1958.0 1
116.26294 -246.20372 1969.0 1
136.01573 -244.82828 1958.0 1
156.41805 -244.82828 1958.0 1
176.82048 -244.82828 1958.0 1
197.22278 -244.82828 1958.0 1
217.62521 -244.82828 1958.0 1
238.02753 -244.82828 1958.0 1
259.88168 -246.20372 1969.0 1
288.65833 -253.45604 2027.0 1
319.10205 -261.08347 2088.0 1
340.8591 -261.08347 2088.0 1
362.616 -261.08347 2088.0 1
386.76602 -262.70898 2101.0 1
-143.00752 -293.54187 2167.0 1
-119.649414 -291.64542 2153.0 1
-97.21514 -291.64542 2153.0 1
-74.78087 -291.64542 2153.0 1
-29.009253 -282.8405 2088.0 1
-7.0821533 -276.20297 2039.0 1
13.997586 -272.95193 2015.0 1
34.78543 -271.32642 2003.0 1
55.350986 -269.83636 1992.0 1
75.22895 -266.72076 1969.0 1
95.74588 -266.72076 1969.0 1
116.26294 -266.72076 1969.0 1
136.01573 -265.2307 1958.0 1
156.41805 -265.2307 1958.0 1
176.82048 -265.2307 1958.0 1
198.33078 -266.72076 1969.0 1
218.84784 -266.72076 1969.0 1
239.36476 -266.72076 1969.0 1
264.36923 -271.32642 2003.0 1
292.07608 -277.8285 2051.0 1
321.0888 -284.6015 2101.0 1
342.9813 -284.6015 2101.0 1
364.87366 -284.6015 2101.0 1
386.76602 -284.6015 2101.0 1
-165.58768 -316.12198 2167.0 1
-142.08362 -314.07965 2153.0 1
-119.649414 -314.07965 2153.0 1
-97.84728 -316.12198 2167.0 1
-76.20493 -320.06073 2194.0 1
-29.009253 -304.59744 2088.0 1
-7.165514 -300.95047 2063.0 1
14.164307 -297.44934 2039.0 1
34.99383 -293.9482 2015.0 1
55.350986 -290.593 1992.0 1
75.22895 -287.23773 1969.0 1
95.74588 -287.23773 1969.0 1
116.26294 -287.23773 1969.0 1
136.77986 -287.23773 1969.0 1
157.2968 -287.23773 1969.0 1
177.81384 -287.23773 1969.0 1
198.33078 -287.23773 1969.0 1
220.07045 -288.8424 1980.0 1
242.1608 -290.593 1992.0 1
267.53693 -295.69876 2027.0 1
295.63626 -302.8469 2076.0 1
327.04904 -312.18323 2140.0 1
345.10352 -308.39035 2114.0 1
364.87366 -306.4939 2101.0 1
389.15915 -308.39035 2114.0 1
-165.58768 -338.7021 2167.0 1
-142.08362 -336.5139 2153.0 1
-119.649414 -336.5139 2153.0 1
-98.47943 -340.8903 2181.0 1
-53.027363 -340.8903 2181.0 1
-29.551092 -332.4501 2127.0 1
-7.2106676 -324.4788 2076.0 1
14.247667 -320.5713 2051.0 1
34.99383 -314.9445 2015.0 1
55.65664 -313.0689 2003.0 1
76.107704 -311.3496 1992.0 1
95.74588 -307.7547 1969.0 1
116.26294 -307.7547 1969.0 1
136.77986 -307.7547 1969.0 1
156.41805 -306.0354 1958.0 1
177.81384 -307.7547 1969.0 1
200.64749 -311.3496 1992.0 1
222.62682 -313.0689 2003.0 1
243.49803 -313.0689 2003.0 1
272.28842 -322.4469 2063.0 1
297.34515 -326.3544 2088.0 1
331.17535 -338.7021 2167.0 1
347.2257 -332.4501 2127.0 1
367.13132 -330.41818 2114.0 1
389.15915 -330.41818 2114.0 1
-164.51788 -358.94812 2153.0 1
-142.08362 -358.94812 2153.0 1
-119.649414 -358.94812 2153.0 1
-98.47943 -363.6163 2181.0 1
-52.686977 -361.28223 2167.0 1
-29.370478 -352.44604 2114.0 1
-7.165514 -343.94333 2063.0 1
14.247667 -341.9427 2051.0 1
35.202232 -337.9414 2027.0 1
55.65664 -333.94012 2003.0 1
76.107704 -332.1062 1992.0 1
96.28077 -330.10556 1980.0 1
116.91245 -330.10556 1980.0 1
136.77986 -328.27167 1969.0 1
157.2968 -328.27167 1969.0 1
178.80722 -330.10556 1980.0 1
200.64749 -332.1062 1992.0 1
222.62682 -333.94012 2003.0 1
246.41563 -337.9414 2027.0 1
272.28842 -343.94333 2063.0 1
301.04773 -352.44604 2114.0 1
331.17535 -361.28223 2167.0 1
349.34793 -356.78076 2140.0 1
367.13132 -352.44604 2114.0 1
389.15915 -352.44604 2114.0 1
-189.3835 -386.3423 2181.0 1
-164.51788 -381.3824 2153.0 1
-142.08362 -381.3824 2153.0 1
-120.42744 -383.86234 2167.0 1
-53.027363 -386.3423 2181.0 1
-29.370478 -374.4739 2114.0 1
-7.2106676 -367.74258 2076.0 1
14.331028 -365.43976 2063.0 1
35.202232 -359.06274 2027.0 1
55.65664 -354.81137 2003.0 1
76.107704 -352.86282 1992.0 1
96.28077 -350.73715 1980.0 1
116.91245 -350.73715 1980.0 1
137.54399 -350.73715 1980.0 1
158.17554 -350.73715 1980.0 1
179.8909 -352.86282 1992.0 1
201.75548 -354.81137 2003.0 1
223.96059 -356.93704 2015.0 1
249.33322 -363.3141 2051.0 1
272.28842 -365.43976 2063.0 1
295.63626 -367.74258 2076.0 1
331.17535 -383.86234 2167.0 1
349.34793 -379.07956 2140.0 1
367.13132 -374.4739 2114.0 1
389.15915 -374.4739 2114.0 1
-188.16783 -406.44257 2167.0 1
-164.51788 -403.8167 2153.0 1
-142.08362 -403.8167 2153.0 1
-119.649414 -403.8167 2153.0 1
-52.686977 -406.44257 2167.0 1
-29.370478 -396.50186 2114.0 1
-7.2106676 -389.3746 2076.0 1
14.331028 -386.9363 2063.0 1
35.410633 -382.43488 2039.0 1
55.990078 -377.93344 2015.0 1
76.52798 -375.6827 2003.0 1
96.86429 -373.61957 1992.0 1
117.62101 -373.61957 1992.0 1
138.3776 -373.61957 1992.0 1
159.13419 -373.61957 1992.0 1
180.88428 -375.6827 2003.0 1
202.9642 -377.93344 2015.0 1
225.29434 -380.18414 2027.0 1
249.33322 -384.6856 2051.0 1
275.5881 -391.6253 2088.0 1
299.19644 -394.0636 2101.0 1
331.17535 -406.44257 2167.0 1
347.2257 -398.94016 2127.0 1
367.13132 -396.50186 2114.0 1
389.15915 -396.50186 2114.0 1
-186.95216 -426.25095 2153.0 1
-164.51788 -426.25095 2153.0 1
-142.08362 -426.25095 2153.0 1
-52.346592 -426.25095 2153.0 1
-29.551092 -421.1035 2127.0 1
-7.2106676 -411.0065 2076.0 1
14.331028 -408.43274 2063.0 1
35.410633 -403.68124 2039.0 1
55.990078 -398.92972 2015.0 1
76.98646 -398.92972 2015.0 1
97.399185 -396.55396 2003.0 1
118.27052 -396.55396 2003.0 1
139.14172 -396.55396 2003.0 1
160.01294 -396.55396 2003.0 1
180.88428 -396.55396 2003.0 1
202.9642 -398.92972 2015.0 1
226.6281 -403.68124 2039.0 1
250.79202 -408.43274 2063.0 1
277.30392 -415.956 2101.0 1
301.04773 -418.52972 2114.0 1
329.03577 -426.25095 2153.0 1
347.2257 -421.1035 2127.0 1
367.13132 -418.52972 2114.0 1
389.15915 -418.52972 2114.0 1
-186.95216 -448.68518 2153.0 1
-164.51788 -448.68518 2153.0 1
-142.08362 -448.68518 2153.0 1
-76.6912 -460.1472 2208.0 1
-52.346592 -448.68518 2153.0 1
-29.551092 -443.26678 2127.0 1
-7.2523475 -435.1392 2088.0 1
14.331028 -429.9292 2063.0 1
35.619034 -427.4284 2051.0 1
56.323517 -422.4268 2027.0 1
76.98646 -419.926 2015.0 1
97.982704 -419.926 2015.0 1
118.27052 -417.4252 2003.0 1
139.14172 -417.4252 2003.0 1
160.01294 -417.4252 2003.0 1
181.96796 -419.926 2015.0 1
204.17293 -422.4268 2027.0 1
227.96187 -427.4284 2051.0 1
252.37239 -432.6384 2076.0 1
279.01974 -440.5576 2114.0 1
306.60156 -448.68518 2153.0 1
327.04904 -445.97598 2140.0 1
347.2257 -443.26678 2127.0 1
367.13132 -440.5576 2114.0 1
389.15915 -440.5576 2114.0 1
-210.74799 -474.18292 2167.0 1
-186.95216 -471.11942 2153.0 1
-163.52452 -468.27478 2140.0 1
-142.08362 -471.11942 2153.0 1
-76.6912 -483.15454 2208.0 1
-52.686977 -474.18292 2167.0 1
-29.370478 -462.58545 2114.0 1
-7.297501 -459.74078 2101.0 1
14.421335 -454.2703 2076.0 1
35.619034 -448.7998 2051.0 1
56.65696 -446.17395 2039.0 1
76.98646 -440.92227 2015.0 1
97.982704 -440.92227 2015.0 1
118.27052 -438.29642 2003.0 1
139.14172 -438.29642 2003.0 1
160.97157 -440.92227 2015.0 1
181.96796 -440.92227 2015.0 1
204.17293 -443.54813 2027.0 1
229.29562 -451.42563 2063.0 1
255.41156 -459.74078 2101.0 1
282.45142 -468.27478 2140.0 1
306.60156 -471.11942 2153.0 1
327.04904 -468.27478 2140.0 1
345.10352 -462.58545 2114.0 1
367.13132 -462.58545 2114.0 1
389.15915 -462.58545 2114.0 1
-209.38644 -493.55368 2153.0 1
-185.82333 -490.57355 2140.0 1
-163.52452 -490.57355 2140.0 1
-76.20493 -502.9525 2194.0 1
-52.346592 -493.55368 2153.0 1
-29.370478 -484.6133 2114.0 1
-7.297501 -481.63318 2101.0 1
14.595002 -481.63318 2101.0 1
35.827435 -472.92206 2063.0 1
56.9904 -470.1712 2051.0 1
77.90342 -467.42032 2039.0 1
97.982704 -461.91855 2015.0 1
118.97909 -461.91855 2015.0 1
140.80893 -464.66943 2027.0 1
161.93022 -464.66943 2027.0 1
183.05164 -464.66943 2027.0 1
206.59036 -470.1712 2051.0 1
229.29562 -472.92206 2063.0 1
255.41156 -481.63318 2101.0 1
279.01974 -484.6133 2114.0 1
304.75027 -490.57355 2140.0 1
327.04904 -490.57355 2140.0 1
347.2257 -487.5934 2127.0 1
367.13132 -484.6133 2114.0 1
386.76602 -481.63318 2101.0 1
-209.38644 -515.98804 2153.0 1
-185.82333 -512.87244 2140.0 1
-163.52452 -512.87244 2140.0 1
-75.267136 -519.34326 2167.0 1
-52.346592 -515.98804 2153.0 1
-29.731705 -512.87244 2140.0 1
-7.297501 -503.5257 2101.0 1
14.595002 -503.5257 2101.0 1
36.2616 -500.41013 2088.0 1
57.323837 -494.4186 2063.0 1
78.82038 -494.4186 2063.0 1
99.73326 -491.5427 2051.0 1
121.10477 -491.5427 2051.0 1
142.47614 -491.5427 2051.0 1
163.84749 -491.5427 2051.0 1
185.219 -491.5427 2051.0 1
207.79909 -494.4186 2063.0 1
232.0743 -500.41013 2088.0 1
255.41156 -503.5257 2101.0 1
280.73557 -509.75687 2127.0 1
306.60156 -515.98804 2153.0 1
329.03577 -515.98804 2153.0 1
345.10352 -506.64127 2114.0 1
367.13132 -506.64127 2114.0 1
386.76602 -503.5257 2101.0 1
-234.83557 -545.4245 2181.0 1
-209.38644 -538.42224 2153.0 1
-185.82333 -535.1712 2140.0 1
-162.53114 -531.92017 2127.0 1
-75.267136 -541.9234 2167.0 1
-52.030518 -535.1712 2140.0 1
-29.551092 -531.92017 2127.0 1
-7.297501 -525.4181 2101.0 1
14.685309 -528.6691 2114.0 1
36.487366 -525.4181 2101.0 1
58.018505 -522.16705 2088.0 1
79.31706 -519.1661 2076.0 1
100.31679 -515.91504 2063.0 1
121.813324 -515.91504 2063.0 1
143.30974 -515.91504 2063.0 1
164.80614 -515.91504 2063.0 1
186.30267 -515.91504 2063.0 1
209.10854 -519.1661 2076.0 1
233.5192 -525.4181 2101.0 1
256.99194 -528.6691 2114.0 1
282.45142 -535.1712 2140.0 1
327.04904 -535.1712 2140.0 1
345.10352 -528.6691 2114.0 1
367.13132 -528.6691 2114.0 1
-236.23532 -571.537 2194.0 1
-209.38644 -560.8565 2153.0 1
-185.82333 -557.47 2140.0 1
-99.69857 -575.18396 2208.0 1
-75.267136 -564.5035 2167.0 1
-52.030518 -557.47 2140.0 1
-29.551092 -554.0835 2127.0 1
-7.297501 -547.3105 2101.0 1
14.685309 -550.69696 2114.0 1
36.71313 -550.69696 2114.0 1
58.37973 -547.3105 2101.0 1
79.77554 -543.924 2088.0 1
100.94893 -540.798 2076.0 1
122.58093 -540.798 2076.0 1
144.2128 -540.798 2076.0 1
165.84467 -540.798 2076.0 1
188.56035 -543.924 2088.0 1
210.31725 -543.924 2088.0 1
233.5192 -547.3105 2101.0 1
256.99194 -550.69696 2114.0 1
282.45142 -557.47 2140.0 1
325.0623 -554.0835 2127.0 1
345.10352 -550.69696 2114.0 1
364.87366 -547.3105 2101.0 1
-234.83557 -590.87646 2181.0 1
-209.38644 -583.2907 2153.0 1
-185.82333 -579.76874 2140.0 1
-163.52452 -579.76874 2140.0 1
-99.06643 -594.39844 2194.0 1
-74.78087 -583.2907 2153.0 1
-52.030518 -579.76874 2140.0 1
-29.370478 -572.72485 2114.0 1
-7.3426547 -572.72485 2114.0 1
14.685309 -572.72485 2114.0 1
36.71313 -572.72485 2114.0 1
58.37973 -569.2029 2101.0 1
80.27223 -569.2029 2101.0 1
101.53245 -565.6809 2088.0 1
124.0571 -569.2029 2101.0 1
145.94946 -569.2029 2101.0 1
166.8033 -565.6809 2088.0 1
188.56035 -565.6809 2088.0 1
211.6267 -569.2029 2101.0 1
233.5192 -569.2029 2101.0 1
256.99194 -572.72485 2114.0 1
282.45142 -579.76874 2140.0 1
301.04773 -572.72485 2114.0 1
325.0623 -576.2468 2127.0 1
345.10352 -572.72485 2114.0 1
367.13132 -572.72485 2114.0 1
-233.32814 -609.6637 2167.0 1
-208.12215 -602.06757 2140.0 1
-185.82333 -602.06757 2140.0 1
-163.52452 -602.06757 2140.0 1
-99.06643 -617.2599 2194.0 1
-74.78087 -605.725 2153.0 1
-52.030518 -602.06757 2140.0 1
-29.551092 -598.41016 2127.0 1
-7.3426547 -594.7527 2114.0 1
14.685309 -594.7527 2114.0 1
36.71313 -594.7527 2114.0 1
58.37973 -591.0953 2101.0 1
79.77554 -587.43787 2088.0 1
101.53245 -587.43787 2088.0 1
123.28949 -587.43787 2088.0 1
145.0464 -587.43787 2088.0 1
166.8033 -587.43787 2088.0 1
188.56035 -587.43787 2088.0 1
211.6267 -591.0953 2101.0 1
233.5192 -591.0953 2101.0 1
256.99194 -594.7527 2114.0 1
284.16724 -605.725 2153.0 1
310.58896 -613.6025 2181.0 1
325.0623 -598.41016 2127.0 1
345.10352 -594.7527 2114.0 1
364.87366 -591.0953 2101.0 1
384.3729 -587.43787 2088.0 1
-231.82071 -628.1593 2153.0 1
-208.12215 -624.36646 2140.0 1
-185.82333 -624.36646 2140.0 1
-163.52452 -624.36646 2140.0 1
-137.79405 -609.1949 2088.0 1
-99.06643 -640.12146 2194.0 1
-74.78087 -628.1593 2153.0 1
-52.030518 -624.36646 2140.0 1
-29.551092 -620.57355 2127.0 1
-7.3426547 -616.7807 2114.0 1
14.685309 -616.7807 2114.0 1
36.71313 -616.7807 2114.0 1
58.740955 -616.7807 2114.0 1
80.27223 -612.9878 2101.0 1
101.53245 -609.1949 2088.0 1
123.28949 -609.1949 2088.0 1
145.0464 -609.1949 2088.0 1
167.84183 -612.9878 2101.0 1
189.73433 -612.9878 2101.0 1
212.93614 -616.7807 2114.0 1
234.96411 -616.7807 2114.0 1
256.99194 -616.7807 2114.0 1
284.16724 -628.1593 2153.0 1
306.60156 -628.1593 2153.0 1
325.0623 -620.57355 2127.0 1
345.10352 -616.7807 2114.0 1
364.87366 -612.9878 2101.0 1
384.3729 -609.1949 2088.0 1
-208.12215 -646.6652 2140.0 1
-186.95216 -650.59357 2153.0 1
-164.51788 -650.59357 2153.0 1
-138.65196 -634.8802 2101.0 1
-122.70595 -667.21344 2208.0 1
-98.47943 -659.05457 2181.0 1
-74.78087 -650.59357 2153.0 1
-52.030518 -646.6652 2140.0 1
-29.551092 -642.7369 2127.0 1
-7.3426547 -638.80853 2114.0 1
14.685309 -638.80853 2114.0 1
36.71313 -638.80853 2114.0 1
58.37973 -634.8802 2101.0 1
80.27223 -634.8802 2101.0 1
102.1646 -634.8802 2101.0 1
124.0571 -634.8802 2101.0 1
145.94946 -634.8802 2101.0 1
167.84183 -634.8802 2101.0 1
189.73433 -634.8802 2101.0 1
211.6267 -634.8802 2101.0 1
233.5192 -634.8802 2101.0 1
260.15265 -646.6652 2140.0 1
284.16724 -650.59357 2153.0 1
302.89902 -642.7369 2127.0 1
323.07553 -638.80853 2114.0 1
342.9813 -634.8802 2101.0 1
364.87366 -634.8802 2101.0 1
-209.38644 -673.0278 2153.0 1
-186.95216 -673.0278 2153.0 1
-166.65746 -681.7806 2181.0 1
-122.70595 -690.22076 2208.0 1
-98.47943 -681.7806 2181.0 1
-74.78087 -673.0278 2153.0 1
-52.030518 -668.964 2140.0 1
-29.551092 -664.9002 2127.0 1
-7.3426547 -660.83636 2114.0 1
14.685309 -660.83636 2114.0 1
36.71313 -660.83636 2114.0 1
59.46341 -668.964 2140.0 1
81.26561 -664.9002 2127.0 1
102.796745 -660.83636 2114.0 1
124.82471 -660.83636 2114.0 1
145.94946 -656.7726 2101.0 1
166.8033 -652.7088 2088.0 1
189.73433 -656.7726 2101.0 1
211.6267 -656.7726 2101.0 1
234.96411 -660.83636 2114.0 1
258.5723 -664.9002 2127.0 1
280.73557 -664.9002 2127.0 1
301.04773 -660.83636 2114.0 1
323.07553 -660.83636 2114.0 1
345.10352 -660.83636 2114.0 1
364.87366 -656.7726 2101.0 1
-185.82333 -691.26276 2140.0 1
-164.51788 -695.46204 2153.0 1
-122.70595 -713.22815 2208.0 1
-97.84728 -699.9843 2167.0 1
-74.78087 -695.46204 2153.0 1
-52.030518 -691.26276 2140.0 1
-29.731705 -691.26276 2140.0 1
-7.3426547 -682.86426 2114.0 1
14.775616 -687.0635 2127.0 1
37.390434 -695.46204 2153.0 1
60.963886 -708.7059 2194.0 1
82.79388 -699.9843 2167.0 1
104.061035 -691.26276 2140.0 1
125.592316 -687.0635 2127.0 1
146.85252 -682.86426 2114.0 1
167.84183 -678.665 2101.0 1
189.73433 -678.665 2101.0 1
212.93614 -682.86426 2114.0 1
234.96411 -682.86426 2114.0 1
258.5723 -687.0635 2127.0 1
282.45142 -691.26276 2140.0 1
301.04773 -682.86426 2114.0 1
321.0888 -678.665 2101.0 1
345.10352 -682.86426 2114.0 1
367.13132 -682.86426 2114.0 1
-122.70595 -736.2355 2208.0 1
-98.47943 -727.2326 2181.0 1
-74.78087 -717.89624 2153.0 1
-52.346592 -717.89624 2153.0 1
-29.731705 -713.5615 2140.0 1
-7.4329615 -713.5615 2140.0 1
15.053484 -722.56445 2167.0 1
38.3456 -736.2355 2208.0 1
61.7697 -741.23706 2223.0 1
84.360344 -736.2355 2208.0 1
106.054726 -727.2326 2181.0 1
126.359924 -713.5615 2140.0 1
146.85252 -704.8921 2114.0 1
168.88036 -704.8921 2114.0 1
190.90833 -704.8921 2114.0 1
212.93614 -704.8921 2114.0 1
236.40901 -709.2268 2127.0 1
261.73303 -717.89624 2153.0 1
282.45142 -713.5615 2140.0 1
301.04773 -704.8921 2114.0 1
323.07553 -704.8921 2114.0 1
345.10352 -704.8921 2114.0 1
367.13132 -704.8921 2114.0 1
-124.31757 -769.21484 2237.0 1
-99.06643 -754.4289 2194.0 1
-75.267136 -745.14465 2167.0 1
-52.346592 -740.3306 2153.0 1
-29.912317 -740.3306 2153.0 1
-7.478115 -740.3306 2153.0 1
15.338298 -759.2429 2208.0 1
38.6061 -764.4008 2223.0 1
61.7697 -764.4008 2223.0 1
107.367645 -759.2429 2208.0 1
127.127525 -740.3306 2153.0 1
147.7556 -731.39026 2127.0 1
168.88036 -726.92004 2114.0 1
190.90833 -726.92004 2114.0 1
214.24559 -731.39026 2127.0 1
237.85391 -735.8604 2140.0 1
261.73303 -740.3306 2153.0 1
284.16724 -740.3306 2153.0 1
301.04773 -726.92004 2114.0 1
323.07553 -726.92004 2114.0 1
345.10352 -726.92004 2114.0 1
-123.53955 -787.56445 2223.0 1
-99.06643 -777.29034 2194.0 1
-75.753395 -772.6847 2181.0 1
-52.686977 -767.7248 2167.0 1
-29.912317 -762.76483 2153.0 1
-7.575369 -772.6847 2181.0 1
15.338298 -782.25024 2208.0 1
38.6061 -787.56445 2223.0 1
85.46834 -792.52435 2237.0 1
106.686874 -777.29034 2194.0 1
127.954185 -767.7248 2167.0 1
148.65866 -758.1592 2140.0 1
168.88036 -748.94794 2114.0 1
190.90833 -748.94794 2114.0 1
214.24559 -753.5536 2127.0 1
239.29883 -762.76483 2153.0 1
261.73303 -762.76483 2153.0 1
299.19644 -744.3423 2101.0 1
321.0888 -744.3423 2101.0 1
-124.31757 -815.83386 2237.0 1
-99.69857 -805.25757 2208.0 1
-76.20493 -800.1518 2194.0 1
-53.343437 -800.1518 2194.0 1
-30.30133 -795.4107 2181.0 1
-7.6205225 -800.1518 2194.0 1
15.442498 -810.7281 2223.0 1
39.109734 -821.3044 2252.0 1
85.46834 -815.83386 2237.0 1
107.367645 -805.25757 2208.0 1
127.954185 -790.3049 2167.0 1
149.56174 -785.1991 2153.0 1
170.95741 -780.458 2140.0 1
192.0823 -775.71686 2127.0 1
215.55504 -780.458 2140.0 1
239.29883 -785.1991 2153.0 1
-125.15118 -844.7702 2252.0 1
-99.69857 -828.2649 2208.0 1
-76.20493 -823.01324 2194.0 1
-53.343437 -823.01324 2194.0 1
-30.481943 -823.01324 2194.0 1
-7.669149 -828.2649 2208.0 1
15.442498 -833.8917 2223.0 1
48.227234 -1041.7083 2777.0 1
75.94089 -1025.2029 2733.0 1
84.93345 -833.8917 2223.0 1
107.367645 -828.2649 2208.0 1
127.954185 -812.885 2167.0 1
150.53427 -812.885 2167.0 1
171.99593 -807.6333 2153.0 1
194.43028 -807.6333 2153.0 1
216.86449 -807.6333 2153.0 1
240.85487 -812.885 2167.0 1
-125.15118 -868.236 2252.0 1
-99.69857 -851.2723 2208.0 1
-76.6912 -851.2723 2208.0 1
-53.343437 -845.8747 2194.0 1
-30.67645 -851.2723 2208.0 1
-7.721249 -857.05536 2223.0 1
17.589027 -976.1872 2532.0 1
46.0043 -1021.2954 2649.0 1
75.94089 -1053.6808 2733.0 1
86.04144 -868.236 2252.0 1
107.367645 -851.2723 2208.0 1
128.78084 -840.8627 2181.0 1
150.53427 -835.46515 2167.0 1
173.11435 -835.46515 2167.0 1
195.69456 -835.46515 2167.0 1
218.27466 -835.46515 2167.0 1
243.85583 -845.8747 2194.0 1
-125.9292 -897.24536 2266.0 1
-100.37587 -880.2191 2223.0 1
-76.6912 -874.2797 2208.0 1
-53.683823 -874.2797 2208.0 1
-30.88485 -880.2191 2223.0 1
-7.821976 -891.70197 2252.0 1
16.970772 -967.3303 2443.0 1
75.94089 -1082.1587 2733.0 1
102.77597 -1065.1324 2690.0 1
108.097046 -880.2191 2223.0 1
129.54845 -868.73627 2194.0 1
150.53427 -858.04535 2167.0 1
173.11435 -858.04535 2167.0 1
195.69456 -858.04535 2167.0 1
220.99428 -868.73627 2194.0 1
-125.9292 -920.85706 2266.0 1
-101.00802 -909.0721 2237.0 1
-77.2122 -903.38275 2223.0 1
-54.753613 -915.1678 2252.0 1
-31.287756 -915.1678 2252.0 1
-7.9227033 -926.95276 2281.0 1
76.52441 -1119.1705 2754.0 1
108.097046 -903.38275 2223.0 1
130.37509 -897.28705 2208.0 1
152.40987 -891.5977 2194.0 1
173.11435 -880.6255 2167.0 1
195.69456 -880.6255 2167.0 1
222.40445 -897.28705 2208.0 1
