ply
format ascii 1.0
comment : created from Kinect user tracker
element vertex 341
property float x
property float y
property float z
property int userId
end_header
1353.4537 104.78355 2514.0 1
1336.761 79.15031 2532.0 1
1353.4537 78.58762 2514.0 1
1330.0435 53.55881 2570.0 1
1346.792 53.162853 2551.0 1
1343.7632 52.01665 2496.0 1
1323.0413 27.185753 2609.0 1
1330.0435 26.779373 2570.0 1
1327.2579 26.195854 2514.0 1
1343.7632 26.008295 2496.0 1
1328.9668 0.0 2733.0 1
1305.7892 0.0 2629.0 1
1312.8992 0.0 2589.0 1
1320.2104 0.0 2551.0 1
1327.2579 0.0 2514.0 1
1343.7632 0.0 2496.0 1
1297.8457 -27.810953 2669.0 1
1305.7892 -27.394154 2629.0 1
1303.2642 -26.779373 2570.0 1
1310.3774 -26.383415 2532.0 1
1327.2579 -26.195854 2514.0 1
1353.4537 -26.195854 2514.0 1
1260.5178 -55.205105 2649.0 1
1288.1204 -55.205105 2649.0 1
1295.8555 -54.371506 2609.0 1
1303.2642 -53.558746 2570.0 1
1320.2104 -53.16279 2551.0 1
1346.792 -53.16279 2551.0 1
1363.1444 -52.76683 2532.0 1
1251.9977 -84.089455 2690.0 1
1260.5178 -82.80779 2649.0 1
1288.1204 -82.80779 2649.0 1
1305.7892 -82.182594 2629.0 1
1312.8992 -80.93219 2589.0 1
1339.8765 -80.93219 2589.0 1
1366.854 -80.93219 2589.0 1
1373.3733 -79.74431 2551.0 1
1232.9152 -110.41035 2649.0 1
1260.5178 -110.41035 2649.0 1
1288.1204 -110.41035 2649.0 1
1325.6566 -111.24394 2669.0 1
1364.117 -112.119225 2690.0 1
1370.9281 -110.41035 2649.0 1
1377.4128 -108.74314 2609.0 1
1383.6023 -107.11762 2570.0 1
1223.9679 -140.149 2690.0 1
1223.6067 -136.9709 2629.0 1
1251.001 -136.9709 2629.0 1
1288.1204 -138.0129 2649.0 1
1357.4446 -142.3893 2733.0 1
1353.4677 -139.0549 2669.0 1
1370.9281 -138.0129 2649.0 1
1366.854 -134.8869 2589.0 1
1383.6023 -133.897 2570.0 1
1214.4128 -166.86584 2669.0 1
1232.9152 -165.61545 2649.0 1
1260.5178 -165.61545 2649.0 1
1308.0573 -168.17877 2690.0 1
1357.4446 -170.86713 2733.0 1
1353.4677 -166.86584 2669.0 1
1370.9281 -165.61545 2649.0 1
1377.4128 -163.11465 2609.0 1
1383.6023 -160.67638 2570.0 1
1205.3126 -193.218 2649.0 1
1223.6067 -191.7592 2629.0 1
1251.001 -191.7592 2629.0 1
1328.9668 -199.34496 2733.0 1
1346.5175 -197.74028 2711.0 1
1353.4677 -194.6768 2669.0 1
1370.9281 -193.218 2649.0 1
1377.4128 -190.3004 2609.0 1
1393.8313 -188.8416 2589.0 1
1214.4128 -222.48788 2669.0 1
1232.9152 -220.8207 2649.0 1
1260.5178 -220.8207 2649.0 1
1328.9668 -227.82294 2733.0 1
1336.087 -224.23845 2690.0 1
1353.4677 -222.48788 2669.0 1
1360.5775 -219.15349 2629.0 1
1366.854 -215.81909 2589.0 1
1383.6023 -214.23524 2570.0 1
1205.2744 -254.23761 2711.0 1
1205.3126 -248.42325 2649.0 1
1223.6067 -246.54764 2629.0 1
1270.0348 -250.29884 2669.0 1
1328.9668 -256.30075 2733.0 1
1346.5175 -254.23761 2711.0 1
1353.4677 -250.29884 2669.0 1
1360.5775 -246.54764 2629.0 1
1377.4128 -244.67204 2609.0 1
1383.6023 -241.01462 2570.0 1
1205.3126 -276.0258 2649.0 1
1223.6067 -273.9418 2629.0 1
1290.0204 -282.4862 2711.0 1
1328.9668 -284.7786 2733.0 1
1336.087 -280.298 2690.0 1
1353.4677 -278.1098 2669.0 1
1370.9281 -276.0258 2649.0 1
1387.9718 -273.9418 2629.0 1
1393.8313 -269.7738 2589.0 1
1177.71 -303.62836 2649.0 1
1205.3126 -303.62836 2649.0 1
1232.9152 -303.62836 2649.0 1
1290.0204 -310.7348 2711.0 1
1318.2689 -310.7348 2711.0 1
1336.087 -308.32776 2690.0 1
1353.4677 -305.92075 2669.0 1
1370.9281 -303.62836 2649.0 1
1377.4128 -299.04355 2609.0 1
1393.8313 -296.75116 2589.0 1
1195.938 -336.35754 2690.0 1
1205.3126 -331.2309 2649.0 1
1261.7716 -338.98337 2711.0 1
1300.489 -341.73425 2733.0 1
1328.9668 -341.73425 2733.0 1
1336.087 -336.35754 2690.0 1
1353.4677 -333.7317 2669.0 1
1370.9281 -331.2309 2649.0 1
1377.4128 -326.2293 2609.0 1
1393.8313 -323.72852 2589.0 1
1177.71 -358.8336 2649.0 1
1205.3126 -358.8336 2649.0 1
1242.2238 -361.5428 2669.0 1
1300.489 -370.21222 2733.0 1
1318.2689 -367.23212 2711.0 1
1336.087 -364.38745 2690.0 1
1353.4677 -361.5428 2669.0 1
1370.9281 -358.8336 2649.0 1
1387.9718 -356.1244 2629.0 1
1426.1333 -358.8336 2649.0 1
1186.6017 -389.35373 2669.0 1
1205.3126 -386.43613 2649.0 1
1223.6067 -383.51852 2629.0 1
1290.0204 -395.4807 2711.0 1
1328.9668 -398.69006 2733.0 1
1346.5175 -395.4807 2711.0 1
1353.4677 -389.35373 2669.0 1
1381.2786 -389.35373 2669.0 1
1398.5308 -386.43613 2649.0 1
1426.1333 -386.43613 2649.0 1
1167.9083 -420.447 2690.0 1
1186.6017 -417.1647 2669.0 1
1205.3126 -414.0387 2649.0 1
1223.6067 -410.9127 2629.0 1
1280.0276 -420.447 2690.0 1
1328.9668 -427.16788 2733.0 1
1346.5175 -423.72928 2711.0 1
1364.117 -420.447 2690.0 1
1392.1467 -420.447 2690.0 1
1409.0897 -417.1647 2669.0 1
1426.1333 -414.0387 2649.0 1
1205.6808 -462.9814 2777.0 1
1186.6017 -444.97565 2669.0 1
1196.2125 -438.30685 2629.0 1
1214.2981 -434.97244 2609.0 1
1280.0276 -448.47678 2690.0 1
1339.1783 -459.14685 2754.0 1
1357.4446 -455.64572 2733.0 1
1374.7662 -451.97787 2711.0 1
1392.1467 -448.47678 2690.0 1
1409.0897 -444.97565 2669.0 1
1426.1333 -441.64124 2649.0 1
1195.8131 -499.889 2822.0 1
1225.2183 -499.889 2822.0 1
1195.938 -476.50653 2690.0 1
1205.3126 -469.2438 2649.0 1
1242.2238 -472.7866 2669.0 1
1290.0204 -480.22647 2711.0 1
1328.9668 -484.12357 2733.0 1
1357.4446 -484.12357 2733.0 1
1385.9225 -484.12357 2733.0 1
1403.0148 -480.22647 2711.0 1
1409.0897 -472.7866 2669.0 1
1436.9006 -472.7866 2669.0 1
1215.7292 -538.1097 2869.0 1
1215.2324 -524.98047 2799.0 1
1244.398 -524.98047 2799.0 1
1243.5332 -512.6015 2733.0 1
1261.7716 -508.47522 2711.0 1
1300.489 -512.6015 2733.0 1
1339.1783 -516.5403 2754.0 1
1346.5175 -508.47522 2711.0 1
1374.7662 -508.47522 2711.0 1
1403.0148 -508.47522 2711.0 1
1420.1766 -504.53644 2690.0 1
1436.9006 -500.5977 2669.0 1
1216.007 -582.45715 2942.0 1
1215.7292 -568.00464 2869.0 1
1225.2183 -558.6996 2822.0 1
1254.6235 -558.6996 2822.0 1
1273.5637 -554.14606 2799.0 1
1292.4897 -549.79047 2777.0 1
1321.4263 -549.79047 2777.0 1
1339.1783 -545.23694 2754.0 1
1346.5175 -536.7238 2711.0 1
1396.5718 -545.23694 2754.0 1
1437.1715 -549.79047 2777.0 1
1442.8783 -541.07935 2733.0 1
1448.2063 -532.5662 2690.0 1
1195.754 -602.9012 2893.0 1
1205.5593 -592.898 2845.0 1
1225.2183 -588.1048 2822.0 1
1254.6235 -588.1048 2822.0 1
1273.5637 -583.3116 2799.0 1
1292.4897 -578.7268 2777.0 1
1321.4263 -578.7268 2777.0 1
1350.3625 -578.7268 2777.0 1
1453.9652 -573.9336 2754.0 1
1471.3561 -569.5572 2733.0 1
1195.754 -633.0462 2893.0 1
1215.7292 -627.79456 2869.0 1
1225.2183 -617.51 2822.0 1
1254.6235 -617.51 2822.0 1
1273.5637 -612.4771 2799.0 1
1302.7291 -612.4771 2799.0 1
1321.4263 -607.6631 2777.0 1
1466.1079 -607.6631 2777.0 1
1471.3561 -598.03503 2733.0 1
1164.5078 -680.155 2967.0 1
1205.8997 -686.11523 2993.0 1
1195.754 -663.1912 2893.0 1
1215.7292 -657.6895 2869.0 1
1225.2183 -646.9152 2822.0 1
1254.6235 -646.9152 2822.0 1
1284.0288 -646.9152 2822.0 1
1302.7291 -641.6427 2799.0 1
1489.8656 -646.9152 2822.0 1
1482.6617 -631.3269 2754.0 1
1174.7125 -717.3024 2993.0 1
1185.3514 -705.0798 2942.0 1
1195.754 -693.3364 2893.0 1
1215.7292 -687.5846 2869.0 1
1245.6241 -687.5846 2869.0 1
1264.849 -681.83276 2845.0 1
1305.4142 -687.5846 2869.0 1
1477.7228 -670.8084 2799.0 1
1482.6617 -660.0237 2754.0 1
1153.4592 -754.9915 3019.0 1
1174.7125 -748.48944 2993.0 1
1195.4241 -741.98737 2967.0 1
1205.6738 -729.4834 2917.0 1
1225.8992 -723.48145 2893.0 1
1256.0442 -723.48145 2893.0 1
1254.6235 -705.72577 2822.0 1
1477.7228 -699.97394 2799.0 1
1482.6617 -688.72034 2754.0 1
1163.775 -793.483 3046.0 1
1174.7125 -779.6765 2993.0 1
1195.4241 -772.9035 2967.0 1
1205.6738 -759.8785 2917.0 1
1236.0691 -759.8785 2917.0 1
1245.6241 -747.3745 2869.0 1
1489.8656 -735.131 2822.0 1
1482.6617 -717.417 2754.0 1
1142.0703 -832.5371 3073.0 1
1163.775 -825.2223 3046.0 1
1184.9171 -817.9074 3019.0 1
1205.8997 -810.8635 2993.0 1
1237.0867 -810.8635 2993.0 1
1257.2565 -803.8196 2967.0 1
1502.0083 -770.76733 2845.0 1
1495.0442 -752.3448 2777.0 1
1152.4763 -872.43524 3101.0 1
1174.0908 -864.55774 3073.0 1
1206.1115 -864.55774 3073.0 1
1216.3752 -849.36536 3019.0 1
1247.8331 -849.36536 3019.0 1
1502.0083 -800.41223 2845.0 1
1506.8883 -787.4706 2799.0 1
1140.3926 -921.08636 3157.0 1
1162.8824 -912.9171 3129.0 1
1184.7887 -904.7478 3101.0 1
1206.1115 -896.57855 3073.0 1
1216.3752 -880.8235 3019.0 1
1270.1528 -896.57855 3073.0 1
1489.8656 -823.34674 2822.0 1
1506.8883 -816.6363 2799.0 1
1130.2782 -945.52124 3129.0 1
1162.8824 -945.52124 3129.0 1
1184.7887 -937.0602 3101.0 1
1206.1115 -928.5992 3073.0 1
1249.4136 -937.0602 3101.0 1
1497.2046 -874.2067 2893.0 1
1489.8656 -852.75195 2822.0 1
1519.2708 -852.75195 2822.0 1
1097.6741 -978.12537 3129.0 1
1130.2782 -978.12537 3129.0 1
1162.8824 -978.12537 3129.0 1
1195.4866 -978.12537 3129.0 1
1228.0907 -978.12537 3129.0 1
1497.2046 -904.3518 2893.0 1
1489.8656 -882.15717 2822.0 1
1519.2708 -882.15717 2822.0 1
1104.895 -1048.5228 3246.0 1
1107.4967 -1019.7741 3157.0 1
1130.2782 -1010.72955 3129.0 1
1162.8824 -1010.72955 3129.0 1
1195.4866 -1010.72955 3129.0 1
1228.0907 -1010.72955 3129.0 1
1442.7185 -918.9919 2845.0 1
1484.7839 -926.7443 2869.0 1
1489.8656 -911.5624 2822.0 1
1519.2708 -911.5624 2822.0 1
1140.3926 -1052.67 3157.0 1
1173.2886 -1052.67 3157.0 1
1484.7839 -956.6393 2869.0 1
1489.8656 -940.9676 2822.0 1
1519.2708 -940.9676 2822.0 1
1027.6621 -1105.8538 3216.0 1
1061.1727 -1105.8538 3216.0 1
1140.3926 -1085.566 3157.0 1
1484.7839 -986.53436 2869.0 1
1514.6791 -986.53436 2869.0 1
1544.574 -986.53436 2869.0 1
1041.7047 -1118.4619 3157.0 1
1117.67 -1128.7361 3186.0 1
1517.7703 -1060.3601 2993.0 1
1484.7839 -1016.4293 2869.0 1
1527.3497 -1024.932 2893.0 1
1557.4948 -1024.932 2893.0 1
1032.4657 -1141.1462 3129.0 1
1065.0698 -1141.1462 3129.0 1
1499.497 -1101.0293 3019.0 1
1491.9078 -1072.9474 2942.0 1
1509.6252 -1063.8298 2917.0 1
1514.6791 -1046.3243 2869.0 1
1570.4155 -1063.8298 2917.0 1
1504.5854 -1112.981 2967.0 1
1522.5634 -1103.603 2942.0 1
1540.0205 -1094.225 2917.0 1
1570.4155 -1094.225 2917.0 1
1491.9078 -1134.2585 2942.0 1
1522.5634 -1134.2585 2942.0 1
1527.3497 -1115.3672 2893.0 1
1570.4155 -1124.6201 2917.0 1
1491.9078 -1164.9143 2942.0 1
1509.6252 -1155.0154 2917.0 1
1540.0205 -1155.0154 2917.0 1
1570.4155 -1155.0154 2917.0 1
1540.0205 -1185.4105 2917.0 1
1583.8748 -1195.57 2942.0 1
