ply
format ascii 1.0
comment : created from Kinect user tracker
element vertex 913
property float x
property float y
property float z
property int userId
end_header
993.5679 326.3544 2088.0 1
955.969 306.4939 2101.0 1
971.81085 304.59744 2088.0 1
993.5679 304.59744 2088.0 1
1015.32477 304.59744 2088.0 1
967.7992 288.1234 2127.0 1
971.81085 282.84045 2088.0 1
1005.9399 286.36243 2114.0 1
1037.0817 282.84045 2088.0 1
1067.6575 279.45398 2063.0 1
940.8392 270.9617 2167.0 1
945.63574 265.96008 2127.0 1
955.969 262.70905 2101.0 1
977.8614 262.70905 2101.0 1
987.8577 259.58304 2076.0 1
1003.1681 257.95752 2063.0 1
1024.6646 257.95752 2063.0 1
1055.2368 254.95656 2039.0 1
918.2591 248.38152 2167.0 1
946.9175 249.98619 2181.0 1
945.63574 243.7967 2127.0 1
950.05396 239.32654 2088.0 1
971.81085 239.32654 2088.0 1
987.8577 237.9511 2076.0 1
1009.48956 237.9511 2076.0 1
1018.7043 235.0856 2051.0 1
1040.0758 235.0856 2051.0 1
1061.4471 235.0856 2051.0 1
906.81793 222.98799 2140.0 1
929.11664 222.98799 2140.0 1
951.4154 222.98799 2140.0 1
950.05396 217.5696 2088.0 1
966.2257 216.3192 2076.0 1
981.6717 214.9646 2063.0 1
997.3329 213.7142 2051.0 1
1018.7043 213.7142 2051.0 1
1033.9905 212.46379 2039.0 1
1061.4471 213.7142 2051.0 1
1076.4833 212.46379 2039.0 1
1091.2692 211.2134 2027.0 1
889.8923 201.90836 2153.0 1
906.81793 200.68922 2140.0 1
923.4725 199.47008 2127.0 1
939.85614 198.25093 2114.0 1
950.05396 195.81265 2088.0 1
971.81085 195.81265 2088.0 1
981.6717 193.46815 2063.0 1
997.3329 192.3428 2051.0 1
1012.744 191.21744 2039.0 1
1033.9905 191.21744 2039.0 1
1049.0265 190.09207 2027.0 1
1076.4833 191.21744 2039.0 1
901.3092 177.3067 2127.0 1
917.8283 176.22302 2114.0 1
928.2969 174.05566 2088.0 1
950.05396 174.05566 2088.0 1
971.81085 174.05566 2088.0 1
975.96155 170.97134 2051.0 1
991.49774 169.97102 2039.0 1
1012.744 169.97102 2039.0 1
1027.9053 168.9707 2027.0 1
1061.4471 170.97134 2051.0 1
1082.8186 170.97134 2051.0 1
895.67883 158.06099 2167.0 1
901.3092 155.14339 2127.0 1
929.11664 156.09161 2140.0 1
939.85614 154.19518 2114.0 1
950.05396 152.29872 2088.0 1
971.81085 152.29872 2088.0 1
987.8577 151.42345 2076.0 1
997.3329 149.59995 2051.0 1
1024.6646 150.47523 2063.0 1
1046.161 150.47523 2063.0 1
1087.3235 153.24695 2101.0 1
884.51904 133.79277 2140.0 1
901.3092 132.98001 2127.0 1
929.11664 133.79277 2140.0 1
945.63574 132.98001 2127.0 1
950.05396 130.54173 2088.0 1
971.81085 130.54173 2088.0 1
993.5679 130.54173 2088.0 1
1003.1681 128.97874 2063.0 1
1031.1215 129.7915 2076.0 1
1065.4312 131.35449 2101.0 1
1100.7792 132.98001 2127.0 1
1129.8059 133.79277 2140.0 1
821.94006 122.0703 2343.0 1
829.7376 119.6737 2297.0 1
842.15137 118.0586 2266.0 1
854.6831 116.5477 2237.0 1
872.4978 115.8183 2223.0 1
895.66156 115.8183 2223.0 1
901.4654 113.6301 2181.0 1
924.1915 113.6301 2181.0 1
923.4725 110.816696 2127.0 1
945.63574 110.816696 2127.0 1
950.05396 108.7848 2088.0 1
971.81085 108.7848 2088.0 1
1005.9399 110.1394 2114.0 1
1021.64624 109.4621 2101.0 1
1037.0817 108.7848 2088.0 1
1078.6158 110.816696 2127.0 1
1107.507 111.493996 2140.0 1
778.39136 98.32314 2359.0 1
797.5259 97.656265 2343.0 1
805.8029 95.73898 2297.0 1
818.5396 94.4469 2266.0 1
831.37366 93.23818 2237.0 1
854.6831 93.23818 2237.0 1
866.6105 92.02946 2208.0 1
883.97723 91.44594 2194.0 1
895.67883 90.32058 2167.0 1
918.2591 90.32058 2167.0 1
934.7608 89.73706 2153.0 1
945.63574 88.65338 2127.0 1
973.7143 89.19522 2140.0 1
1002.06354 89.73706 2153.0 1
1018.3119 89.19522 2140.0 1
1040.6106 89.19522 2140.0 1
1069.3663 89.73706 2153.0 1
1098.9001 90.32058 2167.0 1
773.1119 73.242165 2343.0 1
786.9739 72.27311 2312.0 1
794.9279 70.835144 2266.0 1
808.064 69.928604 2237.0 1
826.1706 69.49097 2223.0 1
849.33417 69.49097 2223.0 1
861.11566 68.58443 2194.0 1
878.73944 68.17805 2181.0 1
895.67883 67.74041 2167.0 1
912.3266 67.302765 2153.0 1
934.7608 67.302765 2153.0 1
951.4154 66.896385 2140.0 1
979.62933 67.302765 2153.0 1
1002.06354 67.302765 2153.0 1
1037.8217 68.17805 2181.0 1
1060.5476 68.17805 2181.0 1
1089.7305 68.58443 2194.0 1
753.8106 49.16157 2359.0 1
767.8324 48.49469 2327.0 1
781.8681 47.86949 2297.0 1
794.9279 47.22345 2266.0 1
808.064 46.61909 2237.0 1
826.1706 46.32733 2223.0 1
843.6032 46.01473 2208.0 1
856.01337 45.45205 2181.0 1
873.09875 45.16029 2167.0 1
889.8923 44.86853 2153.0 1
901.3092 44.32669 2127.0 1
929.11664 44.59761 2140.0 1
945.63574 44.32669 2127.0 1
967.7992 44.32669 2127.0 1
748.6979 24.414036 2343.0 1
762.88293 24.091017 2312.0 1
776.42194 23.767998 2281.0 1
790.0166 23.465816 2252.0 1
808.064 23.309517 2237.0 1
826.1706 23.163637 2223.0 1
838.2543 22.861458 2194.0 1
856.01337 22.725998 2181.0 1
867.45807 22.434238 2153.0 1
879.14575 22.163319 2127.0 1
901.3092 22.163319 2127.0 1
929.11664 22.298779 2140.0 1
945.63574 22.163319 2127.0 1
955.969 21.892399 2101.0 1
971.81085 21.756939 2088.0 1
744.6861 0.0 2409.0 1
748.6979 0.0 2343.0 1
757.9334 0.0 2297.0 1
771.3161 0.0 2266.0 1
784.7545 0.0 2237.0 1
803.00684 0.0 2223.0 1
820.5959 0.0 2208.0 1
833.2874 0.0 2181.0 1
856.01337 0.0 2181.0 1
867.45807 0.0 2153.0 1
879.14575 0.0 2127.0 1
895.8005 0.0 2114.0 1
923.4725 0.0 2127.0 1
934.07654 0.0 2101.0 1
950.05396 0.0 2088.0 1
977.8614 0.0 2101.0 1
993.5679 0.0 2088.0 1
744.6861 -25.101755 2409.0 1
748.6979 -24.414036 2343.0 1
757.9334 -23.934717 2297.0 1
776.42194 -23.767998 2281.0 1
784.7545 -23.309517 2237.0 1
803.00684 -23.163637 2223.0 1
820.5959 -23.007338 2208.0 1
833.2874 -22.725998 2181.0 1
850.51855 -22.580118 2167.0 1
862.2203 -22.298779 2140.0 1
879.14575 -22.163319 2127.0 1
890.2918 -21.892399 2101.0 1
912.18414 -21.892399 2101.0 1
928.2969 -21.756939 2088.0 1
944.5939 -21.631899 2076.0 1
966.2257 -21.631899 2076.0 1
981.6717 -21.496439 2063.0 1
997.3329 -21.371399 2051.0 1
1018.7043 -21.371399 2051.0 1
729.7404 -50.91207 2443.0 1
744.6861 -50.20351 2409.0 1
753.8106 -49.16151 2359.0 1
762.88293 -48.182034 2312.0 1
776.42194 -47.535995 2281.0 1
790.0166 -46.931633 2252.0 1
803.00684 -46.327274 2223.0 1
826.1706 -46.327274 2223.0 1
833.2874 -45.451996 2181.0 1
850.51855 -45.160236 2167.0 1
856.9825 -44.326637 2127.0 1
873.7725 -44.055717 2114.0 1
895.8005 -44.055717 2114.0 1
912.18414 -43.784798 2101.0 1
922.96185 -43.263798 2076.0 1
944.5939 -43.263798 2076.0 1
960.1752 -42.992878 2063.0 1
981.6717 -42.992878 2063.0 1
997.3329 -42.742798 2051.0 1
1018.7043 -42.742798 2051.0 1
1033.9905 -42.492718 2039.0 1
729.7404 -76.368225 2443.0 1
744.6861 -75.30539 2409.0 1
759.2429 -74.2738 2376.0 1
762.88293 -72.27316 2312.0 1
771.3161 -70.835205 2266.0 1
790.0166 -70.39756 2252.0 1
808.064 -69.928665 2237.0 1
826.1706 -69.49102 2223.0 1
838.2543 -68.58448 2194.0 1
845.02374 -67.30282 2153.0 1
856.9825 -66.49006 2127.0 1
873.7725 -66.08368 2114.0 1
884.7831 -65.27092 2088.0 1
906.54 -65.27092 2088.0 1
922.96185 -64.8958 2076.0 1
938.6788 -64.48942 2063.0 1
954.59 -64.114296 2051.0 1
975.96155 -64.114296 2051.0 1
991.49774 -63.739178 2039.0 1
1018.7043 -64.114296 2051.0 1
1046.161 -64.48942 2063.0 1
734.8184 -102.53282 2460.0 1
749.9412 -101.1157 2426.0 1
759.2429 -99.0317 2376.0 1
762.88293 -96.36418 2312.0 1
771.3161 -94.4469 2266.0 1
794.9279 -94.4469 2266.0 1
813.4824 -93.86338 2252.0 1
820.5959 -92.02946 2208.0 1
833.2874 -90.9041 2181.0 1
845.02374 -89.73706 2153.0 1
851.7447 -88.11154 2114.0 1
873.7725 -88.11154 2114.0 1
884.7831 -87.02786 2088.0 1
906.54 -87.02786 2088.0 1
917.18225 -85.985855 2063.0 1
933.2187 -85.4857 2051.0 1
949.00494 -84.98554 2039.0 1
975.96155 -85.4857 2051.0 1
997.3329 -85.4857 2051.0 1
1012.744 -84.98554 2039.0 1
1033.9905 -84.98554 2039.0 1
734.8184 -128.166 2460.0 1
749.9412 -126.3946 2426.0 1
769.78796 -125.508896 2409.0 1
762.88293 -120.4552 2312.0 1
776.42194 -118.840096 2281.0 1
794.9279 -118.0586 2266.0 1
808.064 -116.5477 2237.0 1
826.1706 -115.8183 2223.0 1
833.2874 -113.6301 2181.0 1
845.02374 -112.171295 2153.0 1
862.2203 -111.493996 2140.0 1
873.7725 -110.1394 2114.0 1
879.6981 -108.1596 2076.0 1
906.54 -108.7848 2088.0 1
917.18225 -107.4823 2063.0 1
933.2187 -106.8571 2051.0 1
949.00494 -106.231895 2039.0 1
970.2514 -106.231895 2039.0 1
991.49774 -106.231895 2039.0 1
1012.744 -106.231895 2039.0 1
1046.161 -107.4823 2063.0 1
734.8184 -153.79918 2460.0 1
755.1964 -152.73633 2443.0 1
769.78796 -150.61066 2409.0 1
762.88293 -144.54622 2312.0 1
776.42194 -142.6081 2281.0 1
800.19 -142.6081 2281.0 1
808.064 -139.85721 2237.0 1
826.1706 -138.98193 2223.0 1
833.2874 -136.3561 2181.0 1
845.02374 -134.60553 2153.0 1
862.2203 -133.79277 2140.0 1
873.7725 -132.16725 2114.0 1
884.7831 -130.54173 2088.0 1
901.32996 -129.7915 2076.0 1
922.96185 -129.7915 2076.0 1
933.2187 -128.2285 2051.0 1
949.00494 -127.47826 2039.0 1
970.2514 -127.47826 2039.0 1
991.49774 -127.47826 2039.0 1
1012.744 -127.47826 2039.0 1
1040.0758 -128.2285 2051.0 1
719.5634 -182.05818 2496.0 1
740.1951 -180.74527 2478.0 1
755.1964 -178.19237 2443.0 1
775.2203 -176.9524 2426.0 1
767.8324 -169.73132 2327.0 1
776.42194 -166.3761 2281.0 1
800.19 -166.3761 2281.0 1
808.064 -163.16673 2237.0 1
826.1706 -162.14557 2223.0 1
833.2874 -159.08209 2181.0 1
850.51855 -158.06093 2167.0 1
862.2203 -156.09155 2140.0 1
873.7725 -154.19511 2114.0 1
890.2918 -153.2469 2101.0 1
912.18414 -153.2469 2101.0 1
922.96185 -151.4234 2076.0 1
938.6788 -150.47517 2063.0 1
949.00494 -148.72461 2039.0 1
970.2514 -148.72461 2039.0 1
991.49774 -148.72461 2039.0 1
1012.744 -148.72461 2039.0 1
1033.9905 -148.72461 2039.0 1
719.5634 -208.0666 2496.0 1
740.1951 -206.56613 2478.0 1
760.45154 -205.06564 2460.0 1
764.35565 -199.39717 2392.0 1
767.8324 -193.97876 2327.0 1
781.8681 -191.47797 2297.0 1
794.9279 -188.8938 2266.0 1
808.064 -186.47636 2237.0 1
826.1706 -185.30933 2223.0 1
838.2543 -182.89188 2194.0 1
856.01337 -181.8082 2181.0 1
873.09875 -180.64116 2167.0 1
879.14575 -177.30676 2127.0 1
895.8005 -176.22308 2114.0 1
917.8283 -176.22308 2114.0 1
922.96185 -173.0554 2076.0 1
933.2187 -170.9714 2051.0 1
949.00494 -169.97108 2039.0 1
970.2514 -169.97108 2039.0 1
991.49774 -169.97108 2039.0 1
1024.6646 -171.97171 2063.0 1
1033.9905 -169.97108 2039.0 1
724.7526 -235.76294 2514.0 1
740.1951 -232.38686 2478.0 1
766.0158 -232.38686 2478.0 1
759.2429 -222.8213 2376.0 1
767.8324 -218.22607 2327.0 1
781.8681 -215.41267 2297.0 1
800.19 -213.9122 2281.0 1
813.4824 -211.19258 2252.0 1
826.1706 -208.47296 2223.0 1
838.2543 -205.75334 2194.0 1
850.51855 -203.22128 2167.0 1
867.45807 -201.90836 2153.0 1
884.51904 -200.68922 2140.0 1
901.3092 -199.47008 2127.0 1
923.4725 -199.47008 2127.0 1
922.96185 -194.6873 2076.0 1
933.2187 -192.3428 2051.0 1
949.00494 -191.21744 2039.0 1
970.2514 -191.21744 2039.0 1
997.3329 -192.3428 2051.0 1
1024.6646 -193.46815 2063.0 1
1033.9905 -191.21744 2039.0 1
735.4192 -265.8142 2551.0 1
745.57184 -260.0832 2496.0 1
771.58014 -260.0832 2496.0 1
759.2429 -247.5792 2376.0 1
767.8324 -242.47339 2327.0 1
781.8681 -239.3474 2297.0 1
800.19 -237.68019 2281.0 1
813.4824 -234.6584 2252.0 1
826.1706 -231.6366 2223.0 1
843.6032 -230.0736 2208.0 1
856.01337 -227.2602 2181.0 1
873.09875 -225.80139 2167.0 1
889.8923 -224.34259 2153.0 1
901.3092 -221.63339 2127.0 1
929.11664 -222.98799 2140.0 1
928.2969 -217.5696 2088.0 1
933.2187 -213.7142 2051.0 1
949.00494 -212.46379 2039.0 1
970.2514 -212.46379 2039.0 1
997.3329 -213.7142 2051.0 1
1031.1215 -216.3192 2076.0 1
1040.0758 -213.7142 2051.0 1
735.4192 -292.3956 2551.0 1
750.9486 -288.15466 2514.0 1
777.1444 -288.15466 2514.0 1
759.2429 -272.3371 2376.0 1
773.1119 -268.55463 2343.0 1
781.8681 -263.2821 2297.0 1
800.19 -261.44818 2281.0 1
818.5396 -259.72888 2266.0 1
826.1706 -254.80023 2223.0 1
843.6032 -253.08093 2208.0 1
856.01337 -249.98619 2181.0 1
873.09875 -248.38152 2167.0 1
895.67883 -248.38152 2167.0 1
912.3266 -246.77684 2153.0 1
934.7608 -246.77684 2153.0 1
928.2969 -239.32654 2088.0 1
938.6788 -236.46103 2063.0 1
954.59 -235.0856 2051.0 1
970.2514 -233.71016 2039.0 1
1003.1681 -236.46103 2063.0 1
983.4395 -226.94757 1980.0 1
762.00073 -318.977 2551.0 1
771.58014 -312.0998 2496.0 1
759.2429 -297.095 2376.0 1
773.1119 -292.96866 2343.0 1
781.8681 -287.21683 2297.0 1
805.8029 -287.21683 2297.0 1
823.958 -285.2162 2281.0 1
831.37366 -279.71442 2237.0 1
838.2543 -274.3377 2194.0 1
861.11566 -274.3377 2194.0 1
883.97723 -274.3377 2194.0 1
895.67883 -270.96164 2167.0 1
918.2591 -270.96164 2167.0 1
940.8392 -270.96164 2167.0 1
928.2969 -261.08347 2088.0 1
944.5939 -259.583 2076.0 1
954.59 -256.457 2051.0 1
975.96155 -256.457 2051.0 1
991.49774 -254.95651 2039.0 1
763.6713 -358.8336 2649.0 1
767.67615 -348.13223 2570.0 1
777.1444 -340.54648 2514.0 1
753.8106 -319.55017 2359.0 1
773.1119 -317.3828 2343.0 1
781.8681 -311.15167 2297.0 1
805.8029 -311.15167 2297.0 1
823.958 -308.9843 2281.0 1
831.37366 -303.02405 2237.0 1
849.33417 -301.12762 2223.0 1
866.6105 -299.0957 2208.0 1
883.97723 -297.19928 2194.0 1
901.4654 -295.4383 2181.0 1
918.2591 -293.54187 2167.0 1
940.8392 -293.54187 2167.0 1
928.2969 -282.8405 2088.0 1
944.5939 -281.215 2076.0 1
960.1752 -279.454 2063.0 1
981.6717 -279.454 2063.0 1
1009.48956 -281.215 2076.0 1
773.35156 -377.68335 2589.0 1
771.58014 -364.1165 2496.0 1
764.35565 -348.94498 2392.0 1
778.39136 -344.13095 2359.0 1
781.8681 -335.08636 2297.0 1
800.19 -332.7523 2281.0 1
823.958 -332.7523 2281.0 1
831.37366 -326.3336 2237.0 1
849.33417 -324.29126 2223.0 1
872.4978 -324.29126 2223.0 1
883.97723 -320.06073 2194.0 1
906.8387 -320.06073 2194.0 1
924.1915 -318.1643 2181.0 1
940.8392 -316.12198 2167.0 1
922.96185 -302.8469 2076.0 1
933.2187 -299.1999 2051.0 1
960.1752 -300.95047 2063.0 1
987.8577 -302.8469 2076.0 1
779.3257 -407.78668 2609.0 1
760.45154 -384.498 2460.0 1
769.78796 -376.5267 2409.0 1
778.39136 -368.7117 2359.0 1
792.0797 -363.71008 2327.0 1
805.8029 -359.0211 2297.0 1
823.958 -356.5203 2281.0 1
831.37366 -349.6431 2237.0 1
854.6831 -349.6431 2237.0 1
872.4978 -347.4549 2223.0 1
878.73944 -340.8903 2181.0 1
906.8387 -342.92218 2194.0 1
924.1915 -340.8903 2181.0 1
952.56165 -342.92218 2194.0 1
922.96185 -324.4788 2076.0 1
938.6788 -322.4469 2063.0 1
960.1752 -322.4469 2063.0 1
975.96155 -320.5713 2051.0 1
991.49774 -318.6957 2039.0 1
791.274 -441.64124 2649.0 1
800.3289 -431.63806 2589.0 1
764.35565 -398.79422 2392.0 1
778.39136 -393.29245 2359.0 1
797.5259 -390.62494 2343.0 1
811.065 -385.4566 2312.0 1
829.7376 -382.9558 2297.0 1
836.94836 -375.4534 2252.0 1
854.6831 -372.9526 2237.0 1
866.6105 -368.11774 2208.0 1
883.97723 -365.78366 2194.0 1
901.4654 -363.6163 2181.0 1
924.1915 -363.6163 2181.0 1
946.9175 -363.6163 2181.0 1
934.07654 -350.2787 2101.0 1
944.5939 -346.1107 2076.0 1
960.1752 -343.94333 2063.0 1
964.54126 -337.9414 2027.0 1
797.2481 -472.7866 2669.0 1
760.45154 -435.76434 2460.0 1
759.2429 -420.88458 2376.0 1
773.1119 -415.03897 2343.0 1
792.0797 -412.2047 2327.0 1
805.8029 -406.89053 2297.0 1
823.958 -404.05627 2281.0 1
836.94836 -398.91922 2252.0 1
849.33417 -393.78217 2223.0 1
872.4978 -393.78217 2223.0 1
889.6179 -391.12506 2208.0 1
906.8387 -388.6451 2194.0 1
924.1915 -386.3423 2181.0 1
946.9175 -386.3423 2181.0 1
934.07654 -372.17108 2101.0 1
944.5939 -367.74258 2076.0 1
960.1752 -365.43976 2063.0 1
970.2514 -361.18842 2039.0 1
997.3329 -363.3141 2051.0 1
781.54504 -508.47522 2711.0 1
803.52094 -504.53644 2690.0 1
749.9412 -455.0206 2426.0 1
759.2429 -445.6426 2376.0 1
773.1119 -439.45312 2343.0 1
786.9739 -433.63876 2312.0 1
805.8029 -430.82535 2297.0 1
823.958 -427.8244 2281.0 1
831.37366 -419.57175 2237.0 1
849.33417 -416.94592 2223.0 1
866.6105 -414.1325 2208.0 1
889.6179 -414.1325 2208.0 1
906.8387 -411.50668 2194.0 1
924.1915 -409.0684 2181.0 1
946.9175 -409.0684 2181.0 1
945.63574 -398.94016 2127.0 1
944.5939 -389.3746 2076.0 1
960.1752 -386.9363 2063.0 1
970.2514 -382.43488 2039.0 1
991.49774 -382.43488 2039.0 1
1006.7838 -380.18414 2027.0 1
775.491 -532.5662 2690.0 1
809.7938 -536.7238 2711.0 1
755.1964 -483.66516 2443.0 1
759.2429 -470.40048 2376.0 1
773.1119 -463.86716 2343.0 1
792.0797 -460.69946 2327.0 1
805.8029 -454.76007 2297.0 1
823.958 -451.5924 2281.0 1
831.37366 -442.8813 2237.0 1
849.33417 -440.10956 2223.0 1
872.4978 -440.10956 2223.0 1
889.6179 -437.13986 2208.0 1
906.8387 -434.36813 2194.0 1
924.1915 -431.7944 2181.0 1
952.56165 -434.36813 2194.0 1
945.63574 -421.1035 2127.0 1
950.05396 -413.38226 2088.0 1
966.2257 -411.0065 2076.0 1
975.96155 -406.057 2051.0 1
1009.48956 -411.0065 2076.0 1
1024.6646 -408.43274 2063.0 1
800.3289 -539.5476 2589.0 1
769.78796 -502.03558 2409.0 1
778.39136 -491.6156 2359.0 1
792.0797 -484.94678 2327.0 1
805.8029 -478.6948 2297.0 1
818.5396 -472.2344 2266.0 1
831.37366 -466.1908 2237.0 1
849.33417 -463.2732 2223.0 1
872.4978 -463.2732 2223.0 1
895.66156 -463.2732 2223.0 1
912.62524 -460.1472 2208.0 1
924.1915 -454.5204 2181.0 1
958.63995 -460.1472 2208.0 1
969.64343 -454.5204 2181.0 1
961.8841 -440.5576 2114.0 1
966.2257 -432.6384 2076.0 1
981.6717 -429.9292 2063.0 1
1003.1681 -429.9292 2063.0 1
1024.6646 -429.9292 2063.0 1
755.1964 -534.5772 2443.0 1
775.2203 -530.8573 2426.0 1
778.39136 -516.19635 2359.0 1
792.0797 -509.19412 2327.0 1
805.8029 -502.62952 2297.0 1
823.958 -499.1284 2281.0 1
836.94836 -492.78262 2252.0 1
854.6831 -489.5003 2237.0 1
877.9926 -489.5003 2237.0 1
895.66156 -486.43683 2223.0 1
912.62524 -483.15454 2208.0 1
935.6327 -483.15454 2208.0 1
965.15247 -486.43683 2223.0 1
988.3161 -486.43683 2223.0 1
973.7143 -468.27478 2140.0 1
966.2257 -454.2703 2076.0 1
981.6717 -451.42563 2063.0 1
1003.1681 -451.42563 2063.0 1
1018.7043 -448.7998 2051.0 1
771.58014 -572.183 2496.0 1
786.08484 -563.93036 2460.0 1
794.8897 -552.2391 2409.0 1
797.5259 -537.10925 2343.0 1
811.065 -530.0028 2312.0 1
823.958 -522.89636 2281.0 1
842.15137 -519.45776 2266.0 1
854.6831 -512.8098 2237.0 1
877.9926 -512.8098 2237.0 1
895.66156 -509.60046 2223.0 1
918.82513 -509.60046 2223.0 1
941.9889 -509.60046 2223.0 1
971.23083 -512.8098 2237.0 1
994.5403 -512.8098 2237.0 1
998.2846 -502.9525 2194.0 1
971.81085 -478.65308 2088.0 1
987.8577 -475.9022 2076.0 1
1003.1681 -472.92206 2063.0 1
1024.6646 -472.92206 2063.0 1
803.3404 -602.50525 2514.0 1
806.1086 -585.48944 2443.0 1
808.75867 -569.4322 2376.0 1
811.065 -554.09393 2312.0 1
829.7376 -550.4991 2297.0 1
842.15137 -543.0696 2266.0 1
860.4141 -539.71436 2252.0 1
877.9926 -536.11945 2237.0 1
901.30225 -536.11945 2237.0 1
918.82513 -532.7642 2223.0 1
947.9213 -536.11945 2237.0 1
977.7433 -539.71436 2252.0 1
1001.2091 -539.71436 2252.0 1
1017.8499 -536.11945 2237.0 1
971.81085 -500.41013 2088.0 1
993.5679 -500.41013 2088.0 1
1009.48956 -497.53418 2076.0 1
1031.1215 -497.53418 2076.0 1
815.1636 -637.9541 2551.0 1
829.5362 -628.7011 2514.0 1
831.5646 -610.94543 2443.0 1
827.5529 -589.9387 2359.0 1
835.156 -578.185 2312.0 1
847.7261 -570.4325 2281.0 1
871.4941 -570.4325 2281.0 1
877.9926 -559.42896 2237.0 1
901.30225 -559.42896 2237.0 1
930.8116 -563.1802 2252.0 1
954.2775 -563.1802 2252.0 1
977.7433 -563.1802 2252.0 1
1001.2091 -563.1802 2252.0 1
1031.0452 -566.6813 2266.0 1
977.8614 -525.4181 2101.0 1
993.5679 -522.16705 2088.0 1
1015.32477 -522.16705 2088.0 1
1024.6646 -515.91504 2063.0 1
1052.7534 -519.1661 2076.0 1
841.74493 -664.53546 2551.0 1
855.732 -654.897 2514.0 1
862.98444 -640.83 2460.0 1
852.13367 -614.5195 2359.0 1
859.24713 -602.276 2312.0 1
871.4941 -594.2005 2281.0 1
889.3747 -590.29297 2266.0 1
901.30225 -582.73846 2237.0 1
930.8116 -586.646 2252.0 1
947.9213 -582.73846 2237.0 1
977.7433 -586.646 2252.0 1
1007.4333 -590.29297 2266.0 1
1045.1503 -598.36847 2297.0 1
1076.0664 -602.276 2312.0 1
993.5679 -543.924 2088.0 1
1015.32477 -543.924 2088.0 1
1031.1215 -540.798 2076.0 1
1058.8387 -543.924 2088.0 1
852.8701 -723.08545 2669.0 1
867.48236 -712.24866 2629.0 1
868.3263 -691.1169 2551.0 1
881.928 -681.09283 2514.0 1
882.4767 -661.85754 2443.0 1
870.7682 -634.7655 2343.0 1
877.6071 -622.3032 2297.0 1
895.262 -617.9685 2281.0 1
919.0301 -617.9685 2281.0 1
936.5982 -613.90466 2266.0 1
947.9213 -606.04803 2237.0 1
983.82166 -613.90466 2266.0 1
1021.2155 -622.3032 2297.0 1
1058.8005 -630.4308 2327.0 1
1005.9399 -572.72485 2114.0 1
1015.32477 -565.6809 2088.0 1
1031.1215 -562.4299 2076.0 1
1058.8387 -565.6809 2088.0 1
1087.3235 -569.2029 2101.0 1
866.2911 -762.71265 2711.0 1
874.08167 -745.2696 2649.0 1
894.87646 -739.6428 2629.0 1
901.5732 -723.04376 2570.0 1
882.4767 -687.31354 2443.0 1
876.71454 -663.681 2359.0 1
889.0691 -654.6781 2327.0 1
913.3164 -654.6781 2327.0 1
925.4766 -646.2379 2297.0 1
942.7981 -641.7365 2281.0 1
960.20996 -637.51636 2266.0 1
997.2808 -646.2379 2297.0 1
1021.2155 -646.2379 2297.0 1
1051.9755 -650.458 2312.0 1
1015.32477 -587.43787 2088.0 1
1037.0817 -587.43787 2088.0 1
1052.7534 -584.06177 2076.0 1
1080.5956 -587.43787 2088.0 1
838.04236 -790.9614 2711.0 1
859.58057 -784.8344 2690.0 1
880.681 -778.70746 2669.0 1
901.6842 -772.87225 2649.0 1
922.27075 -767.03705 2629.0 1
928.3525 -749.82324 2570.0 1
883.03253 -693.2218 2376.0 1
895.1822 -683.5937 2343.0 1
913.3164 -678.92554 2327.0 1
931.5202 -674.54913 2312.0 1
949.4113 -670.1727 2297.0 1
973.3461 -670.1727 2297.0 1
1003.79333 -674.54913 2312.0 1
1027.8843 -674.54913 2312.0 1
1051.9755 -674.54913 2312.0 1
1027.9678 -616.7807 2114.0 1
1043.5386 -612.9878 2101.0 1
1058.8387 -609.1949 2088.0 1
1080.5956 -609.1949 2088.0 1
803.52094 -812.8642 2690.0 1
825.059 -806.51843 2669.0 1
846.4792 -800.47485 2649.0 1
874.08167 -800.47485 2649.0 1
901.6842 -800.47485 2649.0 1
929.28687 -800.47485 2649.0 1
949.66486 -794.4312 2629.0 1
895.2969 -727.95166 2409.0 1
901.2952 -712.84265 2359.0 1
919.5962 -708.00775 2343.0 1
937.56384 -703.17285 2327.0 1
955.6112 -698.6402 2312.0 1
979.70233 -698.6402 2312.0 1
1024.1991 -712.84265 2359.0 1
1048.7799 -712.84265 2359.0 1
1043.5386 -634.8802 2101.0 1
1058.8387 -630.95184 2088.0 1
1080.5956 -630.95184 2088.0 1
1116.0793 -638.80853 2114.0 1
791.274 -828.0774 2649.0 1
818.87646 -828.0774 2649.0 1
846.4792 -828.0774 2649.0 1
867.48236 -821.8254 2629.0 1
901.6842 -828.0774 2649.0 1
929.28687 -828.0774 2649.0 1
949.66486 -821.8254 2629.0 1
901.61487 -758.3676 2426.0 1
907.7904 -742.7376 2376.0 1
925.876 -737.4234 2359.0 1
937.56384 -727.42017 2327.0 1
968.4243 -732.4218 2343.0 1
992.8385 -732.4218 2343.0 1
1031.58 -742.7376 2376.0 1
1056.3379 -742.7376 2376.0 1
1043.5386 -656.7726 2101.0 1
1058.8387 -652.7088 2088.0 1
1087.3235 -656.7726 2101.0 1
1109.216 -656.7726 2101.0 1
769.437 -862.1403 2669.0 1
791.274 -855.67993 2649.0 1
818.87646 -855.67993 2649.0 1
846.4792 -855.67993 2649.0 1
874.08167 -855.67993 2649.0 1
901.6842 -855.67993 2649.0 1
936.30304 -862.1403 2669.0 1
914.62585 -817.8866 2532.0 1
907.93286 -789.1378 2443.0 1
913.90344 -772.6638 2392.0 1
925.876 -762.00415 2359.0 1
950.45685 -762.00415 2359.0 1
975.03754 -762.00415 2359.0 1
999.6184 -762.00415 2359.0 1
1031.58 -767.4955 2376.0 1
1066.869 -708.7059 2194.0 1
1062.9094 -691.26276 2140.0 1
1065.4312 -678.665 2101.0 1
1094.0513 -682.86426 2114.0 1
741.6261 -889.9513 2669.0 1
763.6713 -883.2825 2649.0 1
785.29987 -876.6137 2629.0 1
812.694 -876.6137 2629.0 1
840.08826 -876.6137 2629.0 1
867.48236 -876.6137 2629.0 1
888.0687 -869.9449 2609.0 1
922.27075 -876.6137 2629.0 1
901.6217 -832.2662 2496.0 1
920.9405 -826.2643 2478.0 1
926.89374 -808.92535 2426.0 1
938.828 -797.58844 2392.0 1
957.3063 -792.25336 2376.0 1
988.6773 -797.58844 2392.0 1
999.6184 -786.5849 2359.0 1
1045.9075 -803.2569 2409.0 1
1046.9321 -717.89624 2153.0 1
1062.9094 -713.5615 2140.0 1
1078.6158 -709.2268 2127.0 1
1100.7792 -709.2268 2127.0 1
747.4613 -924.98346 2690.0 1
757.9056 -904.008 2629.0 1
785.29987 -904.008 2629.0 1
812.694 -904.008 2629.0 1
840.08826 -904.008 2629.0 1
860.883 -897.1308 2609.0 1
888.0687 -897.1308 2609.0 1
927.6301 -858.2746 2496.0 1
926.89374 -834.2044 2426.0 1
945.5003 -828.35876 2409.0 1
963.75275 -822.5131 2392.0 1
995.7039 -828.35876 2409.0 1
1013.60205 -822.5131 2392.0 1
1053.2883 -834.2044 2426.0 1
1027.9678 -726.92004 2114.0 1
1049.9955 -726.92004 2114.0 1
1112.592 -754.4289 2194.0 1
730.5115 -931.4021 2629.0 1
757.9056 -931.4021 2629.0 1
779.3257 -924.3165 2609.0 1
812.694 -931.4021 2629.0 1
833.6973 -924.3165 2609.0 1
867.48236 -931.4021 2629.0 1
914.62585 -897.037 2532.0 1
920.9405 -877.9058 2478.0 1
926.89374 -859.4833 2426.0 1
945.5003 -853.4605 2409.0 1
970.6022 -853.4605 2409.0 1
988.6773 -847.43774 2392.0 1
1020.8058 -853.4605 2409.0 1
708.46625 -966.0903 2649.0 1
730.5115 -958.79626 2629.0 1
757.9056 -958.79626 2629.0 1
773.35156 -944.2083 2589.0 1
806.5114 -951.50226 2609.0 1
833.6973 -951.50226 2609.0 1
860.883 -951.50226 2609.0 1
908.1238 -916.8558 2514.0 1
920.9405 -903.72656 2478.0 1
933.38885 -890.9621 2443.0 1
952.17255 -884.7622 2426.0 1
970.6022 -878.56226 2409.0 1
988.6773 -872.36237 2392.0 1
1020.8058 -878.56226 2409.0 1
703.1174 -986.1904 2629.0 1
730.5115 -986.1904 2629.0 1
746.3741 -971.1856 2589.0 1
767.67615 -964.05835 2570.0 1
800.3289 -971.1856 2589.0 1
833.6973 -978.68805 2609.0 1
848.01434 -964.05835 2570.0 1
901.6217 -936.2995 2496.0 1
914.25085 -922.79517 2460.0 1
933.38885 -916.4181 2443.0 1
952.17255 -910.0411 2426.0 1
977.4516 -910.0411 2426.0 1
995.7039 -903.66406 2409.0 1
675.7231 -1013.5846 2629.0 1
697.76843 -1005.8738 2609.0 1
719.3968 -998.16296 2589.0 1
740.89667 -990.8377 2570.0 1
767.67615 -990.8377 2570.0 1
800.3289 -998.16296 2589.0 1
827.3064 -998.16296 2589.0 1
901.6217 -962.3078 2496.0 1
920.9405 -955.36804 2478.0 1
933.38885 -941.87415 2443.0 1
952.17255 -935.31995 2426.0 1
984.301 -941.87415 2443.0 1
1002.73047 -935.31995 2426.0 1
665.442 -1025.1405 2589.0 1
697.76843 -1033.0597 2609.0 1
719.3968 -1025.1405 2589.0 1
746.3741 -1025.1405 2589.0 1
767.67615 -1017.61725 2570.0 1
794.4555 -1017.61725 2570.0 1
875.61346 -988.31616 2496.0 1
901.6217 -988.31616 2496.0 1
920.9405 -981.1889 2478.0 1
933.38885 -967.3303 2443.0 1
958.84485 -967.3303 2443.0 1
998.4027 -981.1889 2478.0 1
1009.757 -967.3303 2443.0 1
633.7792 -1044.3966 2570.0 1
670.5825 -1060.2455 2609.0 1
697.76843 -1060.2455 2609.0 1
719.3968 -1052.1178 2589.0 1
740.89667 -1044.3966 2570.0 1
767.67615 -1044.3966 2570.0 1
881.928 -1021.63934 2514.0 1
895.1196 -1007.00964 2478.0 1
920.9405 -1007.00964 2478.0 1
939.884 -999.6948 2460.0 1
958.84485 -992.7863 2443.0 1
984.301 -992.7863 2443.0 1
1024.2234 -1007.00964 2478.0 1
