ply
format ascii 1.0
comment : created from Kinect user tracker
element vertex 917
property float x
property float y
property float z
property int userId
end_header
190.49496 179.60953 1567.0 1
205.89915 178.80717 1560.0 1
218.16702 175.59782 1532.0 1
139.61412 161.0932 1546.0 1
157.13358 162.552 1560.0 1
171.83278 161.0932 1546.0 1
187.0911 160.3638 1539.0 1
204.05135 161.0932 1546.0 1
221.15756 161.8226 1553.0 1
236.27 161.0932 1546.0 1
139.61412 144.98389 1546.0 1
155.01831 144.32744 1539.0 1
169.4987 143.01451 1525.0 1
184.65976 142.45183 1519.0 1
200.4877 142.45183 1519.0 1
218.16702 143.67097 1532.0 1
235.20021 144.32744 1539.0 1
251.23665 144.32744 1539.0 1
289.75238 147.60973 1574.0 1
125.182365 130.6251 1567.0 1
138.98198 128.29103 1539.0 1
153.00378 126.62383 1519.0 1
168.83182 126.62383 1519.0 1
183.07939 125.54015 1506.0 1
197.84798 124.95663 1499.0 1
213.4676 124.95663 1499.0 1
229.08714 124.95663 1499.0 1
246.829 126.04031 1512.0 1
263.79965 126.62383 1519.0 1
288.46375 130.6251 1567.0 1
302.06888 129.45807 1553.0 1
313.94763 127.70751 1532.0 1
109.34053 114.80756 1574.0 1
123.504745 112.76524 1546.0 1
138.34984 111.74409 1532.0 1
152.29869 110.285286 1512.0 1
166.60889 109.33707 1499.0 1
180.64806 108.38885 1486.0 1
195.34023 107.9512 1480.0 1
211.61632 108.38885 1486.0 1
227.1004 108.38885 1486.0 1
244.70679 109.33707 1499.0 1
261.542 109.84765 1506.0 1
278.339 110.285286 1512.0 1
294.0941 110.285286 1512.0 1
93.825195 99.34426 1589.0 1
108.368 97.53118 1560.0 1
122.38633 95.780624 1532.0 1
137.17584 94.967865 1519.0 1
150.98926 93.71746 1499.0 1
165.16399 92.9047 1486.0 1
179.0677 92.09194 1473.0 1
194.41632 92.09194 1473.0 1
210.76189 92.52959 1480.0 1
225.11366 92.09194 1473.0 1
239.4829 91.71683 1467.0 1
259.11066 93.27982 1492.0 1
275.94586 93.71746 1499.0 1
292.92706 94.155106 1506.0 1
311.28357 94.967865 1519.0 1
77.26775 82.786896 1589.0 1
93.35282 82.3701 1581.0 1
107.88173 80.9113 1553.0 1
121.3478 79.1399 1519.0 1
134.73756 77.7332 1492.0 1
150.28416 77.7332 1492.0 1
165.16399 77.4206 1486.0 1
179.0677 76.7433 1473.0 1
194.41632 76.7433 1473.0 1
208.9106 76.4307 1467.0 1
224.1967 76.4307 1467.0 1
238.50342 76.118095 1461.0 1
257.02667 77.108 1480.0 1
274.65726 77.7332 1492.0 1
291.56552 78.0979 1499.0 1
309.8491 78.7752 1512.0 1
329.91113 79.8172 1532.0 1
344.29416 79.4525 1525.0 1
76.87874 65.896095 1581.0 1
92.93949 65.60433 1574.0 1
106.909195 64.14553 1539.0 1
120.7886 63.020172 1512.0 1
135.3697 62.478333 1499.0 1
150.28416 62.186573 1492.0 1
165.16399 61.936493 1486.0 1
178.3383 61.144573 1467.0 1
192.83247 60.894493 1461.0 1
209.76503 61.394653 1473.0 1
225.11366 61.394653 1473.0 1
240.46237 61.394653 1473.0 1
259.11066 62.186573 1492.0 1
277.23447 62.770092 1506.0 1
294.0941 63.020172 1512.0 1
309.8491 63.020172 1512.0 1
324.3121 62.770092 1506.0 1
338.42422 62.478333 1499.0 1
75.51719 48.546772 1553.0 1
91.69952 48.546772 1553.0 1
106.42293 47.890312 1532.0 1
120.7886 47.26511 1512.0 1
134.19572 46.45235 1486.0 1
149.07544 46.264793 1480.0 1
163.71907 46.04597 1473.0 1
177.6089 45.670853 1461.0 1
194.41632 46.04597 1473.0 1
211.61632 46.45235 1486.0 1
227.1004 46.45235 1486.0 1
243.56406 46.63991 1492.0 1
260.32632 46.85873 1499.0 1
277.23447 47.077553 1506.0 1
295.45563 47.483932 1519.0 1
308.61954 47.077553 1506.0 1
325.6042 47.26511 1512.0 1
44.347477 33.260647 1596.0 1
60.137314 32.802166 1574.0 1
76.19797 32.65629 1567.0 1
90.872856 32.072765 1539.0 1
105.51987 31.655968 1519.0 1
119.190865 31.093287 1492.0 1
135.3697 31.239166 1499.0 1
150.28416 31.093287 1492.0 1
164.4971 30.843206 1480.0 1
179.0677 30.697327 1473.0 1
196.92406 31.093287 1492.0 1
212.47076 31.093287 1492.0 1
228.01736 31.093287 1492.0 1
243.56406 31.093287 1492.0 1
260.32632 31.239166 1499.0 1
278.339 31.510086 1512.0 1
295.45563 31.655968 1519.0 1
315.3821 32.072765 1539.0 1
331.41855 32.072765 1539.0 1
76.19797 16.328125 1567.0 1
90.0462 15.890485 1525.0 1
105.51987 15.827965 1519.0 1
119.190865 15.546625 1492.0 1
134.19572 15.484105 1486.0 1
149.67981 15.484105 1486.0 1
165.16399 15.484105 1486.0 1
180.64806 15.484105 1486.0 1
197.84798 15.619565 1499.0 1
214.46446 15.692505 1506.0 1
229.08714 15.619565 1499.0 1
244.70679 15.619565 1499.0 1
261.542 15.692505 1506.0 1
279.6276 15.827965 1519.0 1
297.98422 15.963425 1532.0 1
76.87874 0.0 1581.0 1
90.872856 0.0 1539.0 1
105.51987 0.0 1519.0 1
120.30928 0.0 1506.0 1
134.19572 0.0 1486.0 1
149.07544 0.0 1480.0 1
165.16399 0.0 1486.0 1
181.37746 0.0 1492.0 1
199.5638 0.0 1512.0 1
215.3189 0.0 1512.0 1
230.15694 0.0 1506.0 1
246.829 0.0 1512.0 1
264.84167 0.0 1525.0 1
283.30933 0.0 1539.0 1
297.98422 0.0 1532.0 1
77.60814 -16.630304 1596.0 1
91.69952 -16.182243 1553.0 1
105.93667 -15.890485 1525.0 1
121.3478 -15.827965 1519.0 1
135.3697 -15.619565 1499.0 1
150.28416 -15.546625 1492.0 1
166.60889 -15.619565 1499.0 1
183.07939 -15.692505 1506.0 1
200.4877 -15.827965 1519.0 1
215.3189 -15.755025 1512.0 1
232.14368 -15.827965 1519.0 1
248.9512 -15.890485 1525.0 1
267.273 -16.036364 1539.0 1
283.30933 -16.036364 1539.0 1
299.34576 -16.036364 1539.0 1
77.60814 -33.26061 1596.0 1
91.28619 -32.21861 1546.0 1
106.42293 -31.92685 1532.0 1
121.827126 -31.78097 1525.0 1
137.71768 -31.78097 1525.0 1
153.60814 -31.78097 1525.0 1
168.83182 -31.65593 1519.0 1
184.65976 -31.65593 1519.0 1
200.4877 -31.65593 1519.0 1
216.31575 -31.65593 1519.0 1
233.06064 -31.78097 1525.0 1
251.23665 -32.072727 1539.0 1
268.48865 -32.21861 1546.0 1
284.59793 -32.21861 1546.0 1
300.70734 -32.21861 1546.0 1
82.568054 -53.079514 1698.0 1
91.69952 -48.54681 1553.0 1
107.39546 -48.32799 1546.0 1
123.504745 -48.32799 1546.0 1
141.51056 -48.98445 1567.0 1
157.83867 -48.98445 1567.0 1
172.61081 -48.54681 1553.0 1
187.0911 -48.10917 1539.0 1
203.12744 -48.10917 1539.0 1
218.16702 -47.89035 1532.0 1
235.20021 -48.10917 1539.0 1
252.37938 -48.32799 1546.0 1
269.7043 -48.54681 1553.0 1
284.59793 -48.32799 1546.0 1
64.225426 -70.064095 1681.0 1
80.57436 -69.063774 1657.0 1
96.48229 -68.10513 1634.0 1
107.88173 -64.72906 1553.0 1
127.49908 -66.52129 1596.0 1
144.12946 -66.52129 1596.0 1
159.24884 -65.896095 1581.0 1
174.16687 -65.31258 1567.0 1
188.79303 -64.72906 1553.0 1
204.05135 -64.437294 1546.0 1
220.16072 -64.437294 1546.0 1
236.27 -64.437294 1546.0 1
254.66484 -65.02081 1560.0 1
272.13565 -65.31258 1567.0 1
285.88654 -64.72906 1553.0 1
45.820168 -85.912895 1649.0 1
62.429714 -85.1314 1634.0 1
79.06694 -84.7146 1626.0 1
95.537544 -84.2978 1618.0 1
111.9108 -83.9331 1611.0 1
129.25658 -84.2978 1618.0 1
144.76161 -83.5163 1603.0 1
161.46483 -83.5163 1603.0 1
178.16815 -83.5163 1603.0 1
191.34593 -82.0054 1574.0 1
206.82306 -81.6407 1567.0 1
223.15126 -81.6407 1567.0 1
238.40958 -81.276 1560.0 1
255.80756 -81.6407 1567.0 1
274.567 -82.3701 1581.0 1
28.4987 -102.5953 1641.0 1
45.181076 -101.6575 1626.0 1
61.245308 -100.21954 1603.0 1
78.33754 -100.7197 1611.0 1
94.65185 -100.21954 1603.0 1
111.9108 -100.7197 1611.0 1
129.25658 -101.15734 1618.0 1
145.48405 -100.7197 1611.0 1
162.27063 -100.7197 1611.0 1
179.83534 -101.15734 1618.0 1
197.66739 -101.6575 1626.0 1
207.74696 -98.40646 1574.0 1
224.14812 -98.40646 1574.0 1
240.54915 -98.40646 1574.0 1
258.09302 -98.8441 1581.0 1
277.172 -99.7819 1596.0 1
11.350897 -119.18392 1634.0 1
28.099266 -118.016884 1618.0 1
44.347477 -116.41221 1596.0 1
60.97786 -116.41221 1596.0 1
77.948524 -116.92278 1603.0 1
94.23852 -116.41221 1596.0 1
111.355064 -116.92278 1603.0 1
129.25658 -118.016884 1618.0 1
145.48405 -117.50631 1611.0 1
162.97572 -118.016884 1618.0 1
181.6137 -119.18392 1634.0 1
201.43596 -120.86154 1657.0 1
225.1692 -124.4356 1706.0 1
250.49335 -128.30142 1759.0 1
-5.6198745 -134.87651 1618.0 1
11.135549 -133.62611 1603.0 1
27.7172 -133.04259 1596.0 1
43.930676 -131.79219 1581.0 1
60.137314 -131.20866 1574.0 1
77.26775 -132.45908 1589.0 1
94.23852 -133.04259 1596.0 1
110.8688 -133.04259 1596.0 1
128.69737 -134.29298 1611.0 1
145.48405 -134.29298 1611.0 1
164.58734 -136.21027 1634.0 1
183.2809 -137.46066 1649.0 1
203.38103 -139.4613 1673.0 1
224.11331 -141.54532 1698.0 1
246.64836 -144.37955 1732.0 1
272.9484 -148.881 1786.0 1
-5.5191474 -149.01643 1589.0 1
10.934094 -147.60973 1574.0 1
27.092 -146.29681 1560.0 1
43.541664 -146.95328 1567.0 1
59.869865 -146.95328 1567.0 1
76.19797 -146.95328 1567.0 1
92.93949 -147.60973 1574.0 1
109.8268 -148.26619 1581.0 1
127.49908 -149.6729 1596.0 1
144.76161 -150.32935 1603.0 1
162.97572 -151.73605 1618.0 1
181.6137 -153.23653 1634.0 1
201.43596 -155.39348 1657.0 1
223.05742 -158.48822 1690.0 1
245.3667 -161.58295 1723.0 1
271.57297 -166.64708 1777.0 1
-22.076485 -165.57379 1589.0 1
-5.442734 -163.2814 1567.0 1
10.739588 -161.0932 1546.0 1
26.727299 -160.3638 1539.0 1
42.958145 -161.0932 1546.0 1
59.334972 -161.8226 1553.0 1
75.857574 -162.552 1560.0 1
92.52617 -163.2814 1567.0 1
109.34053 -164.0108 1574.0 1
126.939865 -165.57379 1589.0 1
144.12946 -166.30319 1596.0 1
162.27063 -167.8662 1611.0 1
181.6137 -170.2628 1634.0 1
199.49089 -170.9922 1641.0 1
220.81364 -174.3266 1673.0 1
242.94579 -177.7652 1706.0 1
267.44662 -182.34999 1750.0 1
-38.633877 -182.13116 1589.0 1
-21.770832 -179.60953 1567.0 1
-5.369794 -177.2025 1546.0 1
10.690961 -176.40016 1539.0 1
26.605732 -175.59782 1532.0 1
42.374626 -174.79549 1525.0 1
58.80008 -176.40016 1539.0 1
75.1768 -177.2025 1546.0 1
92.52617 -179.60953 1567.0 1
109.34053 -180.41187 1574.0 1
126.939865 -182.13116 1589.0 1
144.76161 -183.73584 1603.0 1
162.27063 -184.6528 1611.0 1
181.6137 -187.28906 1634.0 1
201.43596 -189.92532 1657.0 1
219.75775 -190.84229 1665.0 1
241.80653 -194.62474 1698.0 1
267.44662 -200.58498 1750.0 1
-38.43937 -197.6882 1581.0 1
-21.576326 -194.18709 1553.0 1
-5.3454804 -192.43652 1539.0 1
10.642334 -191.56125 1532.0 1
26.484167 -190.68596 1525.0 1
42.207905 -189.93573 1519.0 1
58.53263 -191.56125 1532.0 1
74.83642 -192.43652 1539.0 1
91.69952 -194.18709 1553.0 1
108.85426 -195.93765 1567.0 1
125.74157 -196.81293 1574.0 1
144.12946 -199.5638 1596.0 1
161.46483 -200.43909 1603.0 1
180.72452 -203.315 1626.0 1
199.49089 -205.1906 1641.0 1
218.70186 -207.19124 1657.0 1
241.80653 -212.31789 1698.0 1
264.69577 -216.56924 1732.0 1
288.62015 -221.07068 1768.0 1
305.47968 -219.94533 1759.0 1
-55.4344 -216.19418 1596.0 1
-38.269176 -213.21407 1574.0 1
-21.576326 -210.3694 1553.0 1
-5.321167 -207.52475 1532.0 1
10.593707 -206.57652 1525.0 1
26.379967 -205.76376 1519.0 1
42.374626 -206.57652 1525.0 1
58.53263 -207.52475 1532.0 1
74.83642 -208.47296 1539.0 1
91.28619 -209.42119 1546.0 1
108.368 -211.31763 1560.0 1
125.74157 -213.21407 1574.0 1
144.12946 -216.19418 1596.0 1
162.27063 -218.22609 1611.0 1
180.72452 -220.258 1626.0 1
199.49089 -222.28989 1641.0 1
219.75775 -225.54092 1665.0 1
241.80653 -230.01111 1698.0 1
264.69577 -234.61674 1732.0 1
287.15094 -238.27417 1759.0 1
-55.191265 -231.80333 1589.0 1
-38.098984 -228.59398 1567.0 1
-21.381819 -224.50934 1539.0 1
-5.321167 -223.48817 1532.0 1
10.642334 -223.48817 1532.0 1
26.484167 -222.46701 1525.0 1
42.374626 -222.46701 1525.0 1
58.80008 -224.50934 1539.0 1
74.83642 -224.50934 1539.0 1
91.28619 -225.53049 1546.0 1
108.368 -227.57281 1560.0 1
125.74157 -229.61513 1574.0 1
143.49731 -231.80333 1589.0 1
162.27063 -235.0127 1611.0 1
180.72452 -237.2009 1626.0 1
199.49089 -239.3891 1641.0 1
219.75775 -242.89021 1665.0 1
241.80653 -247.70425 1698.0 1
264.69577 -252.66417 1732.0 1
287.15094 -256.60294 1759.0 1
-54.9134 -247.11029 1581.0 1
-37.5884 -241.6398 1546.0 1
-21.381819 -240.5457 1539.0 1
-5.321167 -239.4516 1532.0 1
10.642334 -239.4516 1532.0 1
26.605732 -239.4516 1532.0 1
42.569134 -239.4516 1532.0 1
58.80008 -240.5457 1539.0 1
75.1768 -241.6398 1546.0 1
91.69952 -242.7339 1553.0 1
108.85426 -244.92209 1567.0 1
126.939865 -248.3607 1589.0 1
144.12946 -249.45479 1596.0 1
161.46483 -250.54889 1603.0 1
180.72452 -254.1438 1626.0 1
199.49089 -256.48828 1641.0 1
219.75775 -260.2395 1665.0 1
241.80653 -265.3974 1698.0 1
266.0712 -272.1183 1741.0 1
288.62015 -276.3384 1768.0 1
-71.74866 -264.91806 1589.0 1
-54.670265 -262.41727 1574.0 1
-37.41821 -256.58206 1539.0 1
-21.284567 -255.41502 1532.0 1
-5.321167 -255.41502 1532.0 1
10.593707 -254.24799 1525.0 1
26.605732 -255.41502 1532.0 1
42.763638 -256.58206 1539.0 1
58.80008 -256.58206 1539.0 1
75.51719 -258.91614 1553.0 1
92.52617 -261.2502 1567.0 1
109.34053 -262.41727 1574.0 1
125.74157 -262.41727 1574.0 1
143.49731 -264.91806 1589.0 1
161.46483 -267.25214 1603.0 1
180.72452 -271.0867 1626.0 1
198.63992 -272.42047 1634.0 1
218.70186 -276.255 1657.0 1
242.94579 -284.4243 1706.0 1
267.44662 -291.75998 1750.0 1
-72.380806 -283.95538 1603.0 1
-54.42713 -277.57834 1567.0 1
-37.758595 -275.0984 1553.0 1
-21.284567 -271.37845 1532.0 1
-5.321167 -271.37845 1532.0 1
10.642334 -271.37845 1532.0 1
26.727299 -272.61844 1539.0 1
42.763638 -272.61844 1539.0 1
59.067528 -273.8584 1546.0 1
75.51719 -275.0984 1553.0 1
92.52617 -277.57834 1567.0 1
109.34053 -278.81833 1574.0 1
126.30077 -280.0583 1581.0 1
144.12946 -282.7154 1596.0 1
161.46483 -283.95538 1603.0 1
180.72452 -288.0296 1626.0 1
198.63992 -289.44672 1634.0 1
219.75775 -294.93805 1665.0 1
242.94579 -302.2008 1706.0 1
268.82208 -311.58923 1759.0 1
-71.74866 -298.03287 1589.0 1
-54.42713 -293.90656 1567.0 1
-37.5884 -289.96777 1546.0 1
-21.284567 -287.34195 1532.0 1
-5.321167 -287.34195 1532.0 1
10.690961 -288.65488 1539.0 1
26.727299 -288.65488 1539.0 1
42.958145 -289.96777 1546.0 1
59.60242 -292.59363 1560.0 1
76.19797 -293.90656 1567.0 1
92.52617 -293.90656 1567.0 1
109.34053 -295.21945 1574.0 1
126.939865 -298.03287 1589.0 1
144.12946 -299.3458 1596.0 1
162.27063 -302.15918 1611.0 1
180.72452 -304.9726 1626.0 1
198.63992 -306.47305 1634.0 1
219.75775 -312.2874 1665.0 1
246.64836 -324.85394 1732.0 1
271.57297 -333.29416 1777.0 1
-88.306046 -314.59024 1589.0 1
-71.38743 -313.00638 1581.0 1
-54.184 -308.84882 1560.0 1
-37.5884 -306.0771 1546.0 1
-21.284567 -303.30536 1532.0 1
-5.321167 -303.30536 1532.0 1
10.690961 -304.69122 1539.0 1
26.848866 -306.0771 1546.0 1
43.152653 -307.46295 1553.0 1
59.869865 -310.23468 1567.0 1
76.53835 -311.62054 1574.0 1
93.825195 -314.59024 1589.0 1
110.8688 -315.9761 1596.0 1
128.05829 -317.36194 1603.0 1
144.76161 -317.36194 1603.0 1
162.97572 -320.33167 1618.0 1
179.83534 -320.33167 1618.0 1
198.63992 -323.49933 1634.0 1
223.05742 -334.5862 1690.0 1
246.64836 -342.90137 1732.0 1
266.0712 -344.6832 1741.0 1
-88.69506 -332.60638 1596.0 1
-71.38743 -329.4804 1581.0 1
-53.940865 -323.6452 1553.0 1
-37.41821 -320.7276 1539.0 1
-21.381819 -320.7276 1539.0 1
-5.321167 -319.2688 1532.0 1
10.739588 -322.1864 1546.0 1
26.970432 -323.6452 1553.0 1
43.541664 -326.5628 1567.0 1
60.97786 -332.60638 1596.0 1
78.33754 -335.7324 1611.0 1
95.12422 -335.7324 1611.0 1
111.355064 -334.0652 1603.0 1
128.69737 -335.7324 1611.0 1
146.11621 -337.1912 1618.0 1
163.78154 -338.8584 1626.0 1
181.6137 -340.5256 1634.0 1
201.43596 -345.3188 1657.0 1
224.11331 -353.8632 1698.0 1
247.93002 -362.8244 1741.0 1
-88.306046 -347.70496 1589.0 1
-71.38743 -345.9544 1581.0 1
-54.184 -341.3592 1560.0 1
-37.41821 -336.76395 1539.0 1
-21.381819 -336.76395 1539.0 1
-5.3454804 -336.76395 1539.0 1
10.739588 -338.2957 1546.0 1
26.970432 -339.82742 1553.0 1
43.73617 -344.42267 1574.0 1
62.429714 -357.55185 1634.0 1
79.45595 -357.55185 1634.0 1
96.48229 -357.55185 1634.0 1
112.9528 -355.8013 1626.0 1
129.89568 -355.8013 1626.0 1
146.83865 -355.8013 1626.0 1
164.58734 -357.55185 1634.0 1
183.2809 -360.83417 1649.0 1
203.38103 -366.08585 1673.0 1
225.1692 -373.3069 1706.0 1
249.21169 -382.93497 1750.0 1
271.57297 -388.8431 1777.0 1
-88.69506 -365.867 1596.0 1
-71.07136 -360.82373 1574.0 1
-54.42713 -359.21906 1567.0 1
-37.928787 -357.61435 1560.0 1
-21.479073 -354.405 1546.0 1
-5.3454804 -352.80032 1539.0 1
10.788215 -356.00967 1553.0 1
27.213566 -359.21906 1567.0 1
46.04246 -379.85065 1657.0 1
63.002815 -378.01672 1649.0 1
79.79633 -376.1828 1641.0 1
96.89562 -376.1828 1641.0 1
113.9948 -376.1828 1641.0 1
131.73306 -378.01672 1649.0 1
148.91571 -378.01672 1649.0 1
166.09825 -378.01672 1649.0 1
185.94841 -383.5185 1673.0 1
205.44766 -387.41556 1690.0 1
227.41298 -394.98047 1723.0 1
250.49335 -403.23312 1759.0 1
-105.32534 -382.49738 1596.0 1
-88.306046 -380.81976 1589.0 1
-71.07136 -377.22485 1574.0 1
-54.42713 -375.54724 1567.0 1
-38.098984 -375.54724 1567.0 1
-21.673578 -373.86963 1560.0 1
-5.369794 -370.51437 1546.0 1
10.788215 -372.19202 1553.0 1
29.349667 -405.02542 1690.0 1
46.48705 -400.9512 1673.0 1
63.61412 -399.03394 1665.0 1
80.96338 -399.03394 1665.0 1
97.84037 -397.11664 1657.0 1
115.10626 -397.11664 1657.0 1
133.01126 -399.03394 1665.0 1
150.36063 -399.03394 1665.0 1
168.51569 -400.9512 1673.0 1
187.8379 -405.02542 1690.0 1
206.4202 -406.94272 1698.0 1
227.41298 -412.9342 1723.0 1
250.49335 -421.56198 1759.0 1
-106.31524 -402.87888 1611.0 1
-88.69506 -399.1277 1596.0 1
-71.07136 -393.62592 1574.0 1
-54.42713 -391.87537 1567.0 1
-38.098984 -391.87537 1567.0 1
-21.770832 -391.87537 1567.0 1
-5.442734 -391.87537 1567.0 1
11.913579 -428.8872 1715.0 1
29.4886 -424.63586 1698.0 1
46.95942 -422.63522 1690.0 1
64.225426 -420.3845 1681.0 1
81.7414 -420.3845 1681.0 1
98.78512 -418.38385 1673.0 1
115.661995 -416.3832 1665.0 1
133.01126 -416.3832 1665.0 1
151.80553 -420.3845 1681.0 1
170.22804 -422.63522 1690.0 1
188.72708 -424.63586 1698.0 1
208.48683 -428.8872 1715.0 1
229.78874 -435.38928 1741.0 1
251.77501 -442.14145 1768.0 1
-105.78729 -417.58148 1603.0 1
-88.306046 -413.93448 1589.0 1
-71.38743 -411.8505 1581.0 1
-54.670265 -410.02698 1574.0 1
-38.098984 -408.2035 1567.0 1
-21.770832 -408.2035 1567.0 1
-5.442734 -408.2035 1567.0 1
11.969152 -448.8415 1723.0 1
29.627533 -444.413 1706.0 1
47.181713 -442.32898 1698.0 1
64.56929 -440.245 1690.0 1
81.7414 -437.90048 1681.0 1
98.78512 -435.8165 1673.0 1
116.21773 -435.8165 1673.0 1
135.00842 -440.245 1690.0 1
153.34074 -442.32898 1698.0 1
171.03386 -442.32898 1698.0 1
189.61626 -444.413 1706.0 1
209.45937 -448.8415 1723.0 1
230.97662 -455.875 1750.0 1
253.05667 -462.90848 1777.0 1
-105.32534 -432.3883 1596.0 1
-88.306046 -430.49185 1589.0 1
-71.07136 -426.42807 1574.0 1
-54.42713 -424.53162 1567.0 1
-38.098984 -424.53162 1567.0 1
-21.770832 -424.53162 1567.0 1
-6.0158362 -469.23343 1732.0 1
11.969152 -466.79514 1723.0 1
29.627533 -462.18948 1706.0 1
47.181713 -460.02213 1698.0 1
64.56929 -457.85477 1690.0 1
82.17904 -457.85477 1690.0 1
99.78891 -457.85477 1690.0 1
117.9544 -460.02213 1698.0 1
135.6475 -460.02213 1698.0 1
154.06319 -462.18948 1706.0 1
172.7462 -464.62778 1715.0 1
191.50575 -466.79514 1723.0 1
210.55347 -469.23343 1732.0 1
232.16449 -476.54825 1759.0 1
255.61998 -486.30136 1795.0 1
-105.32534 -449.0186 1596.0 1
-88.306046 -447.04922 1589.0 1
-71.07136 -442.82913 1574.0 1
-54.670265 -442.82913 1574.0 1
-38.43937 -444.7985 1581.0 1
-24.438349 -494.877 1759.0 1
-6.0470963 -489.8129 1741.0 1
12.0316725 -487.28082 1732.0 1
29.783833 -482.49805 1715.0 1
47.181713 -477.71527 1698.0 1
64.87494 -477.71527 1698.0 1
82.568054 -477.71527 1698.0 1
100.261284 -477.71527 1698.0 1
117.9544 -477.71527 1698.0 1
136.2866 -479.966 1706.0 1
154.87595 -482.49805 1715.0 1
173.55202 -484.74878 1723.0 1
192.50607 -487.28082 1732.0 1
213.83577 -494.877 1759.0 1
233.35237 -497.4091 1768.0 1
-123.63676 -472.06772 1618.0 1
-105.32534 -465.649 1596.0 1
-87.47244 -459.23026 1574.0 1
-70.75528 -457.18796 1567.0 1
-54.670265 -459.23026 1574.0 1
-38.633877 -463.60666 1589.0 1
-24.438349 -513.2059 1759.0 1
-6.0783563 -510.58002 1750.0 1
12.0316725 -505.32834 1732.0 1
29.922766 -502.7025 1723.0 1
47.654087 -500.36844 1715.0 1
65.52445 -500.36844 1715.0 1
82.95707 -497.74258 1706.0 1
100.73366 -497.74258 1706.0 1
119.13533 -500.36844 1715.0 1
137.00558 -500.36844 1715.0 1
155.5984 -502.7025 1723.0 1
174.45856 -505.32834 1732.0 1
194.50671 -510.58002 1750.0 1
213.83577 -513.2059 1759.0 1
234.54025 -518.4575 1777.0 1
-123.10187 -486.81198 1611.0 1
-104.86338 -480.16403 1589.0 1
-87.47244 -475.63132 1574.0 1
-70.75528 -473.51605 1567.0 1
-54.42713 -473.51605 1567.0 1
-43.4236 -539.6935 1786.0 1
-24.438349 -531.5346 1759.0 1
-6.0783563 -528.815 1750.0 1
12.156713 -528.815 1750.0 1
30.079065 -523.3758 1732.0 1
48.12646 -523.3758 1732.0 1
65.83011 -520.6561 1723.0 1
83.78372 -520.6561 1723.0 1
101.73745 -520.6561 1723.0 1
119.69106 -520.6561 1723.0 1
137.64468 -520.6561 1723.0 1
156.41116 -523.3758 1732.0 1
175.3651 -526.0954 1741.0 1
195.50703 -531.5346 1759.0 1
214.92986 -534.2543 1768.0 1
259.88168 -594.99243 1969.0 1
-123.10187 -503.5986 1611.0 1
-105.32534 -498.90958 1596.0 1
-87.47244 -492.03238 1574.0 1
-70.75528 -489.84418 1567.0 1
-54.670265 -492.03238 1574.0 1
-43.4236 -558.3036 1786.0 1
-24.438349 -549.8634 1759.0 1
-6.0783563 -547.05 1750.0 1
12.156713 -547.05 1750.0 1
30.235367 -544.2366 1741.0 1
48.12646 -541.4232 1732.0 1
66.51783 -544.2366 1741.0 1
84.22136 -541.4232 1732.0 1
102.26887 -541.4232 1732.0 1
120.31626 -541.4232 1732.0 1
138.36366 -541.4232 1732.0 1
157.22392 -544.2366 1741.0 1
176.27164 -547.05 1750.0 1
197.50768 -555.4902 1777.0 1
219.30626 -563.9304 1804.0 1
255.52612 -605.1936 1936.0 1
-123.10187 -520.3852 1611.0 1
-105.32534 -515.5399 1596.0 1
-87.083435 -506.1723 1567.0 1
-70.75528 -506.1723 1567.0 1
-54.42713 -506.1723 1567.0 1
-38.269176 -508.43344 1574.0 1
-24.563389 -571.0993 1768.0 1
-6.1096168 -568.19214 1759.0 1
12.2192335 -568.19214 1759.0 1
30.391666 -565.285 1750.0 1
48.62662 -565.285 1750.0 1
67.20555 -568.19214 1759.0 1
85.09664 -565.285 1750.0 1
103.33171 -565.285 1750.0 1
122.191864 -568.19214 1759.0 1
139.80162 -565.285 1750.0 1
158.84944 -568.19214 1759.0 1
178.08472 -571.0993 1768.0 1
201.6201 -585.95825 1814.0 1
228.91003 -608.24664 1883.0 1
261.33356 -639.5796 1980.0 1
286.94946 -650.88525 2015.0 1
-123.10187 -537.1718 1611.0 1
-105.32534 -532.1702 1596.0 1
-87.47244 -524.83453 1574.0 1
-70.75528 -522.5004 1567.0 1
-54.42713 -522.5004 1567.0 1
-38.269176 -524.83453 1574.0 1
-24.938509 -598.5248 1795.0 1
-6.140877 -589.52185 1768.0 1
12.281754 -589.52185 1768.0 1
30.547966 -586.52094 1759.0 1
48.876698 -586.52094 1759.0 1
67.20555 -586.52094 1759.0 1
85.53428 -586.52094 1759.0 1
103.86313 -586.52094 1759.0 1
122.81706 -589.52185 1768.0 1
141.23958 -589.52185 1768.0 1
160.47496 -592.5228 1777.0 1
181.71088 -601.5257 1804.0 1
204.84335 -614.52985 1843.0 1
234.01582 -641.87195 1925.0 1
262.9174 -664.2124 1992.0 1
288.65833 -675.8828 2027.0 1
-122.49056 -551.2076 1603.0 1
-104.86338 -546.39355 1589.0 1
-87.47244 -541.23566 1574.0 1
-70.75528 -538.8286 1567.0 1
-54.42713 -538.8286 1567.0 1
-38.43937 -543.6427 1581.0 1
-24.938509 -617.2287 1795.0 1
-6.203397 -614.134 1786.0 1
12.406794 -614.134 1786.0 1
30.860565 -611.03925 1777.0 1
49.126778 -607.9445 1768.0 1
67.54941 -607.9445 1768.0 1
85.53428 -604.8498 1759.0 1
103.86313 -604.8498 1759.0 1
123.44226 -611.03925 1777.0 1
142.67754 -614.134 1786.0 1
162.91325 -620.3235 1804.0 1
185.63922 -633.734 1843.0 1
208.17775 -644.0498 1873.0 1
234.01582 -661.93054 1925.0 1
262.9174 -684.9692 1992.0 1
290.36722 -701.13055 2039.0 1
317.26813 -713.8534 2076.0 1
-121.955666 -565.4309 1596.0 1
-104.86338 -562.9509 1589.0 1
-87.47244 -557.6367 1574.0 1
-70.75528 -555.15674 1567.0 1
-54.42713 -555.15674 1567.0 1
-38.098984 -555.15674 1567.0 1
-24.938509 -635.9326 1795.0 1
-6.203397 -632.7441 1786.0 1
12.344274 -629.55554 1777.0 1
30.860565 -629.55554 1777.0 1
49.376858 -629.55554 1777.0 1
67.89327 -629.55554 1777.0 1
85.971924 -626.36707 1768.0 1
104.92597 -629.55554 1777.0 1
124.692665 -635.9326 1795.0 1
144.1155 -639.12115 1804.0 1
166.43521 -652.93805 1843.0 1
186.64648 -656.48083 1853.0 1
209.28922 -667.10925 1883.0 1
236.69029 -689.78314 1947.0 1
261.33356 -701.4744 1980.0 1
286.94946 -713.8742 2015.0 1
-121.42078 -579.5083 1589.0 1
-104.86338 -579.5083 1589.0 1
-87.47244 -574.0378 1574.0 1
-70.75528 -571.48486 1567.0 1
-54.42713 -571.48486 1567.0 1
-38.269176 -574.0378 1574.0 1
-25.202482 -661.5658 1814.0 1
-6.234657 -654.6365 1795.0 1
12.406794 -651.3542 1786.0 1
30.860565 -648.0719 1777.0 1
49.376858 -648.0719 1777.0 1
67.89327 -648.0719 1777.0 1
86.8472 -651.3542 1786.0 1
105.988815 -654.6365 1795.0 1
125.31786 -657.91876 1804.0 1
145.71323 -665.21277 1824.0 1
166.43521 -672.1421 1843.0 1
188.66103 -683.08307 1873.0 1
211.6233 -694.3888 1904.0 1
239.36476 -718.0943 1969.0 1
264.36923 -730.4941 2003.0 1
286.94946 -734.8705 2015.0 1
-104.86338 -596.0657 1589.0 1
-87.47244 -590.43884 1574.0 1
-70.75528 -587.813 1567.0 1
-54.670265 -590.43884 1574.0 1
-38.43937 -593.0647 1581.0 1
-25.341415 -684.2189 1824.0 1
-6.203397 -669.9643 1786.0 1
12.469314 -673.3404 1795.0 1
31.016867 -669.9643 1786.0 1
49.376858 -666.5882 1777.0 1
68.23713 -669.9643 1786.0 1
86.8472 -669.9643 1786.0 1
105.988815 -673.3404 1795.0 1
125.31786 -676.71643 1804.0 1
146.4322 -687.5949 1833.0 1
167.33827 -695.09735 1853.0 1
190.77628 -710.47723 1894.0 1
215.18 -726.2323 1936.0 1
240.702 -742.73755 1980.0 1
265.95306 -755.86676 2015.0 1
292.07608 -769.3711 2051.0 1
-104.86338 -612.62305 1589.0 1
-87.47244 -606.8399 1574.0 1
-70.75528 -604.1411 1567.0 1
-54.42713 -604.1411 1567.0 1
-38.269176 -606.8399 1574.0 1
-25.202482 -699.3695 1814.0 1
-6.234657 -692.04425 1795.0 1
12.469314 -692.04425 1795.0 1
31.173166 -692.04425 1795.0 1
49.626938 -688.5744 1786.0 1
67.89327 -685.10455 1777.0 1
86.8472 -688.5744 1786.0 1
105.988815 -692.04425 1795.0 1
125.31786 -695.5141 1804.0 1
147.23108 -710.5502 1843.0 1
169.14441 -722.1164 1873.0 1
192.89154 -738.309 1915.0 1
221.4042 -767.9956 1992.0 1
244.95683 -776.86304 2015.0 1
269.12076 -786.116 2039.0 1
295.63626 -800.381 2076.0 1
-104.335434 -626.01276 1581.0 1
-87.47244 -623.2411 1574.0 1
-70.75528 -620.46936 1567.0 1
-54.42713 -620.46936 1567.0 1
-38.269176 -623.2411 1574.0 1
-25.341415 -722.2311 1824.0 1
-6.234657 -710.7482 1795.0 1
12.469314 -710.7482 1795.0 1
31.173166 -710.7482 1795.0 1
49.877018 -710.7482 1795.0 1
68.23713 -707.1846 1786.0 1
87.28484 -710.7482 1795.0 1
106.52023 -714.3119 1804.0 1
126.01253 -718.2715 1814.0 1
147.23108 -729.75433 1843.0 1
169.14441 -741.6331 1873.0 1
204.17293 -802.61096 2027.0 1
227.96187 -812.114 2051.0 1
247.87444 -807.3625 2039.0 1
272.28842 -816.8655 2063.0 1
295.63626 -822.013 2076.0 1
-104.86338 -645.73785 1589.0 1
-87.86146 -642.48676 1581.0 1
-71.07136 -639.64215 1574.0 1
-54.42713 -636.7975 1567.0 1
-38.269176 -639.64215 1574.0 1
-25.341415 -741.2371 1824.0 1
-6.2659173 -733.1095 1804.0 1
12.469314 -729.4521 1795.0 1
31.016867 -725.7947 1786.0 1
49.877018 -729.4521 1795.0 1
68.580986 -729.4521 1795.0 1
87.72248 -733.1095 1804.0 1
106.52023 -733.1095 1804.0 1
127.3324 -744.89453 1833.0 1
148.82881 -757.08594 1863.0 1
169.14441 -761.1497 1873.0 1
207.79909 -838.36194 2063.0 1
229.29562 -838.36194 2063.0 1
250.79202 -838.36194 2063.0 1
274.00427 -843.6449 2076.0 1
299.19644 -853.8044 2101.0 1
