ply
format ascii 1.0
comment : created from Kinect user tracker
element vertex 309
property float x
property float y
property float z
property int userId
end_header
1448.2063 168.17877 2690.0 1
1442.8783 142.3893 2733.0 1
1436.9006 139.0549 2669.0 1
1425.2684 114.78674 2754.0 1
1442.8783 113.91147 2733.0 1
1426.1333 110.41035 2649.0 1
1431.055 88.215706 2822.0 1
1425.2684 86.09003 2754.0 1
1431.2634 84.74584 2711.0 1
1415.366 82.182526 2629.0 1
1413.0735 59.289814 2845.0 1
1431.055 58.810493 2822.0 1
1425.2684 57.39337 2754.0 1
1420.1766 56.059612 2690.0 1
1393.8313 53.954773 2589.0 1
1424.9939 29.89495 2869.0 1
1431.055 29.40521 2822.0 1
1425.2684 28.696651 2754.0 1
1387.9718 27.394154 2629.0 1
1383.6023 26.779373 2570.0 1
1424.9939 0.0 2869.0 1
1431.055 0.0 2822.0 1
1403.0148 0.0 2711.0 1
1377.4128 0.0 2609.0 1
1373.3733 0.0 2551.0 1
1424.9939 -29.89495 2869.0 1
1454.889 -29.89495 2869.0 1
1381.2786 -27.810953 2669.0 1
1377.4128 -27.185753 2609.0 1
1383.6023 -26.779373 2570.0 1
1418.4398 -60.790222 2917.0 1
1436.9144 -60.290062 2893.0 1
1408.2352 -57.872623 2777.0 1
1370.9281 -55.205105 2649.0 1
1366.854 -53.95471 2589.0 1
1363.1444 -52.76683 2532.0 1
1448.835 -91.18548 2917.0 1
1385.9225 -85.43363 2733.0 1
1370.9281 -82.80779 2649.0 1
1356.823 -80.33825 2570.0 1
1353.4537 -78.58769 2514.0 1
1401.6497 -117.62099 2822.0 1
1364.117 -112.119225 2690.0 1
1360.5775 -109.576744 2629.0 1
1366.854 -107.909546 2589.0 1
1353.4537 -104.78355 2514.0 1
1357.4446 -142.3893 2733.0 1
1353.4677 -139.0549 2669.0 1
1360.5775 -136.9709 2629.0 1
1356.823 -133.897 2570.0 1
1353.4537 -130.9794 2514.0 1
1346.5175 -169.49168 2711.0 1
1343.3256 -165.61545 2649.0 1
1360.5775 -164.36505 2629.0 1
1356.823 -160.67638 2570.0 1
1353.4537 -157.17525 2514.0 1
1350.3625 -202.55432 2777.0 1
1346.5175 -197.74028 2711.0 1
1343.3256 -193.218 2649.0 1
1350.227 -190.3004 2609.0 1
1356.823 -187.45575 2570.0 1
1363.1444 -184.68402 2532.0 1
1331.8949 -233.32469 2799.0 1
1339.1783 -229.57349 2754.0 1
1325.6566 -222.48788 2669.0 1
1343.3256 -220.8207 2649.0 1
1339.8765 -215.81909 2589.0 1
1346.792 -212.65141 2551.0 1
1353.4537 -209.5671 2514.0 1
1300.489 -256.30075 2733.0 1
1318.2689 -254.23761 2711.0 1
1325.6566 -250.29884 2669.0 1
1333.1835 -246.54764 2629.0 1
1330.0435 -241.01462 2570.0 1
1346.792 -239.2328 2551.0 1
1343.7632 -234.0749 2496.0 1
1300.489 -284.7786 2733.0 1
1308.0573 -280.298 2690.0 1
1315.7229 -276.0258 2649.0 1
1323.0413 -271.8578 2609.0 1
1330.0435 -267.794 2570.0 1
1346.792 -265.8142 2551.0 1
1343.7632 -260.0832 2496.0 1
1324.1388 -326.09387 2845.0 1
1300.489 -313.25644 2733.0 1
1297.8457 -305.92075 2669.0 1
1315.7229 -303.62836 2649.0 1
1323.0413 -299.04355 2609.0 1
1330.0435 -294.57336 2570.0 1
1336.761 -290.2178 2532.0 1
1343.7632 -286.0915 2496.0 1
1292.4897 -347.23602 2777.0 1
1290.0204 -338.98337 2711.0 1
1297.8457 -333.7317 2669.0 1
1295.8555 -326.2293 2609.0 1
1312.8992 -323.72852 2589.0 1
1320.2104 -318.977 2551.0 1
1327.2579 -314.3505 2514.0 1
1343.7632 -312.0998 2496.0 1
1302.7291 -379.1526 2799.0 1
1300.489 -370.21222 2733.0 1
1297.8457 -361.5428 2669.0 1
1295.8555 -353.4152 2609.0 1
1303.2642 -348.13223 2570.0 1
1310.3774 -342.98477 2532.0 1
1327.2579 -340.54648 2514.0 1
1343.7632 -338.10822 2496.0 1
1281.785 -401.75354 2754.0 1
1300.489 -398.69006 2733.0 1
1297.8457 -389.35373 2669.0 1
1305.7892 -383.51852 2629.0 1
1303.2642 -374.91162 2570.0 1
1320.2104 -372.1399 2551.0 1
1327.2579 -366.74234 2514.0 1
1353.4537 -366.74234 2514.0 1
1313.434 -441.07858 2822.0 1
1310.4818 -430.4502 2754.0 1
1297.8457 -417.1647 2669.0 1
1315.7229 -414.0387 2649.0 1
1303.2642 -401.69098 2570.0 1
1330.0435 -401.69098 2570.0 1
1327.2579 -392.9382 2514.0 1
1353.4537 -392.9382 2514.0 1
1346.4792 -482.32092 2893.0 1
1321.4263 -462.9814 2777.0 1
1308.0573 -448.47678 2690.0 1
1305.7892 -438.30685 2629.0 1
1312.8992 -431.63806 2589.0 1
1330.0435 -428.47037 2570.0 1
1336.761 -422.135 2532.0 1
1353.4537 -419.13403 2514.0 1
1346.4792 -512.46594 2893.0 1
1342.8394 -499.889 2822.0 1
1328.9668 -484.12357 2733.0 1
1315.7229 -469.2438 2649.0 1
1333.1835 -465.701 2629.0 1
1339.8765 -458.6154 2589.0 1
1336.761 -448.51843 2532.0 1
1353.4537 -445.3299 2514.0 1
1324.1388 -533.6083 2845.0 1
1342.8394 -529.2944 2822.0 1
1339.1783 -516.5403 2754.0 1
1325.6566 -500.5977 2669.0 1
1323.0413 -489.3441 2609.0 1
1339.8765 -485.5929 2589.0 1
1356.823 -482.02924 2570.0 1
1363.1444 -474.90195 2532.0 1
1346.4792 -572.75616 2893.0 1
1353.7838 -563.2531 2845.0 1
1372.2445 -558.6996 2822.0 1
1336.087 -532.5662 2690.0 1
1323.0413 -516.52985 2609.0 1
1339.8765 -512.57025 2589.0 1
1356.823 -508.80862 2570.0 1
1373.3733 -505.047 2551.0 1
1357.6495 -607.9028 2917.0 1
1353.7838 -592.898 2845.0 1
1372.2445 -588.1048 2822.0 1
1379.2988 -578.7268 2777.0 1
1353.4677 -556.2196 2669.0 1
1339.8765 -539.5476 2589.0 1
1356.823 -535.588 2570.0 1
1373.3733 -531.6284 2551.0 1
1357.6495 -638.2979 2917.0 1
1353.7838 -622.54285 2845.0 1
1361.0604 -612.4771 2799.0 1
1390.2258 -612.4771 2799.0 1
1385.9225 -598.03503 2733.0 1
1370.9281 -579.6541 2649.0 1
1366.854 -566.52496 2589.0 1
1383.6023 -562.3674 2570.0 1
1338.6296 -674.424 2942.0 1
1346.4792 -663.1912 2893.0 1
1353.7838 -652.18774 2845.0 1
1361.0604 -641.6427 2799.0 1
1379.2988 -636.5994 2777.0 1
1419.3916 -641.6427 2799.0 1
1403.0148 -621.4696 2711.0 1
1387.9718 -602.6719 2629.0 1
1393.8313 -593.5023 2589.0 1
1338.6296 -705.0798 2942.0 1
1357.6495 -699.08826 2917.0 1
1353.7838 -681.83276 2845.0 1
1372.2445 -676.32056 2822.0 1
1401.6497 -676.32056 2822.0 1
1419.3916 -670.8084 2799.0 1
1425.2684 -660.0237 2754.0 1
1398.5308 -634.8594 2649.0 1
1404.5986 -625.273 2609.0 1
1327.2545 -729.4834 2917.0 1
1346.4792 -723.48145 2893.0 1
1365.2041 -717.47955 2869.0 1
1372.2445 -705.72577 2822.0 1
1401.6497 -705.72577 2822.0 1
1431.055 -705.72577 2822.0 1
1409.0897 -667.46356 2669.0 1
1426.1333 -662.4619 2649.0 1
1319.0885 -772.9035 2967.0 1
1316.3344 -753.62646 2893.0 1
1346.4792 -753.62646 2893.0 1
1365.2041 -747.3745 2869.0 1
1383.4286 -741.1225 2845.0 1
1401.6497 -735.131 2822.0 1
1420.1766 -700.745 2690.0 1
1426.1333 -690.0645 2649.0 1
1307.9739 -797.0466 2942.0 1
1327.2545 -790.2736 2917.0 1
1346.4792 -783.77155 2893.0 1
1365.2041 -777.2694 2869.0 1
1383.4286 -770.76733 2845.0 1
1413.0735 -770.76733 2845.0 1
1442.8783 -740.4243 2733.0 1
1448.2063 -728.7748 2690.0 1
1299.4608 -842.05054 2993.0 1
1307.9739 -827.7022 2942.0 1
1327.2545 -820.6687 2917.0 1
1346.4792 -813.91656 2893.0 1
1365.2041 -807.16437 2869.0 1
1395.099 -807.16437 2869.0 1
1459.512 -762.71265 2711.0 1
1288.1725 -865.652 2967.0 1
1307.9739 -858.358 2942.0 1
1327.2545 -851.06396 2917.0 1
1346.4792 -844.0617 2893.0 1
1376.6245 -844.0617 2893.0 1
1448.2063 -784.8344 2690.0 1
1268.2738 -904.42474 2993.0 1
1277.3184 -889.01355 2942.0 1
1307.9739 -889.01355 2942.0 1
1316.3344 -874.2067 2893.0 1
1357.6495 -881.45905 2917.0 1
1365.2041 -866.9544 2869.0 1
1471.3561 -825.858 2733.0 1
1268.2738 -935.61176 2993.0 1
1277.3184 -919.6692 2942.0 1
1307.9739 -919.6692 2942.0 1
1316.3344 -904.3518 2893.0 1
1335.3091 -896.84937 2869.0 1
1453.9652 -860.9004 2754.0 1
1459.512 -847.45856 2711.0 1
1268.2738 -966.7988 2993.0 1
1277.3184 -950.32477 2942.0 1
1296.8593 -942.24927 2917.0 1
1327.2545 -942.24927 2917.0 1
1346.4792 -934.4968 2893.0 1
1466.1079 -897.0265 2777.0 1
1459.512 -875.70715 2711.0 1
1247.8331 -1006.6553 3019.0 1
1279.2913 -1006.6553 3019.0 1
1277.3184 -980.9804 2942.0 1
1296.8593 -972.6444 2917.0 1
1316.3344 -964.64185 2893.0 1
1453.9652 -918.2937 2754.0 1
1471.3561 -911.29144 2733.0 1
1237.0867 -1029.173 2993.0 1
1268.2738 -1029.173 2993.0 1
1288.1725 -1020.23267 2967.0 1
1296.8593 -1003.0397 2917.0 1
1327.2545 -1003.0397 2917.0 1
1466.1079 -954.89923 2777.0 1
1482.6617 -946.9905 2754.0 1
1237.0867 -1060.3601 2993.0 1
1246.6627 -1042.2917 2942.0 1
1277.3184 -1042.2917 2942.0 1
1307.9739 -1042.2917 2942.0 1
1316.3344 -1024.932 2893.0 1
1469.3519 -1118.4619 3157.0 1
1489.8656 -999.7782 2822.0 1
1495.0442 -983.8356 2777.0 1
1237.0867 -1091.5471 2993.0 1
1257.2565 -1082.0648 2967.0 1
1277.3184 -1072.9474 2942.0 1
1307.9739 -1072.9474 2942.0 1
1398.2355 -1120.723 3073.0 1
1456.32 -1141.1462 3129.0 1
1489.8656 -1029.1833 2822.0 1
1506.8883 -1020.7953 2799.0 1
1216.3752 -1132.4872 3019.0 1
1226.3402 -1112.981 2967.0 1
1246.6627 -1103.603 2942.0 1
1288.1725 -1112.981 2967.0 1
1319.0885 -1112.981 2967.0 1
1385.9503 -1142.6155 3046.0 1
1430.2561 -1152.7437 3073.0 1
1502.0083 -1067.2163 2845.0 1
1519.2708 -1058.5886 2822.0 1
1216.3752 -1163.9452 3019.0 1
1237.0867 -1153.9211 2993.0 1
1257.2565 -1143.8971 2967.0 1
1299.4608 -1153.9211 2993.0 1
1319.0885 -1143.8971 2967.0 1
1373.6652 -1163.9452 3019.0 1
1417.6896 -1174.3547 3046.0 1
1436.5812 -1163.9452 3019.0 1
1489.8656 -1087.9938 2822.0 1
1531.6532 -1096.8612 2845.0 1
1268.2738 -1185.1083 2993.0 1
1299.4608 -1185.1083 2993.0 1
1342.207 -1195.4033 3019.0 1
1373.6652 -1195.4033 3019.0 1
1424.2091 -1185.1083 2993.0 1
1468.0391 -1195.4033 3019.0 1
1512.9075 -1206.0942 3046.0 1
1502.0083 -1126.5062 2845.0 1
1531.6532 -1126.5062 2845.0 1
1279.2913 -1226.8612 3019.0 1
1548.9573 -1216.2953 2993.0 1
1540.0205 -1185.4105 2917.0 1
1544.574 -1165.9042 2869.0 1
