ply
format ascii 1.0
comment : created from Kinect user tracker
element vertex 666
property float x
property float y
property float z
property int userId
end_header
908.23846 458.61548 2589.0 1
921.4892 451.88416 2551.0 1
948.0707 451.88416 2551.0 1
901.5732 428.47037 2570.0 1
914.62585 422.135 2532.0 1
927.6301 416.1331 2496.0 1
986.71136 419.13403 2514.0 1
1020.15967 422.135 2532.0 1
868.3263 398.72128 2551.0 1
901.5732 401.69098 2570.0 1
921.4892 398.72128 2551.0 1
927.6301 390.1248 2496.0 1
960.51556 392.9382 2514.0 1
986.71136 392.9382 2514.0 1
984.301 381.84088 2443.0 1
854.2837 377.68335 2589.0 1
874.79364 374.91162 2570.0 1
894.90784 372.1399 2551.0 1
914.62585 369.36816 2532.0 1
934.31976 366.74234 2514.0 1
960.51556 366.74234 2514.0 1
993.7762 369.36816 2532.0 1
984.301 356.38486 2443.0 1
1031.6633 364.1165 2496.0 1
867.48236 356.12433 2629.0 1
881.261 350.70593 2589.0 1
894.90784 345.55844 2551.0 1
914.62585 342.9847 2532.0 1
934.31976 340.54642 2514.0 1
960.51556 340.54642 2514.0 1
1001.2334 345.55844 2551.0 1
1031.6633 338.10815 2496.0 1
874.08167 331.23096 2649.0 1
894.87646 328.73016 2629.0 1
894.90784 318.97705 2551.0 1
921.4892 318.97705 2551.0 1
941.0094 316.6013 2532.0 1
967.39276 316.6013 2532.0 1
1035.4701 321.3528 2570.0 1
1062.2495 321.3528 2570.0 1
1089.0289 321.3528 2570.0 1
881.261 296.75116 2589.0 1
901.5732 294.57336 2570.0 1
921.4892 292.3956 2551.0 1
927.6301 286.0915 2496.0 1
974.65204 292.3956 2551.0 1
1001.2334 292.3956 2551.0 1
1059.2417 301.33594 2629.0 1
915.6401 280.298 2690.0 1
908.23846 269.7738 2589.0 1
921.4892 265.8142 2551.0 1
934.31976 261.9588 2514.0 1
981.9113 267.794 2570.0 1
1051.1835 271.8578 2609.0 1
931.1659 264.6472 2822.0 1
952.7422 262.49023 2799.0 1
943.6699 252.26822 2690.0 1
928.3525 241.01462 2570.0 1
955.13196 241.01462 2570.0 1
989.1706 242.79645 2589.0 1
916.7794 239.15982 2869.0 1
931.1659 235.2419 2822.0 1
952.7422 233.32462 2799.0 1
958.75464 227.82286 2733.0 1
949.66486 219.15343 2629.0 1
969.6262 217.48622 2609.0 1
1004.45325 219.15343 2629.0 1
1039.6971 220.82062 2649.0 1
1067.2998 220.82062 2649.0 1
1086.6357 219.15343 2629.0 1
1105.555 217.48622 2609.0 1
901.76074 205.83669 2822.0 1
923.57666 204.15907 2799.0 1
945.25366 202.5544 2777.0 1
951.03687 197.74036 2711.0 1
971.6997 196.2086 2690.0 1
984.49207 193.21806 2649.0 1
1012.0946 193.21806 2649.0 1
1039.6971 193.21806 2649.0 1
1059.2417 191.75926 2629.0 1
1078.3693 190.30048 2609.0 1
1105.555 190.30048 2609.0 1
1141.4242 191.75926 2629.0 1
886.88434 179.36984 2869.0 1
901.76074 176.43141 2822.0 1
916.31744 173.61801 2777.0 1
930.2767 170.86713 2733.0 1
951.03687 169.49168 2711.0 1
971.6997 168.17877 2690.0 1
984.49207 165.61545 2649.0 1
1012.0946 165.61545 2649.0 1
1039.6971 165.61545 2649.0 1
1051.1835 163.11465 2609.0 1
1070.1027 161.86426 2589.0 1
1097.0802 161.86426 2589.0 1
1115.8083 160.67638 2570.0 1
1142.5876 160.67638 2570.0 1
894.02905 155.9353 2993.0 1
894.3034 150.7253 2893.0 1
901.76074 147.0262 2822.0 1
908.7282 143.4834 2754.0 1
922.78815 141.2431 2711.0 1
943.6699 140.149 2690.0 1
964.1139 139.0549 2669.0 1
984.49207 138.0129 2649.0 1
1012.0946 138.0129 2649.0 1
1031.8474 136.9709 2629.0 1
1043.1254 134.8869 2589.0 1
1078.3693 135.9289 2609.0 1
1089.0289 133.897 2570.0 1
1107.5592 132.9071 2551.0 1
1125.6934 131.91719 2532.0 1
1178.0123 134.8869 2589.0 1
886.2627 123.66459 2967.0 1
886.88434 119.57995 2869.0 1
901.76074 117.62099 2822.0 1
908.7282 114.78674 2754.0 1
922.78815 112.99451 2711.0 1
943.6699 112.119225 2690.0 1
956.8894 110.41035 2649.0 1
984.49207 110.41035 2649.0 1
1004.45325 109.576744 2629.0 1
1023.9976 108.74314 2609.0 1
1051.1835 108.74314 2609.0 1
1070.1027 107.909546 2589.0 1
1089.0289 107.11762 2570.0 1
1099.3099 105.53378 2532.0 1
1134.1405 106.32571 2551.0 1
1169.3672 107.11762 2570.0 1
894.02905 93.561165 2993.0 1
894.3034 90.435165 2893.0 1
887.38116 86.809006 2777.0 1
901.7989 85.43356 2733.0 1
922.78815 84.74584 2711.0 1
936.30304 83.43292 2669.0 1
956.8894 82.807724 2649.0 1
977.05914 82.182526 2629.0 1
1004.45325 82.182526 2629.0 1
1023.9976 81.55733 2609.0 1
1043.1254 80.93213 2589.0 1
1062.2495 80.33819 2570.0 1
1089.0289 80.33819 2570.0 1
1107.5592 79.74425 2551.0 1
1142.5876 80.33819 2570.0 1
1169.3672 80.33819 2570.0 1
1204.9896 80.93213 2589.0 1
894.02905 62.374134 2993.0 1
886.88434 59.789974 2869.0 1
887.38116 57.872692 2777.0 1
901.7989 56.955734 2733.0 1
922.78815 56.497253 2711.0 1
936.30304 55.62197 2669.0 1
964.1139 55.62197 2669.0 1
977.05914 54.788372 2629.0 1
1004.45325 54.788372 2629.0 1
1016.1479 53.954773 2589.0 1
1043.1254 53.954773 2589.0 1
1062.2495 53.55881 2570.0 1
1089.0289 53.55881 2570.0 1
1107.5592 53.162853 2551.0 1
1134.1405 53.162853 2551.0 1
1169.3672 53.55881 2570.0 1
1196.1465 53.55881 2570.0 1
894.3034 30.145031 2893.0 1
894.4112 29.165552 2799.0 1
901.7989 28.477833 2733.0 1
922.78815 28.248592 2711.0 1
936.30304 27.810953 2669.0 1
956.8894 27.602552 2649.0 1
984.49207 27.602552 2649.0 1
996.8119 27.185753 2609.0 1
1016.1479 26.977354 2589.0 1
1043.1254 26.977354 2589.0 1
1062.2495 26.779373 2570.0 1
1089.0289 26.779373 2570.0 1
1115.8083 26.779373 2570.0 1
1134.1405 26.581394 2551.0 1
1169.3672 26.779373 2570.0 1
1204.9896 26.977354 2589.0 1
909.86053 0.0 3046.0 1
901.7224 0.0 2917.0 1
894.4112 0.0 2799.0 1
901.7989 0.0 2733.0 1
922.78815 0.0 2711.0 1
936.30304 0.0 2669.0 1
956.8894 0.0 2649.0 1
977.05914 0.0 2629.0 1
1004.45325 0.0 2629.0 1
1031.8474 0.0 2629.0 1
1051.1835 0.0 2609.0 1
1070.1027 0.0 2589.0 1
1089.0289 0.0 2570.0 1
1124.0575 0.0 2589.0 1
1134.1405 0.0 2551.0 1
1169.3672 0.0 2570.0 1
1204.9896 0.0 2589.0 1
917.9256 -32.02063 3073.0 1
901.7224 -30.395111 2917.0 1
894.4112 -29.165552 2799.0 1
901.7989 -28.477833 2733.0 1
922.78815 -28.248592 2711.0 1
936.30304 -27.810953 2669.0 1
956.8894 -27.602552 2649.0 1
977.05914 -27.394154 2629.0 1
1004.45325 -27.394154 2629.0 1
1023.9976 -27.185753 2609.0 1
1059.2417 -27.394154 2629.0 1
1086.6357 -27.394154 2629.0 1
1114.03 -27.394154 2629.0 1
1124.0575 -26.977354 2589.0 1
1142.5876 -26.779373 2570.0 1
1178.0123 -26.977354 2589.0 1
1204.9896 -26.977354 2589.0 1
885.90485 -64.04126 3073.0 1
917.9256 -64.04126 3073.0 1
925.21606 -62.374058 2993.0 1
894.4112 -58.331104 2799.0 1
901.7989 -56.955666 2733.0 1
930.2767 -56.955666 2733.0 1
936.30304 -55.621906 2669.0 1
964.1139 -55.621906 2669.0 1
984.49207 -55.205105 2649.0 1
1012.0946 -55.205105 2649.0 1
1031.8474 -54.788307 2629.0 1
1067.2998 -55.205105 2649.0 1
1086.6357 -54.788307 2629.0 1
1122.505 -55.205105 2649.0 1
1132.7408 -54.371506 2609.0 1
1151.0348 -53.95471 2589.0 1
1178.0123 -53.95471 2589.0 1
1214.2981 -54.371506 2609.0 1
861.6645 -96.93732 3101.0 1
885.90485 -96.06204 3073.0 1
917.9256 -96.06204 3073.0 1
917.1788 -92.748474 2967.0 1
894.4112 -87.496796 2799.0 1
901.7989 -85.43363 2733.0 1
922.78815 -84.74591 2711.0 1
951.03687 -84.74591 2711.0 1
964.1139 -83.43299 2669.0 1
991.925 -83.43299 2669.0 1
1012.0946 -82.80779 2649.0 1
1039.6971 -82.80779 2649.0 1
1067.2998 -82.80779 2649.0 1
1094.9023 -82.80779 2649.0 1
1122.505 -82.80779 2649.0 1
1132.7408 -81.55739 2609.0 1
1142.5876 -80.33825 2570.0 1
1187.1124 -81.55739 2609.0 1
1223.6067 -82.182594 2629.0 1
869.44476 -130.41675 3129.0 1
885.90485 -128.08267 3073.0 1
917.9256 -128.08267 3073.0 1
901.7224 -121.58059 2917.0 1
894.4112 -116.662346 2799.0 1
916.31744 -115.745384 2777.0 1
930.2767 -113.91147 2733.0 1
951.03687 -112.99451 2711.0 1
971.6997 -112.119225 2690.0 1
999.7296 -112.119225 2690.0 1
1019.7359 -111.24394 2669.0 1
1039.6971 -110.41035 2649.0 1
1075.3579 -111.24394 2669.0 1
1103.1688 -111.24394 2669.0 1
1139.8785 -112.119225 2690.0 1
1132.7408 -108.74314 2609.0 1
1151.0348 -107.909546 2589.0 1
1178.0123 -107.909546 2589.0 1
1204.9896 -107.909546 2589.0 1
861.6645 -161.5621 3101.0 1
893.97687 -161.5621 3101.0 1
917.9256 -160.1033 3073.0 1
879.46533 -148.2245 2845.0 1
894.4112 -145.8279 2799.0 1
916.31744 -144.6817 2777.0 1
930.2767 -142.3893 2733.0 1
951.03687 -141.2431 2711.0 1
971.6997 -140.149 2690.0 1
1007.5342 -141.2431 2711.0 1
1027.7593 -140.149 2690.0 1
1047.5469 -139.0549 2669.0 1
1083.819 -140.149 2690.0 1
1111.8486 -140.149 2690.0 1
1148.7772 -141.2431 2711.0 1
1150.1074 -138.0129 2649.0 1
1151.0348 -134.8869 2589.0 1
1187.1124 -135.9289 2609.0 1
1204.9896 -134.8869 2589.0 1
836.8407 -195.62505 3129.0 1
861.6645 -193.87448 3101.0 1
893.97687 -193.87448 3101.0 1
879.46533 -177.86937 2845.0 1
901.76074 -176.43141 2822.0 1
916.31744 -173.61801 2777.0 1
930.2767 -170.86713 2733.0 1
958.75464 -170.86713 2733.0 1
979.28546 -169.49168 2711.0 1
1007.5342 -169.49168 2711.0 1
1027.7593 -168.17877 2690.0 1
1055.7891 -168.17877 2690.0 1
1092.28 -169.49168 2711.0 1
1120.5286 -169.49168 2711.0 1
1148.7772 -169.49168 2711.0 1
1150.1074 -165.61545 2649.0 1
1159.9265 -163.11465 2609.0 1
1187.1124 -163.11465 2609.0 1
1204.9896 -161.86426 2589.0 1
804.2364 -228.22919 3129.0 1
829.3522 -226.18687 3101.0 1
861.6645 -226.18687 3101.0 1
902.0489 -228.22919 3129.0 1
894.3034 -211.01537 2893.0 1
901.76074 -205.83662 2822.0 1
916.31744 -202.55432 2777.0 1
937.4248 -200.87671 2754.0 1
958.75464 -199.34496 2733.0 1
987.2324 -199.34496 2733.0 1
1007.5342 -197.74028 2711.0 1
1035.7827 -197.74028 2711.0 1
1055.7891 -196.20854 2690.0 1
1092.28 -197.74028 2711.0 1
1120.5286 -197.74028 2711.0 1
1158.0997 -199.34496 2733.0 1
1150.1074 -193.218 2649.0 1
1159.9265 -190.3004 2609.0 1
1178.0123 -188.8416 2589.0 1
1214.2981 -190.3004 2609.0 1
811.4331 -263.16757 3157.0 1
836.8407 -260.8335 3129.0 1
893.97687 -258.49942 3101.0 1
901.7955 -251.6639 3019.0 1
901.7224 -243.16118 2917.0 1
901.76074 -235.24197 2822.0 1
923.57666 -233.32469 2799.0 1
937.4248 -229.57349 2754.0 1
958.75464 -227.82294 2733.0 1
987.2324 -227.82294 2733.0 1
1015.7104 -227.82294 2733.0 1
1035.7827 -225.98901 2711.0 1
1064.0312 -225.98901 2711.0 1
1092.28 -225.98901 2711.0 1
1120.5286 -225.98901 2711.0 1
1148.7772 -225.98901 2711.0 1
1141.4242 -219.15349 2629.0 1
1151.0348 -215.81909 2589.0 1
1196.2125 -219.15349 2629.0 1
804.2364 -293.43765 3129.0 1
844.3292 -296.06348 3157.0 1
894.02905 -280.68356 2993.0 1
894.3034 -271.30557 2893.0 1
916.7794 -269.05484 2869.0 1
938.7551 -266.80414 2845.0 1
945.25366 -260.4271 2777.0 1
958.75464 -256.30075 2733.0 1
987.2324 -256.30075 2733.0 1
1015.7104 -256.30075 2733.0 1
1044.1882 -256.30075 2733.0 1
1064.0312 -254.23761 2711.0 1
1092.28 -254.23761 2711.0 1
1120.5286 -254.23761 2711.0 1
1122.505 -248.42325 2649.0 1
1132.7408 -244.67204 2609.0 1
1159.9265 -244.67204 2609.0 1
1196.2125 -246.54764 2629.0 1
771.63226 -326.0418 3129.0 1
804.2364 -326.0418 3129.0 1
821.86365 -320.2066 3073.0 1
894.02905 -311.8706 2993.0 1
901.7224 -303.9514 2917.0 1
916.7794 -298.9498 2869.0 1
931.1659 -294.0524 2822.0 1
952.7422 -291.6558 2799.0 1
974.1901 -289.3634 2777.0 1
994.8182 -286.9668 2754.0 1
1015.7104 -284.7786 2733.0 1
1035.7827 -282.4862 2711.0 1
1072.666 -284.7786 2733.0 1
1092.28 -282.4862 2711.0 1
1129.6217 -284.7786 2733.0 1
1130.9799 -278.1098 2669.0 1
1132.7408 -271.8578 2609.0 1
1168.8182 -273.9418 2629.0 1
1205.3126 -276.0258 2649.0 1
771.63226 -358.64594 3129.0 1
797.0396 -355.43658 3101.0 1
886.2627 -340.0775 2967.0 1
901.7224 -334.3465 2917.0 1
916.7794 -328.84476 2869.0 1
931.1659 -323.4576 2822.0 1
952.7422 -320.82135 2799.0 1
974.1901 -318.2997 2777.0 1
994.8182 -315.66345 2754.0 1
1015.7104 -313.25644 2733.0 1
1044.1882 -313.25644 2733.0 1
1064.0312 -310.7348 2711.0 1
1101.1439 -313.25644 2733.0 1
1120.5286 -310.7348 2711.0 1
1122.505 -303.62836 2649.0 1
1141.4242 -301.33594 2629.0 1
1177.71 -303.62836 2649.0 1
785.68884 -398.37738 3186.0 1
804.2364 -391.2501 3129.0 1
894.02905 -374.24466 2993.0 1
901.7224 -364.7416 2917.0 1
909.11035 -355.73874 2845.0 1
923.57666 -349.9869 2799.0 1
945.25366 -347.23602 2777.0 1
966.1216 -344.3601 2754.0 1
994.8182 -344.3601 2754.0 1
1015.7104 -341.73425 2733.0 1
1044.1882 -341.73425 2733.0 1
1072.666 -341.73425 2733.0 1
1109.605 -344.3601 2754.0 1
1129.6217 -341.73425 2733.0 1
1114.03 -328.7301 2629.0 1
1141.4242 -328.7301 2629.0 1
1159.9265 -326.2293 2609.0 1
818.8869 -431.57562 3186.0 1
901.7955 -408.9538 3019.0 1
901.7224 -395.13687 2917.0 1
909.11035 -385.38376 2845.0 1
923.57666 -379.1526 2799.0 1
945.25366 -376.17245 2777.0 1
974.1901 -376.17245 2777.0 1
994.8182 -373.0569 2754.0 1
1015.7104 -370.21222 2733.0 1
1044.1882 -370.21222 2733.0 1
1072.666 -370.21222 2733.0 1
1109.605 -373.0569 2754.0 1
1103.1688 -361.5428 2669.0 1
1114.03 -356.1244 2629.0 1
1115.8083 -348.13223 2570.0 1
901.7955 -440.41174 3019.0 1
925.21606 -436.61887 2993.0 1
916.7794 -418.52975 2869.0 1
923.57666 -408.31815 2799.0 1
937.4248 -401.75354 2754.0 1
966.1216 -401.75354 2754.0 1
987.2324 -398.69006 2733.0 1
1015.7104 -398.69006 2733.0 1
1052.2115 -401.75354 2754.0 1
1089.9354 -405.1088 2777.0 1
1092.28 -395.4807 2711.0 1
1086.6357 -383.51852 2629.0 1
1122.505 -386.43613 2649.0 1
901.7955 -471.8697 3019.0 1
925.21606 -467.80588 2993.0 1
916.7794 -448.42468 2869.0 1
923.57666 -437.4837 2799.0 1
937.4248 -430.4502 2754.0 1
966.1216 -430.4502 2754.0 1
994.8182 -430.4502 2754.0 1
1015.7104 -427.16788 2733.0 1
1052.2115 -430.4502 2754.0 1
1080.9082 -430.4502 2754.0 1
1067.2998 -414.0387 2649.0 1
1086.6357 -410.9127 2629.0 1
1114.03 -410.9127 2629.0 1
917.9256 -512.3305 3073.0 1
933.25336 -503.32764 3019.0 1
901.76074 -470.4838 2822.0 1
923.57666 -466.64923 2799.0 1
945.25366 -462.9814 2777.0 1
966.1216 -459.14685 2754.0 1
994.8182 -459.14685 2754.0 1
1032.0629 -462.9814 2777.0 1
1052.2115 -459.14685 2754.0 1
1055.7891 -448.47678 2690.0 1
1059.2417 -438.30685 2629.0 1
1086.6357 -438.30685 2629.0 1
894.3034 -512.46594 2893.0 1
901.76074 -499.889 2822.0 1
923.57666 -495.8148 2799.0 1
945.25366 -491.91772 2777.0 1
966.1216 -487.8435 2754.0 1
994.8182 -487.8435 2754.0 1
1032.0629 -491.91772 2777.0 1
1035.7827 -480.22647 2711.0 1
1039.6971 -469.2438 2649.0 1
1059.2417 -465.701 2629.0 1
1094.9023 -469.2438 2649.0 1
879.46533 -533.6083 2845.0 1
894.4112 -524.98047 2799.0 1
916.31744 -520.8542 2777.0 1
937.4248 -516.5403 2754.0 1
974.1901 -520.8542 2777.0 1
1003.1264 -520.8542 2777.0 1
1015.7104 -512.6015 2733.0 1
1019.7359 -500.5977 2669.0 1
1031.8474 -493.09528 2629.0 1
1059.2417 -493.09528 2629.0 1
1094.9023 -496.8465 2649.0 1
864.1584 -572.75616 2893.0 1
879.46533 -563.2531 2845.0 1
894.4112 -554.14606 2799.0 1
916.31744 -549.79047 2777.0 1
952.7422 -554.14606 2799.0 1
981.9079 -554.14606 2799.0 1
1011.07336 -554.14606 2799.0 1
1023.51495 -545.23694 2754.0 1
1012.0946 -524.44904 2649.0 1
1039.6971 -524.44904 2649.0 1
1059.2417 -520.48944 2629.0 1
864.1584 -602.9012 2893.0 1
872.3554 -588.1048 2822.0 1
901.76074 -588.1048 2822.0 1
923.57666 -583.3116 2799.0 1
952.7422 -583.3116 2799.0 1
981.9079 -583.3116 2799.0 1
1003.1264 -578.7268 2777.0 1
1012.0946 -552.0516 2649.0 1
1031.8474 -547.8836 2629.0 1
1067.2998 -552.0516 2649.0 1
840.9321 -638.2979 2917.0 1
856.98944 -627.79456 2869.0 1
872.3554 -617.51 2822.0 1
901.76074 -617.51 2822.0 1
923.57666 -612.4771 2799.0 1
952.7422 -612.4771 2799.0 1
981.9079 -612.4771 2799.0 1
840.9321 -668.693 2917.0 1
849.8205 -652.18774 2845.0 1
872.3554 -646.9152 2822.0 1
901.76074 -646.9152 2822.0 1
931.1659 -646.9152 2822.0 1
960.5711 -646.9152 2822.0 1
1078.0289 -704.45447 3073.0 1
1120.1638 -710.87317 3101.0 1
834.01324 -693.3364 2893.0 1
849.8205 -681.83276 2845.0 1
879.46533 -681.83276 2845.0 1
901.76074 -676.32056 2822.0 1
931.1659 -676.32056 2822.0 1
968.39996 -681.83276 2845.0 1
1087.8514 -743.1857 3101.0 1
1110.0494 -736.4752 3073.0 1
1152.4763 -743.1857 3101.0 1
827.09436 -717.47955 2869.0 1
849.8205 -711.4776 2845.0 1
879.46533 -711.4776 2845.0 1
909.11035 -711.4776 2845.0 1
931.1659 -705.72577 2822.0 1
1065.0698 -782.50037 3129.0 1
1087.8514 -775.4981 3101.0 1
1120.1638 -775.4981 3101.0 1
1162.8824 -782.50037 3129.0 1
834.01324 -753.62646 2893.0 1
856.98944 -747.3745 2869.0 1
879.46533 -741.1225 2845.0 1
916.7794 -747.3745 2869.0 1
946.6744 -747.3745 2869.0 1
1074.6006 -822.3985 3157.0 1
1097.6741 -815.1045 3129.0 1
1130.2782 -815.1045 3129.0 1
1173.2886 -822.3985 3157.0 1
824.43036 -803.8196 2967.0 1
840.9321 -790.2736 2917.0 1
856.98944 -777.2694 2869.0 1
886.88434 -777.2694 2869.0 1
909.11035 -770.76733 2845.0 1
938.7551 -770.76733 2845.0 1
1074.6006 -855.2944 3157.0 1
1097.6741 -847.7086 3129.0 1
1140.3926 -855.2944 3157.0 1
1162.8824 -847.7086 3129.0 1
773.72327 -813.91656 2893.0 1
817.4837 -827.7022 2942.0 1
834.01324 -813.91656 2893.0 1
856.98944 -807.16437 2869.0 1
894.3034 -813.91656 2893.0 1
924.44855 -813.91656 2893.0 1
1084.4718 -896.3492 3186.0 1
1107.4967 -888.1903 3157.0 1
1140.3926 -888.1903 3157.0 1
1162.8824 -880.3128 3129.0 1
780.14197 -851.06396 2917.0 1
810.53705 -851.06396 2917.0 1
834.01324 -844.0617 2893.0 1
864.1584 -844.0617 2893.0 1
894.3034 -844.0617 2893.0 1
924.44855 -844.0617 2893.0 1
1128.1942 -938.30023 3216.0 1
1150.868 -929.5474 3186.0 1
1184.0663 -929.5474 3186.0 1
793.51434 -896.56805 2967.0 1
817.4837 -889.01355 2942.0 1
840.9321 -881.45905 2917.0 1
871.3274 -881.45905 2917.0 1
894.3034 -874.2067 2893.0 1
1128.1942 -971.8109 3216.0 1
1161.705 -971.8109 3216.0 1
1184.0663 -962.7455 3186.0 1
800.46796 -935.61176 2993.0 1
817.4837 -919.6692 2942.0 1
848.1393 -919.6692 2942.0 1
871.3274 -911.8542 2917.0 1
894.3034 -904.3518 2893.0 1
1104.895 -1014.6996 3246.0 1
1128.1942 -1005.3216 3216.0 1
1161.705 -1005.3216 3216.0 1
1184.0663 -995.9436 3186.0 1
1206.1844 -986.8782 3157.0 1
775.96344 -975.1973 3019.0 1
800.46796 -966.7988 2993.0 1
824.43036 -958.40027 2967.0 1
840.9321 -942.24927 2917.0 1
871.3274 -942.24927 2917.0 1
901.7224 -942.24927 2917.0 1
1115.447 -1058.5365 3277.0 1
1128.1942 -1038.8323 3216.0 1
1161.705 -1038.8323 3216.0 1
1195.2157 -1038.8323 3216.0 1
1240.1884 -1048.5228 3246.0 1
744.50555 -1006.6553 3019.0 1
769.28076 -997.98584 2993.0 1
800.46796 -997.98584 2993.0 1
817.4837 -980.9804 2942.0 1
862.8419 -997.98584 2993.0 1
878.79504 -980.9804 2942.0 1
1094.6835 -1072.3429 3216.0 1
1128.1942 -1072.3429 3216.0 1
1161.705 -1072.3429 3216.0 1
1206.3651 -1082.3462 3246.0 1
751.16394 -1047.3976 3046.0 1
769.28076 -1029.173 2993.0 1
793.51434 -1020.23267 2967.0 1
824.43036 -1020.23267 2967.0 1
870.33734 -1038.1134 3019.0 1
934.6532 -1075.938 3129.0 1
1094.6835 -1105.8538 3216.0 1
1128.1942 -1105.8538 3216.0 1
738.09375 -1060.3601 2993.0 1
769.28076 -1060.3601 2993.0 1
786.8282 -1042.2917 2942.0 1
831.6549 -1060.3601 2993.0 1
870.33734 -1069.5713 3019.0 1
732.41473 -1130.9347 3101.0 1
744.50555 -1101.0293 3019.0 1
769.28076 -1091.5471 2993.0 1
793.51434 -1082.0648 2967.0 1
831.6549 -1091.5471 2993.0 1
893.97687 -1130.9347 3101.0 1
675.7196 -1122.7341 2993.0 1
713.0474 -1132.4872 3019.0 1
738.09375 -1122.7341 2993.0 1
769.28076 -1122.7341 2993.0 1
800.46796 -1122.7341 2993.0 1
838.87946 -1132.4872 3019.0 1
608.0174 -1143.8971 2967.0 1
633.55 -1134.2585 2942.0 1
664.2055 -1134.2585 2942.0 1
700.76575 -1143.8971 2967.0 1
731.682 -1143.8971 2967.0 1
769.28076 -1153.9211 2993.0 1
814.64264 -1174.3547 3046.0 1
597.77106 -1155.0154 2917.0 1
622.998 -1145.5123 2893.0 1
653.14294 -1145.5123 2893.0 1
694.8611 -1164.9143 2942.0 1
731.682 -1174.8134 2967.0 1
769.28076 -1185.1083 2993.0 1
602.8942 -1195.57 2942.0 1
622.998 -1175.6573 2893.0 1
653.14294 -1175.6573 2893.0 1
688.9564 -1185.4105 2917.0 1
731.682 -1205.7295 2967.0 1
