ply
format ascii 1.0
comment : created from Kinect user tracker
element vertex 778
property float x
property float y
property float z
property int userId
end_header
1153.3273 438.9529 2478.0 1
1111.5813 407.29694 2443.0 1
1161.705 416.1331 2496.0 1
1196.216 410.13116 2460.0 1
1213.4054 407.29694 2443.0 1
1230.2407 404.46268 2426.0 1
1101.6857 387.3114 2478.0 1
1111.5813 381.84088 2443.0 1
1129.125 379.1838 2426.0 1
1154.404 379.1838 2426.0 1
1179.6829 379.1838 2426.0 1
1204.9618 379.1838 2426.0 1
1247.4824 384.498 2460.0 1
1107.5592 372.1399 2551.0 1
1109.6882 364.1165 2496.0 1
1119.3164 358.8648 2460.0 1
1144.9496 358.8648 2460.0 1
1170.5829 358.8648 2460.0 1
1179.6829 353.9049 2426.0 1
1204.9618 353.9049 2426.0 1
1256.6104 361.49066 2478.0 1
1080.9778 345.55844 2551.0 1
1115.8083 348.13217 2570.0 1
1134.1405 345.55844 2551.0 1
1135.6967 338.10815 2496.0 1
1144.9496 333.23157 2460.0 1
1170.5829 333.23157 2460.0 1
1187.9495 330.92877 2443.0 1
1230.7894 335.66986 2478.0 1
1238.8616 330.92877 2443.0 1
1097.0802 323.72858 2589.0 1
1115.8083 321.3528 2570.0 1
1117.6908 314.35056 2514.0 1
1127.5066 309.84912 2478.0 1
1153.3273 309.84912 2478.0 1
1170.5829 307.59842 2460.0 1
1187.9495 305.47272 2443.0 1
1213.4054 305.47272 2443.0 1
1247.4824 307.59842 2460.0 1
1291.7465 312.09985 2496.0 1
1308.2518 309.84912 2478.0 1
1124.0575 296.75116 2589.0 1
1125.6934 290.2178 2532.0 1
1143.8867 288.15466 2514.0 1
1161.705 286.0915 2496.0 1
1170.5829 281.96518 2460.0 1
1196.216 281.96518 2460.0 1
1230.7894 284.02832 2478.0 1
1265.7383 286.0915 2496.0 1
1289.7738 280.01663 2443.0 1
1141.4242 273.9418 2629.0 1
1125.6934 263.83438 2532.0 1
1135.6967 260.0832 2496.0 1
1161.705 260.0832 2496.0 1
1162.4934 254.5606 2443.0 1
1204.9688 258.20758 2478.0 1
1239.7299 260.0832 2496.0 1
1283.9941 263.83438 2532.0 1
1118.8718 260.4271 2777.0 1
1138.3016 258.27014 2754.0 1
1148.7772 254.23761 2711.0 1
1167.9083 252.26822 2690.0 1
1142.5876 241.01462 2570.0 1
1143.8867 235.76294 2514.0 1
1161.705 234.0749 2496.0 1
1179.1481 232.38686 2478.0 1
1213.7216 234.0749 2496.0 1
1239.7299 234.0749 2496.0 1
1078.1921 235.2419 2822.0 1
1098.5701 233.32462 2799.0 1
1101.1439 227.82286 2733.0 1
1129.6217 227.82286 2733.0 1
1148.7772 225.98894 2711.0 1
1158.7908 222.48782 2669.0 1
1168.8182 219.15343 2629.0 1
1152.0769 211.0675 2532.0 1
1170.0826 209.56702 2514.0 1
1179.1481 206.56607 2478.0 1
1222.4744 209.56702 2514.0 1
1276.4846 214.23518 2570.0 1
1048.787 205.83669 2822.0 1
1060.9991 202.5544 2777.0 1
1080.9082 200.87677 2754.0 1
1101.1439 199.34503 2733.0 1
1120.5286 197.74036 2711.0 1
1139.8785 196.2086 2690.0 1
1158.7908 194.67686 2669.0 1
1168.8182 191.75926 2629.0 1
1187.1124 190.30048 2609.0 1
1204.9896 188.84167 2589.0 1
1213.8849 186.06995 2551.0 1
1268.6697 190.30048 2609.0 1
1315.7229 193.21806 2649.0 1
1323.0413 190.30048 2609.0 1
1027.6898 177.86937 2845.0 1
1048.787 176.43141 2822.0 1
1060.9991 173.61801 2777.0 1
1080.9082 172.18005 2754.0 1
1092.28 169.49168 2711.0 1
1120.5286 169.49168 2711.0 1
1130.9799 166.86584 2669.0 1
1150.1074 165.61545 2649.0 1
1168.8182 164.36505 2629.0 1
1196.2125 164.36505 2629.0 1
1204.9896 161.86426 2589.0 1
1231.967 161.86426 2589.0 1
1288.1204 165.61545 2649.0 1
1305.7892 164.36505 2629.0 1
1333.1835 164.36505 2629.0 1
1339.8765 161.86426 2589.0 1
1346.792 159.4885 2551.0 1
1353.4537 157.17525 2514.0 1
1036.3593 149.4749 2869.0 1
1048.787 147.0262 2822.0 1
1060.9991 144.6817 2777.0 1
1072.666 142.3893 2733.0 1
1092.28 141.2431 2711.0 1
1111.8486 140.149 2690.0 1
1122.505 138.0129 2649.0 1
1150.1074 138.0129 2649.0 1
1168.8182 136.9709 2629.0 1
1187.1124 135.9289 2609.0 1
1214.2981 135.9289 2609.0 1
1231.967 134.8869 2589.0 1
1268.6697 135.9289 2609.0 1
1285.9216 134.8869 2589.0 1
1343.3256 138.0129 2649.0 1
1350.227 135.9289 2609.0 1
1356.823 133.897 2570.0 1
1363.1444 131.91719 2532.0 1
1036.3593 119.57995 2869.0 1
1048.787 117.62099 2822.0 1
1060.9991 115.745384 2777.0 1
1072.666 113.91147 2733.0 1
1092.28 112.99451 2711.0 1
1111.8486 112.119225 2690.0 1
1130.9799 111.24394 2669.0 1
1141.4242 109.576744 2629.0 1
1168.8182 109.576744 2629.0 1
1187.1124 108.74314 2609.0 1
1214.2981 108.74314 2609.0 1
1231.967 107.909546 2589.0 1
1268.6697 108.74314 2609.0 1
1295.8555 108.74314 2609.0 1
1312.8992 107.909546 2589.0 1
1339.8765 107.909546 2589.0 1
1346.792 106.32571 2551.0 1
1353.4537 104.78355 2514.0 1
1014.8837 90.435165 2893.0 1
1027.6898 88.934685 2845.0 1
1040.2391 87.49673 2799.0 1
1060.9991 86.809006 2777.0 1
1072.666 85.43356 2733.0 1
1092.28 84.74584 2711.0 1
1103.1688 83.43292 2669.0 1
1130.9799 83.43292 2669.0 1
1141.4242 82.182526 2629.0 1
1168.8182 82.182526 2629.0 1
1187.1124 81.55733 2609.0 1
1214.2981 81.55733 2609.0 1
1231.967 80.93213 2589.0 1
1268.6697 81.55733 2609.0 1
1285.9216 80.93213 2589.0 1
1312.8992 80.93213 2589.0 1
1330.0435 80.33819 2570.0 1
1346.792 79.74425 2551.0 1
1373.3733 79.74425 2551.0 1
1045.0287 60.290134 2893.0 1
1057.3348 59.289814 2845.0 1
1069.4045 58.331173 2799.0 1
1072.666 56.955734 2733.0 1
1092.28 56.497253 2711.0 1
1103.1688 55.62197 2669.0 1
1122.505 55.205173 2649.0 1
1141.4242 54.788372 2629.0 1
1159.9265 54.37157 2609.0 1
1196.2125 54.788372 2629.0 1
1214.2981 54.37157 2609.0 1
1231.967 53.954773 2589.0 1
1268.6697 54.37157 2609.0 1
1285.9216 53.954773 2589.0 1
1312.8992 53.954773 2589.0 1
1330.0435 53.55881 2570.0 1
1356.823 53.55881 2570.0 1
1373.3733 53.162853 2551.0 1
1040.8434 30.91611 2967.0 1
1053.6981 30.395111 2917.0 1
1075.1738 30.145031 2893.0 1
1069.4045 29.165552 2799.0 1
1064.0312 28.248592 2711.0 1
1083.819 28.029772 2690.0 1
1103.1688 27.810953 2669.0 1
1122.505 27.602552 2649.0 1
1150.1074 27.602552 2649.0 1
1159.9265 27.185753 2609.0 1
1187.1124 27.185753 2609.0 1
1214.2981 27.185753 2609.0 1
1231.967 26.977354 2589.0 1
1278.395 27.394154 2629.0 1
1295.8555 27.185753 2609.0 1
1312.8992 26.977354 2589.0 1
1330.0435 26.779373 2570.0 1
1356.823 26.779373 2570.0 1
1383.6023 26.779373 2570.0 1
1027.6272 0.0 3019.0 1
1040.8434 0.0 2967.0 1
1053.6981 0.0 2917.0 1
1075.1738 0.0 2893.0 1
1069.4045 0.0 2799.0 1
1072.666 0.0 2733.0 1
1092.28 0.0 2711.0 1
1111.8486 0.0 2690.0 1
1122.505 0.0 2649.0 1
1150.1074 0.0 2649.0 1
1168.8182 0.0 2629.0 1
1187.1124 0.0 2609.0 1
1214.2981 0.0 2609.0 1
1231.967 0.0 2589.0 1
1268.6697 0.0 2609.0 1
1285.9216 0.0 2589.0 1
1312.8992 0.0 2589.0 1
1339.8765 0.0 2589.0 1
1366.854 0.0 2589.0 1
1383.6023 0.0 2570.0 1
979.0111 -30.91611 2967.0 1
1018.7772 -31.187029 2993.0 1
1032.0732 -30.655611 2942.0 1
1062.7288 -30.655611 2942.0 1
1075.1738 -30.145031 2893.0 1
1078.1921 -29.40521 2822.0 1
1072.666 -28.477833 2733.0 1
1092.28 -28.248592 2711.0 1
1111.8486 -28.029772 2690.0 1
1130.9799 -27.810953 2669.0 1
1150.1074 -27.602552 2649.0 1
1168.8182 -27.394154 2629.0 1
1196.2125 -27.394154 2629.0 1
1214.2981 -27.185753 2609.0 1
1231.967 -26.977354 2589.0 1
1268.6697 -27.185753 2609.0 1
1295.8555 -27.185753 2609.0 1
1312.8992 -26.977354 2589.0 1
1360.5775 -27.394154 2629.0 1
1377.4128 -27.185753 2609.0 1
1393.8313 -26.977354 2589.0 1
940.1064 -61.311222 2942.0 1
987.5902 -62.374058 2993.0 1
1018.7772 -62.374058 2993.0 1
1032.0732 -61.311222 2942.0 1
1071.7595 -61.83222 2967.0 1
1066.2544 -59.7899 2869.0 1
1078.1921 -58.81042 2822.0 1
1080.9082 -57.393303 2754.0 1
1092.28 -56.497185 2711.0 1
1120.5286 -56.497185 2711.0 1
1139.8785 -56.059544 2690.0 1
1158.7908 -55.621906 2669.0 1
1177.71 -55.205105 2649.0 1
1205.3126 -55.205105 2649.0 1
1223.6067 -54.788307 2629.0 1
1241.484 -54.371506 2609.0 1
1268.6697 -54.371506 2609.0 1
1305.7892 -54.788307 2629.0 1
1343.3256 -55.205105 2649.0 1
1370.9281 -55.205105 2649.0 1
1377.4128 -54.371506 2609.0 1
1393.8313 -53.95471 2589.0 1
987.5902 -93.56124 2993.0 1
1009.9271 -92.748474 2967.0 1
1049.9644 -93.56124 2993.0 1
1081.1514 -93.56124 2993.0 1
1075.1738 -90.435234 2893.0 1
1078.1921 -88.215775 2822.0 1
1072.666 -85.43363 2733.0 1
1092.28 -84.74591 2711.0 1
1111.8486 -84.089455 2690.0 1
1122.505 -82.80779 2649.0 1
1150.1074 -82.80779 2649.0 1
1177.71 -82.80779 2649.0 1
1196.2125 -82.182594 2629.0 1
1232.9152 -82.80779 2649.0 1
1241.484 -81.55739 2609.0 1
1288.1204 -82.80779 2649.0 1
1325.6566 -83.43299 2669.0 1
1353.4677 -83.43299 2669.0 1
1370.9281 -82.80779 2649.0 1
1387.9718 -82.182594 2629.0 1
1393.8313 -80.93219 2589.0 1
964.7114 -125.83195 3019.0 1
987.5902 -124.74827 2993.0 1
1009.9271 -123.66459 2967.0 1
1049.9644 -124.74827 2993.0 1
1081.1514 -124.74827 2993.0 1
1075.1738 -120.58027 2893.0 1
1078.1921 -117.62099 2822.0 1
1072.666 -113.91147 2733.0 1
1092.28 -112.99451 2711.0 1
1111.8486 -112.119225 2690.0 1
1130.9799 -111.24394 2669.0 1
1150.1074 -110.41035 2649.0 1
1177.71 -110.41035 2649.0 1
1196.2125 -109.576744 2629.0 1
1232.9152 -110.41035 2649.0 1
1260.5178 -110.41035 2649.0 1
1297.8457 -111.24394 2669.0 1
1336.087 -112.119225 2690.0 1
1374.7662 -112.99451 2711.0 1
1381.2786 -111.24394 2669.0 1
1398.5308 -110.41035 2649.0 1
1404.5986 -108.74314 2609.0 1
956.40326 -155.9353 2993.0 1
987.5902 -155.9353 2993.0 1
1009.9271 -154.5807 2967.0 1
1053.6981 -151.9757 2917.0 1
1066.2544 -149.4749 2869.0 1
1069.4045 -145.8279 2799.0 1
1080.9082 -143.4834 2754.0 1
1101.1439 -142.3893 2733.0 1
1120.5286 -141.2431 2711.0 1
1139.8785 -140.149 2690.0 1
1158.7908 -139.0549 2669.0 1
1177.71 -138.0129 2649.0 1
1205.3126 -138.0129 2649.0 1
1232.9152 -138.0129 2649.0 1
1270.0348 -139.0549 2669.0 1
1308.0573 -140.149 2690.0 1
1367.875 -143.4834 2754.0 1
1385.9225 -142.3893 2733.0 1
1381.2786 -139.0549 2669.0 1
1398.5308 -138.0129 2649.0 1
1415.366 -136.9709 2629.0 1
964.7114 -188.74785 3019.0 1
987.5902 -187.12233 2993.0 1
1009.9271 -185.49681 2967.0 1
1053.6981 -182.3708 2917.0 1
1057.3348 -177.86937 2845.0 1
1069.4045 -174.99345 2799.0 1
1080.9082 -172.18005 2754.0 1
1101.1439 -170.86713 2733.0 1
1120.5286 -169.49168 2711.0 1
1139.8785 -168.17877 2690.0 1
1167.9083 -168.17877 2690.0 1
1186.6017 -166.86584 2669.0 1
1205.3126 -165.61545 2649.0 1
1232.9152 -165.61545 2649.0 1
1280.0276 -168.17877 2690.0 1
1328.9668 -170.86713 2733.0 1
1357.4446 -170.86713 2733.0 1
1392.1467 -168.17877 2690.0 1
1398.5308 -165.61545 2649.0 1
1415.366 -164.36505 2629.0 1
933.25336 -220.2058 3019.0 1
956.40326 -218.30936 2993.0 1
979.0111 -216.41292 2967.0 1
1053.6981 -212.76591 2917.0 1
1057.3348 -207.51424 2845.0 1
1069.4045 -204.159 2799.0 1
1089.9354 -202.55432 2777.0 1
1101.1439 -199.34496 2733.0 1
1120.5286 -197.74028 2711.0 1
1148.7772 -197.74028 2711.0 1
1177.0258 -197.74028 2711.0 1
1195.938 -196.20854 2690.0 1
1214.4128 -194.6768 2669.0 1
1251.9977 -196.20854 2690.0 1
1280.0276 -196.20854 2690.0 1
1328.9668 -199.34496 2733.0 1
1367.875 -200.87671 2754.0 1
1414.4003 -199.34496 2733.0 1
1409.0897 -194.6768 2669.0 1
1426.1333 -193.218 2649.0 1
925.21606 -249.49654 2993.0 1
956.40326 -249.49654 2993.0 1
987.5902 -249.49654 2993.0 1
1053.6981 -243.16118 2917.0 1
1075.1738 -241.16054 2893.0 1
1078.1921 -235.24197 2822.0 1
1098.5701 -233.32469 2799.0 1
1109.605 -229.57349 2754.0 1
1129.6217 -227.82294 2733.0 1
1158.0997 -227.82294 2733.0 1
1177.0258 -225.98901 2711.0 1
1195.938 -224.23845 2690.0 1
1233.5231 -225.98901 2711.0 1
1261.7716 -225.98901 2711.0 1
1290.0204 -225.98901 2711.0 1
1339.1783 -229.57349 2754.0 1
1357.4446 -227.82294 2733.0 1
1403.0148 -225.98901 2711.0 1
1409.0897 -222.48788 2669.0 1
1415.366 -219.15349 2629.0 1
925.21606 -280.68356 2993.0 1
948.09503 -278.24527 2967.0 1
1032.0732 -275.9008 2942.0 1
1053.6981 -273.55627 2917.0 1
1075.1738 -271.30557 2893.0 1
1078.1921 -264.6472 2822.0 1
1098.5701 -262.49023 2799.0 1
1118.8718 -260.4271 2777.0 1
1138.3016 -258.27014 2754.0 1
1158.0997 -256.30075 2733.0 1
1177.0258 -254.23761 2711.0 1
1205.2744 -254.23761 2711.0 1
1233.5231 -254.23761 2711.0 1
1261.7716 -254.23761 2711.0 1
1290.0204 -254.23761 2711.0 1
1339.1783 -258.27014 2754.0 1
1392.1467 -252.26822 2690.0 1
1398.5308 -248.42325 2649.0 1
1426.1333 -248.42325 2649.0 1
925.21606 -311.8706 2993.0 1
948.09503 -309.1614 2967.0 1
1032.0732 -306.5564 2942.0 1
1045.0287 -301.4506 2893.0 1
1075.1738 -301.4506 2893.0 1
1086.9796 -296.449 2845.0 1
1098.5701 -291.6558 2799.0 1
1127.7357 -291.6558 2799.0 1
1147.8081 -289.3634 2777.0 1
1166.9984 -286.9668 2754.0 1
1186.5775 -284.7786 2733.0 1
1215.0553 -284.7786 2733.0 1
1233.5231 -282.4862 2711.0 1
1272.011 -284.7786 2733.0 1
1300.489 -284.7786 2733.0 1
1350.3625 -289.3634 2777.0 1
1385.9225 -284.7786 2733.0 1
1392.1467 -280.298 2690.0 1
1409.0897 -278.1098 2669.0 1
1448.2063 -280.298 2690.0 1
901.7955 -346.03775 3019.0 1
925.21606 -343.05762 2993.0 1
948.09503 -340.0775 2967.0 1
962.51276 -334.3465 2917.0 1
1023.30304 -334.3465 2917.0 1
1053.6981 -334.3465 2917.0 1
1075.1738 -331.5956 2893.0 1
1078.1921 -323.4576 2822.0 1
1107.5973 -323.4576 2822.0 1
1127.7357 -320.82135 2799.0 1
1147.8081 -318.2997 2777.0 1
1166.9984 -315.66345 2754.0 1
1195.695 -315.66345 2754.0 1
1215.0553 -313.25644 2733.0 1
1243.5332 -313.25644 2733.0 1
1261.7716 -310.7348 2711.0 1
1300.489 -313.25644 2733.0 1
1350.3625 -318.2997 2777.0 1
1385.9225 -313.25644 2733.0 1
1392.1467 -308.32776 2690.0 1
1409.0897 -305.92075 2669.0 1
1436.9006 -305.92075 2669.0 1
894.02905 -374.24466 2993.0 1
917.1788 -370.99362 2967.0 1
948.09503 -370.99362 2967.0 1
962.51276 -364.7416 2917.0 1
1009.9271 -370.99362 2967.0 1
1023.30304 -364.7416 2917.0 1
1045.0287 -361.74066 2893.0 1
1066.2544 -358.7397 2869.0 1
1086.9796 -355.73874 2845.0 1
1107.5973 -352.86282 2822.0 1
1127.7357 -349.9869 2799.0 1
1156.9012 -349.9869 2799.0 1
1176.7445 -347.23602 2777.0 1
1205.6808 -347.23602 2777.0 1
1234.6171 -347.23602 2777.0 1
1243.5332 -341.73425 2733.0 1
1272.011 -341.73425 2733.0 1
1300.489 -341.73425 2733.0 1
1361.0604 -349.9869 2799.0 1
1413.0735 -355.73874 2845.0 1
1374.7662 -338.98337 2711.0 1
1381.2786 -333.7317 2669.0 1
1409.0897 -333.7317 2669.0 1
1426.1333 -331.2309 2649.0 1
925.21606 -405.43182 2993.0 1
948.09503 -401.90988 2967.0 1
1027.6272 -408.9538 3019.0 1
1032.0732 -398.52338 2942.0 1
1053.6981 -395.13687 2917.0 1
1075.1738 -391.88583 2893.0 1
1096.1493 -388.6348 2869.0 1
1107.5973 -382.26816 2822.0 1
1137.0027 -382.26816 2822.0 1
1156.9012 -379.1526 2799.0 1
1176.7445 -376.17245 2777.0 1
1186.5775 -370.21222 2733.0 1
1224.3916 -373.0569 2754.0 1
1243.5332 -370.21222 2733.0 1
1272.011 -370.21222 2733.0 1
1300.489 -370.21222 2733.0 1
1350.3625 -376.17245 2777.0 1
1357.4446 -370.21222 2733.0 1
1364.117 -364.38745 2690.0 1
1381.2786 -361.5428 2669.0 1
1398.5308 -358.8336 2649.0 1
1027.6272 -440.41174 3019.0 1
1032.0732 -429.179 2942.0 1
1053.6981 -425.53198 2917.0 1
1075.1738 -422.03085 2893.0 1
1105.3188 -422.03085 2893.0 1
1107.5973 -411.67337 2822.0 1
1137.0027 -411.67337 2822.0 1
1156.9012 -408.31815 2799.0 1
1186.067 -408.31815 2799.0 1
1195.695 -401.75354 2754.0 1
1215.0553 -398.69006 2733.0 1
1243.5332 -398.69006 2733.0 1
1261.7716 -395.4807 2711.0 1
1300.489 -398.69006 2733.0 1
1328.9668 -398.69006 2733.0 1
1367.875 -401.75354 2754.0 1
1374.7662 -395.4807 2711.0 1
1392.1467 -392.4172 2690.0 1
1420.1766 -392.4172 2690.0 1
1027.6272 -471.8697 3019.0 1
1040.8434 -463.7421 2967.0 1
1053.6981 -455.9271 2917.0 1
1084.0934 -455.9271 2917.0 1
1105.3188 -452.1759 2893.0 1
1135.4639 -452.1759 2893.0 1
1137.0027 -441.07858 2822.0 1
1166.4078 -441.07858 2822.0 1
1186.067 -437.4837 2799.0 1
1205.6808 -434.0451 2777.0 1
1215.0553 -427.16788 2733.0 1
1243.5332 -427.16788 2733.0 1
1272.011 -427.16788 2733.0 1
1300.489 -427.16788 2733.0 1
1339.1783 -430.4502 2754.0 1
1357.4446 -427.16788 2733.0 1
1364.117 -420.447 2690.0 1
1392.1467 -420.447 2690.0 1
1431.2634 -423.72928 2711.0 1
1018.7772 -498.99292 2993.0 1
1049.9644 -498.99292 2993.0 1
1053.6981 -486.3222 2917.0 1
1093.3845 -490.4902 2942.0 1
1114.4884 -486.3222 2917.0 1
1144.8835 -486.3222 2917.0 1
1165.609 -482.32092 2893.0 1
1166.4078 -470.4838 2822.0 1
1186.067 -466.64923 2799.0 1
1205.6808 -462.9814 2777.0 1
1215.0553 -455.64572 2733.0 1
1243.5332 -455.64572 2733.0 1
1272.011 -455.64572 2733.0 1
1290.0204 -451.97787 2711.0 1
1350.3625 -462.9814 2777.0 1
1367.875 -459.14685 2754.0 1
1364.117 -448.47678 2690.0 1
1381.2786 -444.97565 2669.0 1
1027.6272 -534.7856 3019.0 1
1049.9644 -530.17993 2993.0 1
1062.7288 -521.1458 2942.0 1
1093.3845 -521.1458 2942.0 1
1124.0402 -521.1458 2942.0 1
1154.6957 -521.1458 2942.0 1
1195.4241 -525.57434 2967.0 1
1195.754 -512.46594 2893.0 1
1186.067 -495.8148 2799.0 1
1215.2324 -495.8148 2799.0 1
1224.3916 -487.8435 2754.0 1
1243.5332 -484.12357 2733.0 1
1272.011 -484.12357 2733.0 1
1290.0204 -480.22647 2711.0 1
1328.9668 -484.12357 2733.0 1
1357.4446 -484.12357 2733.0 1
1374.7662 -480.22647 2711.0 1
1392.1467 -476.50653 2690.0 1
1027.6272 -566.2437 3019.0 1
1049.9644 -561.3671 2993.0 1
1071.7595 -556.49054 2967.0 1
1093.3845 -551.8016 2942.0 1
1124.0402 -551.8016 2942.0 1
1174.7125 -561.3671 2993.0 1
1195.8131 -529.2944 2822.0 1
1215.2324 -524.98047 2799.0 1
1244.398 -524.98047 2799.0 1
1243.5332 -512.6015 2733.0 1
1261.7716 -508.47522 2711.0 1
1290.0204 -508.47522 2711.0 1
1328.9668 -512.6015 2733.0 1
1357.4446 -512.6015 2733.0 1
1364.117 -504.53644 2690.0 1
1403.0148 -508.47522 2711.0 1
1409.0897 -500.5977 2669.0 1
1027.6272 -597.70166 3019.0 1
1059.0853 -597.70166 3019.0 1
1081.1514 -592.55414 2993.0 1
1112.3385 -592.55414 2993.0 1
1133.5918 -587.4067 2967.0 1
1144.8835 -577.5077 2917.0 1
1225.8992 -572.75616 2893.0 1
1215.2324 -554.14606 2799.0 1
1234.6171 -549.79047 2777.0 1
1253.0884 -545.23694 2754.0 1
1272.011 -541.07935 2733.0 1
1290.0204 -536.7238 2711.0 1
1328.9668 -541.07935 2733.0 1
1346.5175 -536.7238 2711.0 1
1364.117 -532.5662 2690.0 1
1381.2786 -528.4086 2669.0 1
1431.2634 -536.7238 2711.0 1
1036.8176 -634.7864 3046.0 1
1049.9644 -623.7412 2993.0 1
1081.1514 -623.7412 2993.0 1
1112.3385 -623.7412 2993.0 1
1143.5255 -623.7412 2993.0 1
1225.2183 -588.1048 2822.0 1
1244.398 -583.3116 2799.0 1
1253.0884 -573.9336 2754.0 1
1272.011 -569.5572 2733.0 1
1300.489 -569.5572 2733.0 1
1339.1783 -573.9336 2754.0 1
1346.5175 -564.9724 2711.0 1
1374.7662 -564.9724 2711.0 1
1046.0082 -672.43384 3073.0 1
1059.0853 -660.61755 3019.0 1
1090.5432 -660.61755 3019.0 1
1122.0013 -660.61755 3019.0 1
1153.4592 -660.61755 3019.0 1
1235.2041 -622.54285 2845.0 1
1244.398 -612.4771 2799.0 1
1253.0884 -602.63025 2754.0 1
1272.011 -598.03503 2733.0 1
1300.489 -598.03503 2733.0 1
1339.1783 -602.63025 2754.0 1
1379.2988 -607.6631 2777.0 1
1385.9225 -598.03503 2733.0 1
1018.7772 -686.11523 2993.0 1
1059.0853 -692.0755 3019.0 1
1100.2964 -698.26495 3046.0 1
1122.0013 -692.0755 3019.0 1
1153.4592 -692.0755 3019.0 1
1245.6241 -657.6895 2869.0 1
1254.6235 -646.9152 2822.0 1
1253.0884 -631.3269 2754.0 1
1272.011 -626.5129 2733.0 1
1300.489 -626.5129 2733.0 1
1328.9668 -626.5129 2733.0 1
1401.6497 -646.9152 2822.0 1
1055.539 -743.1857 3101.0 1
1078.0289 -736.4752 3073.0 1
1110.0494 -736.4752 3073.0 1
1152.4763 -743.1857 3101.0 1
1174.0908 -736.4752 3073.0 1
1215.7292 -687.5846 2869.0 1
1245.6241 -687.5846 2869.0 1
1254.6235 -676.32056 2822.0 1
1273.5637 -670.8084 2799.0 1
1281.785 -660.0237 2754.0 1
1300.489 -654.99084 2733.0 1
1339.1783 -660.0237 2754.0 1
1401.6497 -676.32056 2822.0 1
1074.6006 -789.50256 3157.0 1
1097.6741 -782.50037 3129.0 1
1120.1638 -775.4981 3101.0 1
1152.4763 -775.4981 3101.0 1
1184.7887 -775.4981 3101.0 1
1225.8992 -723.48145 2893.0 1
1256.0442 -723.48145 2893.0 1
1254.6235 -705.72577 2822.0 1
1273.5637 -699.97394 2799.0 1
1281.785 -688.72034 2754.0 1
1300.489 -683.4686 2733.0 1
1350.3625 -694.47217 2777.0 1
1401.6497 -705.72577 2822.0 1
1097.6741 -815.1045 3129.0 1
1120.1638 -807.8105 3101.0 1
1152.4763 -807.8105 3101.0 1
1195.4866 -815.1045 3129.0 1
1264.849 -741.1225 2845.0 1
1273.5637 -729.13947 2799.0 1
1292.4897 -723.4085 2777.0 1
1300.489 -711.9465 2733.0 1
1350.3625 -723.4085 2777.0 1
1401.6497 -735.131 2822.0 1
1107.4967 -855.2944 3157.0 1
1130.2782 -847.7086 3129.0 1
1162.8824 -847.7086 3129.0 1
1195.4866 -847.7086 3129.0 1
1286.1891 -783.77155 2893.0 1
1284.0288 -764.5362 2822.0 1
1292.4897 -752.3448 2777.0 1
1310.4818 -746.11365 2754.0 1
1350.3625 -752.3448 2777.0 1
1379.2988 -752.3448 2777.0 1
1128.1942 -904.78937 3216.0 1
1140.3926 -888.1903 3157.0 1
1173.2886 -888.1903 3157.0 1
1195.4866 -880.3128 3129.0 1
1284.0288 -793.9414 2822.0 1
1302.7291 -787.4706 2799.0 1
1310.4818 -774.8103 2754.0 1
1361.0604 -787.4706 2799.0 1
1390.2258 -787.4706 2799.0 1
1396.5718 -774.8103 2754.0 1
1128.1942 -938.30023 3216.0 1
1150.868 -929.5474 3186.0 1
1173.2886 -921.08636 3157.0 1
1206.1844 -921.08636 3157.0 1
1327.2545 -851.06396 2917.0 1
1313.434 -823.34674 2822.0 1
1331.8949 -816.6363 2799.0 1
1372.2445 -823.34674 2822.0 1
1390.2258 -816.6363 2799.0 1
1385.9225 -797.3801 2733.0 1
1126.3394 -999.91364 3309.0 1
1138.7185 -980.8763 3246.0 1
1161.705 -971.8109 3216.0 1
1184.0663 -962.7455 3186.0 1
1228.7263 -971.8109 3216.0 1
1316.3344 -874.2067 2893.0 1
1324.1388 -859.7021 2845.0 1
1331.8949 -845.8018 2799.0 1
1372.2445 -852.75195 2822.0 1
1390.2258 -845.8018 2799.0 1
1431.055 -852.75195 2822.0 1
1128.1942 -1005.3216 3216.0 1
1161.705 -1005.3216 3216.0 1
1184.0663 -995.9436 3186.0 1
1316.3344 -904.3518 2893.0 1
1324.1388 -889.347 2845.0 1
1342.8394 -882.15717 2822.0 1
1372.2445 -882.15717 2822.0 1
1401.6497 -882.15717 2822.0 1
1431.055 -882.15717 2822.0 1
1126.3394 -1068.8732 3309.0 1
1128.1942 -1038.8323 3216.0 1
1161.705 -1038.8323 3216.0 1
1184.0663 -1029.1417 3186.0 1
1252.0325 -1058.5365 3277.0 1
1338.6296 -950.32477 2942.0 1
1346.4792 -934.4968 2893.0 1
1353.7838 -918.9919 2845.0 1
1383.4286 -918.9919 2845.0 1
1413.0735 -918.9919 2845.0 1
1479.2301 -942.24927 2917.0 1
1161.705 -1072.3429 3216.0 1
1206.3651 -1082.3462 3246.0 1
1316.3344 -964.64185 2893.0 1
1346.4792 -964.64185 2893.0 1
1353.7838 -948.6367 2845.0 1
1395.099 -956.6393 2869.0 1
1413.0735 -948.6367 2845.0 1
1442.7185 -948.6367 2845.0 1
1338.6296 -1011.63617 2942.0 1
1357.6495 -1003.0397 2917.0 1
1365.2041 -986.53436 2869.0 1
1418.4398 -1003.0397 2917.0 1
1424.9939 -986.53436 2869.0 1
1373.6652 -1069.5713 3019.0 1
1369.2852 -1042.2917 2942.0 1
1376.6245 -1024.932 2893.0 1
1406.7694 -1024.932 2893.0 1
1413.0735 -1007.92664 2845.0 1
1357.6495 -1063.8298 2917.0 1
1376.6245 -1055.077 2893.0 1
1418.4398 -1063.8298 2917.0 1
1436.9144 -1055.077 2893.0 1
1380.9209 -1112.981 2967.0 1
1376.6245 -1085.2222 2893.0 1
1395.099 -1076.2192 2869.0 1
1436.9144 -1085.2222 2893.0 1
1380.9209 -1143.8971 2967.0 1
1365.2041 -1106.1141 2869.0 1
1418.4398 -1124.6201 2917.0 1
1436.9144 -1115.3672 2893.0 1
1479.2301 -1124.6201 2917.0 1
1376.6245 -1145.5123 2893.0 1
1395.099 -1136.0093 2869.0 1
1436.9144 -1145.5123 2893.0 1
1479.2301 -1155.0154 2917.0 1
1365.2041 -1165.9042 2869.0 1
1395.099 -1165.9042 2869.0 1
1413.0735 -1156.1511 2845.0 1
