ply
format ascii 1.0
comment : created from Kinect user tracker
element vertex 819
property float x
property float y
property float z
property int userId
end_header
229.75749 380.2883 2281.0 1
250.30235 375.4534 2252.0 1
297.23392 375.4534 2252.0 1
179.90471 351.98758 2252.0 1
202.01604 349.6431 2237.0 1
225.32552 349.6431 2237.0 1
247.0791 347.4549 2223.0 1
271.94464 349.6431 2237.0 1
295.25412 349.6431 2237.0 1
320.69983 351.98758 2252.0 1
158.45346 332.7523 2281.0 1
179.90471 328.5218 2252.0 1
203.37064 328.5218 2252.0 1
223.91534 324.29126 2223.0 1
245.4119 322.10306 2208.0 1
268.4192 322.10306 2208.0 1
293.40628 324.29126 2223.0 1
318.56375 326.3336 2237.0 1
341.87323 326.3336 2237.0 1
158.45346 308.98425 2281.0 1
181.02312 306.95233 2266.0 1
203.37064 305.0559 2252.0 1
223.91534 301.12756 2223.0 1
245.4119 299.09567 2208.0 1
268.4192 299.09567 2208.0 1
291.42648 299.09567 2208.0 1
316.57004 301.12756 2223.0 1
344.16562 305.0559 2252.0 1
136.51595 289.0925 2312.0 1
159.56493 287.2169 2297.0 1
181.02312 283.34064 2266.0 1
203.37064 281.5901 2252.0 1
225.32552 279.71448 2237.0 1
247.0791 277.96393 2223.0 1
270.2427 277.96393 2223.0 1
293.40628 277.96393 2223.0 1
318.56375 279.71448 2237.0 1
348.5976 285.21625 2281.0 1
372.3657 285.21625 2281.0 1
136.51595 265.0014 2312.0 1
159.56493 263.2821 2297.0 1
182.22142 261.44818 2281.0 1
204.63493 259.72888 2266.0 1
225.32552 256.4049 2237.0 1
247.0791 254.80023 2223.0 1
270.2427 254.80023 2223.0 1
295.25412 256.4049 2237.0 1
322.69354 259.72888 2266.0 1
353.3352 265.0014 2312.0 1
377.42636 265.0014 2312.0 1
136.51595 240.9104 2312.0 1
161.64893 242.47339 2327.0 1
183.4996 239.3474 2297.0 1
204.63493 236.1172 2266.0 1
226.83643 234.6584 2252.0 1
248.63515 233.0954 2237.0 1
270.2427 231.6366 2223.0 1
297.23392 234.6584 2252.0 1
324.82962 237.68019 2281.0 1
353.3352 240.9104 2312.0 1
379.87506 242.47339 2327.0 1
409.67966 245.8078 2359.0 1
139.29115 221.22704 2359.0 1
165.0528 222.8213 2376.0 1
184.6979 216.81938 2312.0 1
205.98953 213.9122 2281.0 1
226.83643 211.19258 2252.0 1
248.63515 209.78587 2237.0 1
271.94464 209.78587 2237.0 1
299.08173 212.5055 2266.0 1
329.24423 216.81938 2312.0 1
355.62762 218.22607 2327.0 1
382.487 219.72656 2343.0 1
166.16426 199.39711 2392.0 1
187.1744 195.31247 2343.0 1
207.43443 191.4779 2297.0 1
228.2466 188.89374 2266.0 1
250.30235 187.7267 2252.0 1
275.47006 188.89374 2266.0 1
301.06152 190.14415 2281.0 1
329.24423 192.7283 2312.0 1
358.07285 195.31247 2343.0 1
379.87506 193.9787 2327.0 1
150.62811 186.06995 2551.0 1
175.8896 184.68408 2532.0 1
199.39705 182.05824 2496.0 1
207.43443 167.54318 2297.0 1
229.75749 166.37614 2281.0 1
251.8584 165.28204 2266.0 1
275.47006 165.28204 2266.0 1
305.1531 168.63728 2312.0 1
340.63678 174.47249 2392.0 1
365.56134 174.47249 2392.0 1
99.68123 163.11465 2609.0 1
123.12268 158.30061 2532.0 1
149.50623 158.30061 2532.0 1
174.63919 157.17525 2514.0 1
197.95909 154.92453 2478.0 1
219.084 151.6735 2426.0 1
229.75749 142.6081 2281.0 1
251.8584 141.67029 2266.0 1
279.23862 143.60841 2297.0 1
311.35648 147.48465 2359.0 1
340.63678 149.54782 2392.0 1
365.56134 149.54782 2392.0 1
390.48608 149.54782 2392.0 1
97.46524 132.9071 2551.0 1
123.12268 131.91719 2532.0 1
146.3177 129.10379 2478.0 1
172.1384 129.10379 2478.0 1
196.52113 128.166 2460.0 1
220.61922 127.2803 2443.0 1
240.93816 124.6232 2392.0 1
264.08453 123.7896 2376.0 1
288.8424 123.7896 2376.0 1
315.71204 124.6232 2392.0 1
340.63678 124.6232 2392.0 1
360.51807 122.9039 2359.0 1
387.87415 123.7896 2376.0 1
409.67966 122.9039 2359.0 1
431.315 122.0703 2343.0 1
97.46524 106.32571 2551.0 1
123.12268 105.53378 2532.0 1
146.3177 103.283066 2478.0 1
170.888 102.53282 2460.0 1
193.805 101.1157 2426.0 1
217.54878 100.40714 2409.0 1
242.6505 100.40714 2409.0 1
265.86288 99.698586 2392.0 1
288.8424 99.0317 2376.0 1
311.35648 98.32314 2359.0 1
335.93735 98.32314 2359.0 1
360.51807 98.32314 2359.0 1
385.09894 98.32314 2359.0 1
406.901 97.656265 2343.0 1
431.315 97.656265 2343.0 1
455.72916 97.656265 2343.0 1
97.46524 79.74425 2551.0 1
122.247406 78.58762 2514.0 1
145.25487 76.89959 2460.0 1
169.70706 76.368164 2443.0 1
192.44691 75.30533 2409.0 1
216.01358 74.77391 2392.0 1
239.32652 74.27375 2376.0 1
264.08453 74.27375 2376.0 1
288.8424 74.27375 2376.0 1
309.2447 73.242165 2343.0 1
333.65884 73.242165 2343.0 1
358.07285 73.242165 2343.0 1
382.487 73.242165 2343.0 1
404.1223 72.742004 2327.0 1
428.3696 72.742004 2327.0 1
452.61703 72.742004 2327.0 1
480.14313 73.242165 2343.0 1
97.46524 53.162853 2551.0 1
121.37212 52.01665 2496.0 1
145.25487 51.26641 2460.0 1
169.70706 50.912132 2443.0 1
192.44691 50.20357 2409.0 1
216.01358 49.849293 2392.0 1
239.32652 49.51585 2376.0 1
262.19504 49.16157 2359.0 1
284.8307 48.828133 2343.0 1
309.2447 48.828133 2343.0 1
333.65884 48.828133 2343.0 1
358.07285 48.828133 2343.0 1
379.87506 48.49469 2327.0 1
404.1223 48.49469 2327.0 1
428.3696 48.49469 2327.0 1
452.61703 48.49469 2327.0 1
480.14313 48.828133 2343.0 1
99.68123 27.185753 2609.0 1
120.49684 25.820734 2478.0 1
144.25107 25.456036 2443.0 1
167.3452 25.101755 2409.0 1
191.08884 24.924616 2392.0 1
216.01358 24.924616 2392.0 1
239.32652 24.757896 2376.0 1
262.19504 24.580755 2359.0 1
284.8307 24.414036 2343.0 1
309.2447 24.414036 2343.0 1
333.65884 24.414036 2343.0 1
355.62762 24.247316 2327.0 1
379.87506 24.247316 2327.0 1
404.1223 24.247316 2327.0 1
428.3696 24.247316 2327.0 1
452.61703 24.247316 2327.0 1
476.86432 24.247316 2327.0 1
73.05108 0.0 2629.0 1
99.68123 0.0 2609.0 1
120.49684 0.0 2478.0 1
144.25107 0.0 2443.0 1
167.3452 0.0 2409.0 1
192.44691 0.0 2409.0 1
214.56866 0.0 2376.0 1
237.61417 0.0 2359.0 1
262.19504 0.0 2359.0 1
284.8307 0.0 2343.0 1
309.2447 0.0 2343.0 1
329.24423 0.0 2312.0 1
355.62762 0.0 2327.0 1
379.87506 0.0 2327.0 1
401.51733 0.0 2312.0 1
428.3696 0.0 2327.0 1
452.61703 0.0 2327.0 1
476.86432 0.0 2327.0 1
98.91709 -26.977354 2589.0 1
119.62157 -25.633175 2460.0 1
144.25107 -25.456036 2443.0 1
167.3452 -25.101755 2409.0 1
191.08884 -24.924616 2392.0 1
214.56866 -24.757896 2376.0 1
237.61417 -24.580755 2359.0 1
260.4167 -24.414036 2343.0 1
284.8307 -24.414036 2343.0 1
307.1329 -24.247316 2327.0 1
331.38034 -24.247316 2327.0 1
355.62762 -24.247316 2327.0 1
379.87506 -24.247316 2327.0 1
404.1223 -24.247316 2327.0 1
428.3696 -24.247316 2327.0 1
452.61703 -24.247316 2327.0 1
476.86432 -24.247316 2327.0 1
504.55728 -24.414036 2343.0 1
102.77597 -56.059544 2690.0 1
119.62157 -51.26635 2460.0 1
144.25107 -50.91207 2443.0 1
167.3452 -50.20351 2409.0 1
191.08884 -49.84923 2392.0 1
216.01358 -49.84923 2392.0 1
237.61417 -49.16151 2359.0 1
260.4167 -48.82807 2343.0 1
284.8307 -48.82807 2343.0 1
307.1329 -48.494633 2327.0 1
331.38034 -48.494633 2327.0 1
355.62762 -48.494633 2327.0 1
382.487 -48.82807 2343.0 1
406.901 -48.82807 2343.0 1
428.3696 -48.494633 2327.0 1
452.61703 -48.494633 2327.0 1
480.14313 -48.82807 2343.0 1
501.11176 -48.494633 2327.0 1
104.41885 -85.43363 2733.0 1
120.49684 -77.462326 2478.0 1
145.25487 -76.89965 2460.0 1
167.3452 -75.30539 2409.0 1
191.08884 -74.773964 2392.0 1
214.56866 -74.2738 2376.0 1
237.61417 -73.742386 2359.0 1
260.4167 -73.242226 2343.0 1
284.8307 -73.242226 2343.0 1
309.2447 -73.242226 2343.0 1
333.65884 -73.242226 2343.0 1
358.07285 -73.242226 2343.0 1
382.487 -73.242226 2343.0 1
406.901 -73.242226 2343.0 1
431.315 -73.242226 2343.0 1
455.72916 -73.242226 2343.0 1
480.14313 -73.242226 2343.0 1
504.55728 -73.242226 2343.0 1
77.1635 -115.745384 2777.0 1
106.099945 -115.745384 2777.0 1
121.37212 -104.0333 2496.0 1
145.25487 -102.53282 2460.0 1
167.3452 -100.40714 2409.0 1
191.08884 -99.698586 2392.0 1
216.01358 -99.698586 2392.0 1
237.61417 -98.32314 2359.0 1
260.4167 -97.656265 2343.0 1
284.8307 -97.656265 2343.0 1
309.2447 -97.656265 2343.0 1
333.65884 -97.656265 2343.0 1
360.51807 -98.32314 2359.0 1
390.48608 -99.698586 2392.0 1
412.632 -99.0317 2376.0 1
431.315 -97.656265 2343.0 1
452.61703 -96.98938 2327.0 1
480.14313 -97.656265 2343.0 1
501.11176 -96.98938 2327.0 1
77.1635 -144.6817 2777.0 1
105.22119 -143.4834 2754.0 1
124.04659 -132.9071 2551.0 1
145.25487 -128.166 2460.0 1
168.52612 -126.3946 2426.0 1
191.08884 -124.6232 2392.0 1
216.01358 -124.6232 2392.0 1
239.32652 -123.7896 2376.0 1
262.19504 -122.9039 2359.0 1
284.8307 -122.0703 2343.0 1
311.35648 -122.9039 2359.0 1
335.93735 -122.9039 2359.0 1
363.11612 -123.7896 2376.0 1
390.48608 -124.6232 2392.0 1
412.632 -123.7896 2376.0 1
434.26038 -122.9039 2359.0 1
458.84125 -122.9039 2359.0 1
483.42197 -122.9039 2359.0 1
511.66373 -123.7896 2376.0 1
48.6093 -174.99345 2799.0 1
77.7748 -174.99345 2799.0 1
105.22119 -172.18005 2754.0 1
124.04659 -159.4885 2551.0 1
145.25487 -153.79918 2460.0 1
168.52612 -151.6735 2426.0 1
192.44691 -150.61066 2409.0 1
216.01358 -149.54782 2392.0 1
240.93816 -149.54782 2392.0 1
264.08453 -148.5475 2376.0 1
290.78748 -149.54782 2392.0 1
313.60025 -148.5475 2376.0 1
340.63678 -149.54782 2392.0 1
368.1594 -150.61066 2409.0 1
396.03647 -151.6735 2426.0 1
418.363 -150.61066 2409.0 1
437.38986 -148.5475 2376.0 1
462.14786 -148.5475 2376.0 1
486.90573 -148.5475 2376.0 1
508.00284 -147.48465 2359.0 1
48.6093 -204.159 2799.0 1
77.7748 -204.159 2799.0 1
106.099945 -202.55432 2777.0 1
121.37212 -182.05818 2496.0 1
145.25487 -179.43234 2460.0 1
169.70706 -178.19237 2443.0 1
192.44691 -175.7124 2409.0 1
217.54878 -175.7124 2409.0 1
240.93816 -174.47243 2392.0 1
265.86288 -174.47243 2392.0 1
292.8541 -175.7124 2409.0 1
315.71204 -174.47243 2392.0 1
343.05768 -175.7124 2409.0 1
370.75745 -176.9524 2426.0 1
398.81168 -178.19237 2443.0 1
418.363 -175.7124 2409.0 1
440.33524 -174.47243 2392.0 1
462.14786 -173.30539 2376.0 1
486.90573 -173.30539 2376.0 1
508.00284 -172.06541 2359.0 1
48.6093 -233.32469 2799.0 1
77.7748 -233.32469 2799.0 1
106.099945 -231.49077 2777.0 1
122.247406 -209.5671 2514.0 1
146.3177 -206.56613 2478.0 1
170.888 -205.06564 2460.0 1
192.44691 -200.81429 2409.0 1
217.54878 -200.81429 2409.0 1
242.6505 -200.81429 2409.0 1
267.75238 -200.81429 2409.0 1
292.8541 -200.81429 2409.0 1
317.9558 -200.81429 2409.0 1
343.05768 -200.81429 2409.0 1
370.75745 -202.2314 2426.0 1
404.5253 -206.56613 2478.0 1
415.41064 -199.39717 2392.0 1
440.33524 -199.39717 2392.0 1
465.25998 -199.39717 2392.0 1
490.18454 -199.39717 2392.0 1
515.10925 -199.39717 2392.0 1
19.763342 -266.80414 2845.0 1
48.6093 -262.49023 2799.0 1
77.7748 -262.49023 2799.0 1
106.099945 -260.4271 2777.0 1
122.247406 -235.76294 2514.0 1
146.3177 -232.38686 2478.0 1
170.888 -230.69882 2460.0 1
193.805 -227.5103 2426.0 1
219.084 -227.5103 2426.0 1
244.36285 -227.5103 2426.0 1
269.64188 -227.5103 2426.0 1
296.98737 -229.10455 2443.0 1
320.1996 -227.5103 2426.0 1
347.8995 -229.10455 2443.0 1
375.95355 -230.69882 2460.0 1
407.46375 -234.0749 2496.0 1
433.472 -234.0749 2496.0 1
443.46472 -225.91605 2409.0 1
465.25998 -224.32178 2392.0 1
486.90573 -222.8213 2376.0 1
522.4311 -227.5103 2426.0 1
19.763342 -296.449 2845.0 1
49.00873 -294.0524 2822.0 1
78.413895 -294.0524 2822.0 1
103.57831 -282.4862 2711.0 1
124.04659 -265.8142 2551.0 1
146.3177 -258.20758 2478.0 1
170.888 -256.332 2460.0 1
195.16306 -254.5606 2443.0 1
219.084 -252.7892 2426.0 1
244.36285 -252.7892 2426.0 1
271.53137 -254.5606 2443.0 1
296.98737 -254.5606 2443.0 1
322.44336 -254.5606 2443.0 1
350.32043 -256.332 2460.0 1
375.95355 -256.332 2460.0 1
410.4022 -261.9588 2514.0 1
433.472 -260.0832 2496.0 1
443.46472 -251.01779 2409.0 1
462.14786 -247.5792 2376.0 1
486.90573 -247.5792 2376.0 1
508.00284 -245.8078 2359.0 1
19.603567 -323.4576 2822.0 1
49.408165 -326.09387 2845.0 1
77.7748 -320.82135 2799.0 1
101.209496 -303.62836 2649.0 1
124.9705 -294.57336 2570.0 1
147.38054 -286.0915 2496.0 1
172.1384 -284.02832 2478.0 1
196.52113 -281.96518 2460.0 1
220.61922 -280.01663 2443.0 1
246.07521 -280.01663 2443.0 1
271.53137 -280.01663 2443.0 1
299.054 -281.96518 2460.0 1
324.68713 -281.96518 2460.0 1
350.32043 -281.96518 2460.0 1
378.70444 -284.02832 2478.0 1
410.4022 -288.15466 2514.0 1
427.22 -281.96518 2460.0 1
443.46472 -276.11954 2409.0 1
462.14786 -272.3371 2376.0 1
486.90573 -272.3371 2376.0 1
511.66373 -272.3371 2376.0 1
-9.881671 -355.73874 2845.0 1
19.763342 -355.73874 2845.0 1
49.00873 -352.86282 2822.0 1
75.32958 -338.98337 2711.0 1
101.209496 -331.2309 2649.0 1
126.866936 -326.2293 2609.0 1
149.50623 -316.60123 2532.0 1
173.3888 -312.0998 2496.0 1
196.52113 -307.59836 2460.0 1
222.15443 -307.59836 2460.0 1
247.78757 -307.59836 2460.0 1
273.42087 -307.59836 2460.0 1
299.054 -307.59836 2460.0 1
324.68713 -307.59836 2460.0 1
352.88376 -309.84906 2478.0 1
378.70444 -309.84906 2478.0 1
410.4022 -314.3505 2514.0 1
427.22 -307.59836 2460.0 1
440.33524 -299.09564 2392.0 1
465.25998 -299.09564 2392.0 1
483.42197 -294.9693 2359.0 1
508.00284 -294.9693 2359.0 1
-9.881671 -385.38376 2845.0 1
19.763342 -385.38376 2845.0 1
49.408165 -385.38376 2845.0 1
75.32958 -367.23212 2711.0 1
101.973625 -361.5428 2669.0 1
126.866936 -353.4152 2609.0 1
150.62811 -345.5585 2551.0 1
174.63919 -340.54648 2514.0 1
197.95909 -335.66992 2478.0 1
223.77995 -335.66992 2478.0 1
249.60065 -335.66992 2478.0 1
275.4215 -335.66992 2478.0 1
301.2422 -335.66992 2478.0 1
327.0629 -335.66992 2478.0 1
352.88376 -335.66992 2478.0 1
381.45532 -338.10822 2496.0 1
413.3406 -342.98477 2532.0 1
418.363 -326.32318 2409.0 1
440.33524 -324.02036 2392.0 1
462.14786 -321.853 2376.0 1
483.42197 -319.55017 2359.0 1
-9.881671 -415.02863 2845.0 1
19.930063 -418.52975 2869.0 1
49.00873 -411.67337 2822.0 1
74.74606 -392.4172 2690.0 1
101.209496 -386.43613 2649.0 1
126.866936 -380.60095 2609.0 1
151.75 -374.91162 2570.0 1
175.8896 -369.36816 2532.0 1
200.835 -366.74234 2514.0 1
227.03099 -366.74234 2514.0 1
251.41373 -364.1165 2496.0 1
277.42215 -364.1165 2496.0 1
303.4304 -364.1165 2496.0 1
327.0629 -361.49066 2478.0 1
352.88376 -361.49066 2478.0 1
384.2062 -366.74234 2514.0 1
413.3406 -369.36816 2532.0 1
418.363 -351.42493 2409.0 1
440.33524 -348.94498 2392.0 1
462.14786 -346.6109 2376.0 1
490.18454 -348.94498 2392.0 1
-9.965032 -448.42468 2869.0 1
19.930063 -448.42468 2869.0 1
49.408165 -444.6735 2845.0 1
75.32958 -423.72928 2711.0 1
101.209496 -414.0387 2649.0 1
127.83947 -410.9127 2629.0 1
152.87189 -404.6607 2589.0 1
175.8896 -395.7516 2532.0 1
202.27296 -395.7516 2532.0 1
228.65651 -395.7516 2532.0 1
253.2268 -392.9382 2514.0 1
277.42215 -390.1248 2496.0 1
303.4304 -390.1248 2496.0 1
329.43866 -390.1248 2496.0 1
355.44705 -390.1248 2496.0 1
381.45532 -390.1248 2496.0 1
413.3406 -395.7516 2532.0 1
415.41064 -373.8696 2392.0 1
437.38986 -371.3688 2376.0 1
465.25998 -373.8696 2392.0 1
-9.965032 -478.31964 2869.0 1
19.930063 -478.31964 2869.0 1
49.408165 -474.31836 2845.0 1
74.74606 -448.47678 2690.0 1
101.973625 -444.97565 2669.0 1
127.83947 -438.30685 2629.0 1
154.05283 -434.97244 2609.0 1
177.20946 -425.30267 2551.0 1
203.79082 -425.30267 2551.0 1
228.65651 -422.135 2532.0 1
255.03989 -422.135 2532.0 1
277.42215 -416.1331 2496.0 1
303.4304 -416.1331 2496.0 1
329.43866 -416.1331 2496.0 1
355.44705 -416.1331 2496.0 1
386.9571 -422.135 2532.0 1
413.3406 -422.135 2532.0 1
415.41064 -398.79422 2392.0 1
437.38986 -396.12668 2376.0 1
458.84125 -393.29245 2359.0 1
47.4631 -484.12357 2733.0 1
74.74606 -476.50653 2690.0 1
101.209496 -469.2438 2649.0 1
127.83947 -465.701 2629.0 1
154.05283 -462.1582 2609.0 1
177.20946 -451.8841 2551.0 1
203.79082 -451.8841 2551.0 1
230.37233 -451.8841 2551.0 1
255.03989 -448.51843 2532.0 1
279.4228 -445.3299 2514.0 1
303.4304 -442.1414 2496.0 1
331.8144 -445.3299 2514.0 1
358.01038 -445.3299 2514.0 1
386.9571 -448.51843 2532.0 1
404.5253 -438.95285 2478.0 1
415.41064 -423.7188 2392.0 1
440.33524 -423.7188 2392.0 1
465.25998 -423.7188 2392.0 1
47.4631 -512.6015 2733.0 1
74.74606 -504.53644 2690.0 1
101.973625 -500.5977 2669.0 1
127.83947 -493.09528 2629.0 1
154.05283 -489.3441 2609.0 1
178.52933 -482.02924 2570.0 1
203.79082 -478.4656 2551.0 1
230.37233 -478.4656 2551.0 1
255.03989 -474.90195 2532.0 1
279.4228 -471.52588 2514.0 1
307.8068 -474.90195 2532.0 1
334.19016 -474.90195 2532.0 1
360.5737 -474.90195 2532.0 1
389.86078 -478.4656 2551.0 1
396.03647 -455.0206 2426.0 1
415.41064 -448.64355 2392.0 1
437.38986 -445.6426 2376.0 1
47.8278 -545.23694 2754.0 1
74.74606 -532.5662 2690.0 1
102.77597 -532.5662 2690.0 1
128.812 -524.44904 2649.0 1
156.41469 -524.44904 2649.0 1
181.23853 -516.52985 2609.0 1
203.79082 -505.047 2551.0 1
228.65651 -501.28537 2532.0 1
255.03989 -501.28537 2532.0 1
281.42343 -501.28537 2532.0 1
305.6186 -497.72174 2514.0 1
334.19016 -501.28537 2532.0 1
358.01038 -497.72174 2514.0 1
386.9571 -501.28537 2532.0 1
393.2613 -476.93384 2409.0 1
412.632 -470.40048 2376.0 1
434.26038 -467.03482 2359.0 1
47.8278 -573.9336 2754.0 1
75.32958 -564.9724 2711.0 1
102.77597 -560.596 2690.0 1
129.78453 -556.2196 2669.0 1
158.8356 -560.596 2690.0 1
185.40652 -556.2196 2669.0 1
203.79082 -531.6284 2551.0 1
230.37233 -531.6284 2551.0 1
255.03989 -527.66876 2532.0 1
281.42343 -527.66876 2532.0 1
305.6186 -523.9176 2514.0 1
334.19016 -527.66876 2532.0 1
360.5737 -527.66876 2532.0 1
386.9571 -527.66876 2532.0 1
390.48608 -498.4928 2392.0 1
412.632 -495.1584 2376.0 1
47.8278 -602.63025 2754.0 1
75.32958 -593.221 2711.0 1
102.77597 -588.62573 2690.0 1
130.8057 -588.62573 2690.0 1
158.8356 -588.62573 2690.0 1
186.86533 -588.62573 2690.0 1
205.30865 -562.3674 2570.0 1
230.37233 -558.2098 2551.0 1
255.03989 -554.0522 2532.0 1
281.42343 -554.0522 2532.0 1
307.8068 -554.0522 2532.0 1
334.19016 -554.0522 2532.0 1
360.5737 -554.0522 2532.0 1
368.1594 -527.1373 2409.0 1
387.87415 -519.91626 2376.0 1
412.632 -519.91626 2376.0 1
431.315 -512.69525 2343.0 1
48.227234 -636.5994 2777.0 1
75.94089 -626.5129 2733.0 1
103.57831 -621.4696 2711.0 1
130.8057 -616.6555 2690.0 1
160.07558 -621.4696 2711.0 1
188.32413 -621.4696 2711.0 1
210.02197 -602.6719 2629.0 1
230.37233 -584.7912 2551.0 1
256.95367 -584.7912 2551.0 1
281.42343 -580.4356 2532.0 1
307.8068 -580.4356 2532.0 1
334.19016 -580.4356 2532.0 1
345.4786 -556.13617 2426.0 1
365.56134 -548.34204 2392.0 1
387.87415 -544.6742 2376.0 1
409.67966 -540.7771 2359.0 1
428.3696 -533.4414 2327.0 1
48.227234 -665.5359 2777.0 1
76.52441 -660.0237 2754.0 1
104.41885 -654.99084 2733.0 1
131.82686 -649.7183 2711.0 1
161.3746 -654.99084 2733.0 1
192.90894 -665.5359 2777.0 1
210.02197 -630.06616 2629.0 1
232.08817 -615.9263 2570.0 1
255.03989 -606.81915 2532.0 1
281.42343 -606.81915 2532.0 1
307.8068 -606.81915 2532.0 1
331.8144 -602.50525 2514.0 1
340.63678 -573.2668 2392.0 1
363.11612 -569.4322 2376.0 1
385.09894 -565.358 2359.0 1
412.632 -569.4322 2376.0 1
48.227234 -694.47217 2777.0 1
77.1635 -694.47217 2777.0 1
105.22119 -688.72034 2754.0 1
133.9178 -688.72034 2754.0 1
162.6146 -688.72034 2754.0 1
192.90894 -694.47217 2777.0 1
208.42424 -652.45874 2609.0 1
232.08817 -642.7056 2570.0 1
256.95367 -637.9541 2551.0 1
283.53522 -637.9541 2551.0 1
310.11655 -637.9541 2551.0 1
331.8144 -628.7011 2514.0 1
338.35828 -594.19006 2376.0 1
360.51807 -589.9387 2359.0 1
385.09894 -589.9387 2359.0 1
409.67966 -589.9387 2359.0 1
48.227234 -723.4085 2777.0 1
77.1635 -723.4085 2777.0 1
105.22119 -717.417 2754.0 1
135.03621 -723.4085 2777.0 1
163.97267 -723.4085 2777.0 1
192.90894 -723.4085 2777.0 1
233.80399 -674.4345 2589.0 1
256.95367 -664.53546 2551.0 1
283.53522 -664.53546 2551.0 1
310.11655 -664.53546 2551.0 1
336.6979 -664.53546 2551.0 1
338.35828 -618.948 2376.0 1
363.11612 -618.948 2376.0 1
387.87415 -618.948 2376.0 1
412.632 -618.948 2376.0 1
48.227234 -752.3448 2777.0 1
77.1635 -752.3448 2777.0 1
106.099945 -752.3448 2777.0 1
135.03621 -752.3448 2777.0 1
165.2717 -758.30505 2799.0 1
235.61012 -706.83026 2609.0 1
260.7813 -701.41187 2589.0 1
285.647 -696.26434 2570.0 1
312.42633 -696.26434 2570.0 1
341.7134 -701.41187 2589.0 1
365.98517 -696.26434 2570.0 1
49.00873 -793.9414 2822.0 1
77.7748 -787.4706 2799.0 1
106.9405 -787.4706 2799.0 1
136.106 -787.4706 2799.0 1
166.62976 -793.9414 2822.0 1
237.41626 -739.6428 2629.0 1
262.79584 -734.016 2609.0 1
289.98172 -734.016 2609.0 1
314.73608 -728.3892 2589.0 1
344.35315 -734.016 2609.0 1
374.38715 -739.6428 2629.0 1
49.824966 -837.0595 2869.0 1
79.052986 -830.05725 2845.0 1
106.9405 -816.6363 2799.0 1
136.106 -816.6363 2799.0 1
165.2717 -816.6363 2799.0 1
239.2224 -772.87225 2649.0 1
264.81036 -767.03705 2629.0 1
287.7588 -755.3667 2589.0 1
314.73608 -755.3667 2589.0 1
344.35315 -761.2019 2609.0 1
380.08344 -778.70746 2669.0 1
411.1037 -784.8344 2690.0 1
49.824966 -866.9544 2869.0 1
79.71987 -866.9544 2869.0 1
108.698006 -859.7021 2845.0 1
137.22441 -852.75195 2822.0 1
166.62976 -852.75195 2822.0 1
244.82141 -819.21 2711.0 1
264.81036 -794.4312 2629.0 1
289.98172 -788.38763 2609.0 1
317.16742 -788.38763 2609.0 1
344.35315 -788.38763 2609.0 1
380.08344 -806.51843 2669.0 1
411.1037 -812.8642 2690.0 1
449.5814 -832.20374 2754.0 1
50.241764 -904.3518 2893.0 1
79.71987 -896.84937 2869.0 1
109.61496 -896.84937 2869.0 1
138.34282 -889.347 2845.0 1
167.98784 -889.347 2845.0 1
264.81036 -821.8254 2629.0 1
292.20465 -821.8254 2629.0 1
317.16742 -815.57336 2609.0 1
346.99286 -821.8254 2629.0 1
380.08344 -834.3294 2669.0 1
411.1037 -840.894 2690.0 1
449.5814 -860.9004 2754.0 1
490.0873 -882.15717 2822.0 1
80.38675 -934.4968 2893.0 1
109.61496 -926.7443 2869.0 1
139.50987 -926.7443 2869.0 1
169.40495 -926.7443 2869.0 1
270.95468 -868.92377 2690.0 1
292.20465 -849.21954 2629.0 1
322.0301 -855.67993 2649.0 1
352.27234 -862.1403 2669.0 1
383.07397 -868.92377 2690.0 1
414.31305 -875.70715 2711.0 1
453.33606 -897.0265 2777.0 1
494.08167 -918.9919 2845.0 1
546.18506 -958.40027 2967.0 1
582.1585 -966.7988 2993.0 1
81.05363 -972.6444 2917.0 1
110.53192 -964.64185 2893.0 1
139.50987 -956.6393 2869.0 1
170.82208 -964.64185 2893.0 1
303.76392 -911.29144 2733.0 1
329.56723 -903.95575 2711.0 1
355.04407 -896.95355 2690.0 1
389.19745 -911.29144 2733.0 1
420.88458 -918.2937 2754.0 1
453.33606 -925.9628 2777.0 1
498.24966 -956.6393 2869.0 1
536.9807 -972.6444 2917.0 1
592.46735 -1015.65814 3046.0 1
608.0174 -989.3164 2967.0 1
51.97843 -1029.173 2993.0 1
81.05363 -1003.0397 2917.0 1
111.44888 -1003.0397 2917.0 1
140.67691 -994.78705 2893.0 1
170.82208 -994.78705 2893.0 1
422.5206 -1020.23267 2967.0 1
438.45966 -986.53436 2869.0 1
468.35477 -986.53436 2869.0 1
498.24966 -986.53436 2869.0 1
536.9807 -1003.0397 2917.0 1
587.21564 -1038.1134 3019.0 1
51.526897 -1051.1488 2967.0 1
81.74829 -1042.2917 2942.0 1
112.40405 -1042.2917 2942.0 1
143.05962 -1042.2917 2942.0 1
170.82208 -1024.932 2893.0 1
445.79535 -1033.4348 2917.0 1
476.19058 -1033.4348 2917.0 1
506.58566 -1033.4348 2917.0 1
546.18506 -1051.1488 2967.0 1
587.21564 -1069.5713 3019.0 1
51.09273 -1072.9474 2942.0 1
81.74829 -1072.9474 2942.0 1
112.40405 -1072.9474 2942.0 1
141.84395 -1063.8298 2917.0 1
461.38367 -1101.0293 3019.0 1
484.35294 -1082.0648 2967.0 1
519.7843 -1091.5471 2993.0 1
550.9713 -1091.5471 2993.0 1
597.719 -1120.723 3073.0 1
51.09273 -1103.603 2942.0 1
81.74829 -1103.603 2942.0 1
112.40405 -1103.603 2942.0 1
143.05962 -1103.603 2942.0 1
178.26196 -1132.4872 3019.0 1
465.50998 -1142.6155 3046.0 1
488.59735 -1122.7341 2993.0 1
519.7843 -1122.7341 2993.0 1
555.75757 -1132.4872 3019.0 1
51.526897 -1143.8971 2967.0 1
81.05363 -1124.6201 2917.0 1
111.44888 -1124.6201 2917.0 1
144.27528 -1143.8971 2967.0 1
179.85623 -1174.3547 3046.0 1
488.59735 -1153.9211 2993.0 1
519.7843 -1153.9211 2993.0 1
550.9713 -1153.9211 2993.0 1
-10.486033 -1195.4033 3019.0 1
20.791452 -1185.1083 2993.0 1
51.526897 -1174.8134 2967.0 1
81.74829 -1164.9143 2942.0 1
112.40405 -1164.9143 2942.0 1
144.27528 -1174.8134 2967.0 1
-10.048391 -1175.6573 2893.0 1
20.43717 -1195.57 2942.0 1
51.09273 -1195.57 2942.0 1
81.74829 -1195.57 2942.0 1
