ply
format ascii 1.0
comment : created from Kinect user tracker
element vertex 676
property float x
property float y
property float z
property int userId
end_header
543.8719 426.73026 2409.0 1
577.00397 432.75302 2443.0 1
594.0755 426.73026 2409.0 1
540.0339 398.79422 2392.0 1
564.95844 398.79422 2392.0 1
594.0755 401.62845 2409.0 1
606.32587 393.29245 2359.0 1
664.65704 398.79422 2392.0 1
684.96906 396.12668 2376.0 1
515.10925 373.8696 2392.0 1
540.0339 373.8696 2392.0 1
564.95844 373.8696 2392.0 1
581.7451 368.7117 2359.0 1
606.32587 368.7117 2359.0 1
622.34845 363.71008 2327.0 1
651.04156 366.2109 2343.0 1
694.4825 376.5267 2409.0 1
518.7702 351.42493 2409.0 1
540.0339 348.94498 2392.0 1
568.97363 351.42493 2409.0 1
585.93744 346.6109 2376.0 1
610.6953 346.6109 2376.0 1
626.62756 341.79684 2343.0 1
651.04156 341.79684 2343.0 1
684.96906 346.6109 2376.0 1
504.11957 333.23157 2460.0 1
522.4311 328.62595 2426.0 1
543.8719 326.32312 2409.0 1
568.97363 326.32312 2409.0 1
585.93744 321.85294 2376.0 1
610.6953 321.85294 2376.0 1
630.90674 319.5501 2359.0 1
655.4874 319.5501 2359.0 1
680.0682 319.5501 2359.0 1
714.50635 324.0203 2392.0 1
504.11957 307.59842 2460.0 1
529.75287 307.59842 2460.0 1
547.7099 303.34705 2426.0 1
568.97363 301.22137 2409.0 1
589.8832 299.09567 2392.0 1
610.6953 297.09503 2376.0 1
635.4533 297.09503 2376.0 1
660.2112 297.09503 2376.0 1
699.38336 303.34705 2426.0 1
719.58435 301.22137 2409.0 1
529.75287 281.96518 2460.0 1
551.548 280.01663 2443.0 1
568.97363 276.11954 2409.0 1
594.0755 276.11954 2409.0 1
610.6953 272.3371 2376.0 1
639.7325 274.17102 2392.0 1
674.1045 278.06808 2426.0 1
699.38336 278.06808 2426.0 1
719.58435 276.11954 2409.0 1
553.441 267.794 2570.0 1
555.386 256.332 2460.0 1
572.9888 252.7892 2426.0 1
594.0755 251.01779 2409.0 1
614.80774 249.2464 2392.0 1
644.27905 251.01779 2409.0 1
664.65704 249.2464 2392.0 1
704.28424 254.5606 2443.0 1
724.6624 252.7892 2426.0 1
559.44977 232.38686 2478.0 1
572.9888 227.5103 2426.0 1
598.2678 227.5103 2426.0 1
619.1772 225.91605 2409.0 1
648.8257 227.5103 2426.0 1
678.82825 229.10455 2443.0 1
719.5634 234.0749 2496.0 1
724.6624 227.5103 2426.0 1
583.8049 225.98894 2711.0 1
607.3123 224.23839 2690.0 1
577.00397 203.64847 2443.0 1
594.0755 200.81422 2409.0 1
623.54663 202.23134 2426.0 1
648.8257 202.23134 2426.0 1
688.5536 206.56607 2478.0 1
719.5634 208.06654 2496.0 1
555.55615 197.74036 2711.0 1
579.2826 196.2086 2690.0 1
593.5405 191.75926 2629.0 1
611.4872 188.84167 2589.0 1
611.0914 180.74533 2478.0 1
636.91205 180.74533 2478.0 1
667.54694 182.05824 2496.0 1
693.5552 182.05824 2496.0 1
719.5634 182.05824 2496.0 1
745.57184 182.05824 2496.0 1
523.22296 168.17877 2690.0 1
555.55615 169.49168 2711.0 1
570.45337 165.61545 2649.0 1
589.0252 163.11465 2609.0 1
611.4872 161.86426 2589.0 1
629.0936 159.4885 2551.0 1
650.7915 158.30061 2532.0 1
672.36096 157.17525 2514.0 1
693.5552 156.0499 2496.0 1
714.37427 154.92453 2478.0 1
740.1951 154.92453 2478.0 1
766.0158 154.92453 2478.0 1
540.145 144.6817 2777.0 1
551.2527 140.149 2690.0 1
566.1464 136.9709 2629.0 1
584.5099 134.8869 2589.0 1
606.99963 133.897 2570.0 1
629.0936 132.9071 2551.0 1
655.675 132.9071 2551.0 1
672.36096 130.9794 2514.0 1
693.5552 130.0416 2496.0 1
714.37427 129.10379 2478.0 1
740.1951 129.10379 2478.0 1
760.45154 128.166 2460.0 1
780.6525 127.2803 2443.0 1
823.5968 130.0416 2496.0 1
531.58673 113.91147 2733.0 1
538.75214 109.576744 2629.0 1
561.83954 108.74314 2609.0 1
580.22034 107.11762 2570.0 1
602.5121 106.32571 2551.0 1
629.0936 106.32571 2551.0 1
646.165 104.78355 2514.0 1
667.54694 104.0333 2496.0 1
693.5552 104.0333 2496.0 1
714.37427 103.283066 2478.0 1
734.8184 102.53282 2460.0 1
749.9412 101.1157 2426.0 1
775.2203 101.1157 2426.0 1
811.71796 102.53282 2460.0 1
527.3076 84.74584 2711.0 1
538.75214 82.182526 2629.0 1
561.83954 81.55733 2609.0 1
575.9308 79.74425 2551.0 1
602.5121 79.74425 2551.0 1
624.4081 79.15031 2532.0 1
646.165 78.58762 2514.0 1
667.54694 78.02495 2496.0 1
688.5536 77.462265 2478.0 1
709.1851 76.89959 2460.0 1
724.6624 75.83675 2426.0 1
749.9412 75.83675 2426.0 1
775.2203 75.83675 2426.0 1
806.1086 76.368164 2443.0 1
843.4781 77.462265 2478.0 1
519.1383 55.62197 2669.0 1
538.75214 54.788372 2629.0 1
557.5326 53.954773 2589.0 1
575.9308 53.162853 2551.0 1
602.5121 53.162853 2551.0 1
624.4081 52.76689 2532.0 1
641.5385 52.01665 2496.0 1
662.7329 51.641533 2478.0 1
688.5536 51.641533 2478.0 1
704.28424 50.912132 2443.0 1
724.6624 50.55785 2426.0 1
749.9412 50.55785 2426.0 1
769.78796 50.20357 2409.0 1
800.49915 50.55785 2426.0 1
825.77795 50.55785 2426.0 1
519.1383 27.810953 2669.0 1
538.75214 27.394154 2629.0 1
557.5326 26.977354 2589.0 1
575.9308 26.581394 2551.0 1
602.5121 26.581394 2551.0 1
624.4081 26.383415 2532.0 1
641.5385 26.008295 2496.0 1
662.7329 25.820734 2478.0 1
688.5536 25.820734 2478.0 1
704.28424 25.456036 2443.0 1
729.7404 25.456036 2443.0 1
749.9412 25.278896 2426.0 1
775.2203 25.278896 2426.0 1
800.49915 25.278896 2426.0 1
831.5646 25.456036 2443.0 1
519.1383 0.0 2669.0 1
534.6536 0.0 2609.0 1
557.5326 0.0 2589.0 1
575.9308 0.0 2551.0 1
602.5121 0.0 2551.0 1
624.4081 0.0 2532.0 1
641.5385 0.0 2496.0 1
662.7329 0.0 2478.0 1
683.552 0.0 2460.0 1
709.1851 0.0 2460.0 1
729.7404 0.0 2443.0 1
749.9412 0.0 2426.0 1
775.2203 0.0 2426.0 1
794.8897 0.0 2409.0 1
825.77795 0.0 2426.0 1
523.22296 -28.029772 2690.0 1
538.75214 -27.394154 2629.0 1
557.5326 -26.977354 2589.0 1
571.6412 -26.383415 2532.0 1
602.5121 -26.581394 2551.0 1
619.9692 -26.195854 2514.0 1
641.5385 -26.008295 2496.0 1
662.7329 -25.820734 2478.0 1
688.5536 -25.820734 2478.0 1
714.37427 -25.820734 2478.0 1
734.8184 -25.633175 2460.0 1
749.9412 -25.278896 2426.0 1
780.6525 -25.456036 2443.0 1
800.49915 -25.278896 2426.0 1
831.5646 -25.456036 2443.0 1
527.3076 -56.497185 2711.0 1
538.75214 -54.788307 2629.0 1
557.5326 -53.95471 2589.0 1
575.9308 -53.16279 2551.0 1
598.02454 -52.76683 2532.0 1
615.5303 -52.01659 2496.0 1
641.5385 -52.01659 2496.0 1
667.54694 -52.01659 2496.0 1
693.5552 -52.01659 2496.0 1
714.37427 -51.641468 2478.0 1
740.1951 -51.641468 2478.0 1
755.1964 -50.91207 2443.0 1
780.6525 -50.91207 2443.0 1
800.49915 -50.557793 2426.0 1
837.35114 -51.26635 2460.0 1
857.0207 -50.91207 2443.0 1
523.22296 -84.089455 2690.0 1
538.75214 -82.182594 2629.0 1
557.5326 -80.93219 2589.0 1
575.9308 -79.74431 2551.0 1
606.99963 -80.33825 2570.0 1
619.9692 -78.58769 2514.0 1
641.5385 -78.02501 2496.0 1
672.36096 -78.58769 2514.0 1
698.55676 -78.58769 2514.0 1
724.7526 -78.58769 2514.0 1
745.57184 -78.02501 2496.0 1
755.1964 -76.368225 2443.0 1
775.2203 -75.83681 2426.0 1
806.1086 -76.368225 2443.0 1
831.5646 -76.368225 2443.0 1
523.22296 -112.119225 2690.0 1
538.75214 -109.576744 2629.0 1
557.5326 -107.909546 2589.0 1
580.22034 -107.11762 2570.0 1
606.99963 -107.11762 2570.0 1
629.0936 -106.32571 2551.0 1
650.7915 -105.53378 2532.0 1
677.175 -105.53378 2532.0 1
703.5584 -105.53378 2532.0 1
729.9418 -105.53378 2532.0 1
750.9486 -104.78355 2514.0 1
766.0158 -103.283066 2478.0 1
780.6525 -101.824265 2443.0 1
806.1086 -101.824265 2443.0 1
837.35114 -102.53282 2460.0 1
503.10876 -142.3893 2733.0 1
523.22296 -140.149 2690.0 1
538.75214 -136.9709 2629.0 1
561.83954 -135.9289 2609.0 1
584.5099 -134.8869 2589.0 1
606.99963 -133.897 2570.0 1
633.7792 -133.897 2570.0 1
655.675 -132.9071 2551.0 1
682.25653 -132.9071 2551.0 1
708.8378 -132.9071 2551.0 1
735.4192 -132.9071 2551.0 1
762.00073 -132.9071 2551.0 1
777.1444 -130.9794 2514.0 1
791.8367 -129.10379 2478.0 1
817.6574 -129.10379 2478.0 1
843.4781 -129.10379 2478.0 1
550.9713 -187.12233 2993.0 1
519.1383 -166.86584 2669.0 1
538.75214 -164.36505 2629.0 1
561.83954 -163.11465 2609.0 1
580.22034 -160.67638 2570.0 1
611.4872 -161.86426 2589.0 1
633.7792 -160.67638 2570.0 1
660.5585 -160.67638 2570.0 1
687.338 -160.67638 2570.0 1
714.1173 -160.67638 2570.0 1
740.89667 -160.67638 2570.0 1
767.67615 -160.67638 2570.0 1
782.7087 -158.30061 2532.0 1
791.8367 -154.92453 2478.0 1
817.6574 -154.92453 2478.0 1
849.60504 -156.0499 2496.0 1
533.6777 -224.14456 3073.0 1
560.7279 -222.17517 3046.0 1
523.22296 -196.20854 2690.0 1
538.75214 -191.7592 2629.0 1
561.83954 -190.3004 2609.0 1
580.22034 -187.45575 2570.0 1
611.4872 -188.8416 2589.0 1
633.7792 -187.45575 2570.0 1
660.5585 -187.45575 2570.0 1
687.338 -187.45575 2570.0 1
714.1173 -187.45575 2570.0 1
740.89667 -187.45575 2570.0 1
767.67615 -187.45575 2570.0 1
788.5821 -186.06989 2551.0 1
797.5885 -182.05818 2496.0 1
823.5968 -182.05818 2496.0 1
843.4781 -180.74527 2478.0 1
538.54034 -258.49942 3101.0 1
560.7279 -253.91461 3046.0 1
527.3076 -225.98901 2711.0 1
538.75214 -219.15349 2629.0 1
561.83954 -217.48628 2609.0 1
584.5099 -215.81909 2589.0 1
616.21094 -217.48628 2609.0 1
638.46466 -215.81909 2589.0 1
665.442 -215.81909 2589.0 1
687.338 -214.23524 2570.0 1
719.3968 -215.81909 2589.0 1
740.89667 -214.23524 2570.0 1
773.35156 -215.81909 2589.0 1
788.5821 -212.65141 2551.0 1
797.5885 -208.0666 2496.0 1
823.5968 -208.0666 2496.0 1
849.60504 -208.0666 2496.0 1
501.65707 -288.18597 3073.0 1
533.6777 -288.18597 3073.0 1
550.9713 -280.68356 2993.0 1
527.3076 -254.23761 2711.0 1
546.9492 -250.29884 2669.0 1
566.1464 -246.54764 2629.0 1
589.0252 -244.67204 2609.0 1
616.21094 -244.67204 2609.0 1
638.46466 -242.79645 2589.0 1
670.5825 -244.67204 2609.0 1
692.4195 -242.79645 2589.0 1
714.1173 -241.01462 2570.0 1
740.89667 -241.01462 2570.0 1
779.3257 -244.67204 2609.0 1
794.4555 -241.01462 2570.0 1
797.5885 -234.0749 2496.0 1
823.5968 -234.0749 2496.0 1
843.4781 -232.38686 2478.0 1
506.228 -323.1242 3101.0 1
538.54034 -323.1242 3101.0 1
528.14453 -298.9498 2869.0 1
531.58673 -284.7786 2733.0 1
551.2527 -280.298 2690.0 1
566.1464 -273.9418 2629.0 1
589.0252 -271.8578 2609.0 1
620.9347 -273.9418 2629.0 1
648.329 -273.9418 2629.0 1
670.5825 -271.8578 2609.0 1
692.4195 -269.7738 2589.0 1
719.3968 -269.7738 2589.0 1
752.13983 -271.8578 2609.0 1
779.3257 -271.8578 2609.0 1
794.4555 -267.794 2570.0 1
797.5885 -260.0832 2496.0 1
817.6574 -258.20758 2478.0 1
843.4781 -258.20758 2478.0 1
491.4905 -368.6179 3216.0 1
506.228 -355.43658 3101.0 1
533.6777 -352.22723 3073.0 1
528.14453 -328.84476 2869.0 1
535.6714 -315.66345 2754.0 1
555.55615 -310.7348 2711.0 1
570.45337 -303.62836 2649.0 1
593.5405 -301.33594 2629.0 1
620.9347 -301.33594 2629.0 1
643.3968 -299.04355 2609.0 1
675.7231 -301.33594 2629.0 1
697.76843 -299.04355 2609.0 1
724.9541 -299.04355 2609.0 1
757.9056 -301.33594 2629.0 1
785.29987 -301.33594 2629.0 1
788.5821 -292.3956 2551.0 1
803.3404 -288.15466 2514.0 1
823.5968 -286.0915 2496.0 1
506.228 -387.74896 3101.0 1
515.269 -370.99362 2967.0 1
528.14453 -358.7397 2869.0 1
535.6714 -344.3601 2754.0 1
555.55615 -338.98337 2711.0 1
574.7603 -333.7317 2669.0 1
593.5405 -328.7301 2629.0 1
625.6584 -331.2309 2649.0 1
648.329 -328.7301 2629.0 1
675.7231 -328.7301 2629.0 1
697.76843 -326.2293 2609.0 1
730.5115 -328.7301 2629.0 1
757.9056 -328.7301 2629.0 1
785.29987 -328.7301 2629.0 1
777.1444 -314.3505 2514.0 1
797.5885 -312.0998 2496.0 1
817.6574 -309.84906 2478.0 1
484.35294 -401.90988 2967.0 1
506.58566 -395.13687 2917.0 1
519.4925 -382.26816 2822.0 1
531.58673 -370.21222 2733.0 1
551.2527 -364.38745 2690.0 1
574.7603 -361.5428 2669.0 1
598.0559 -358.8336 2649.0 1
625.6584 -358.8336 2649.0 1
648.329 -356.1244 2629.0 1
675.7231 -356.1244 2629.0 1
703.1174 -356.1244 2629.0 1
730.5115 -356.1244 2629.0 1
763.6713 -358.8336 2649.0 1
785.29987 -356.1244 2629.0 1
777.1444 -340.54648 2514.0 1
797.5885 -338.10822 2496.0 1
817.6574 -335.66992 2478.0 1
480.27176 -429.179 2942.0 1
502.41766 -422.03085 2893.0 1
515.2585 -408.31815 2799.0 1
531.58673 -398.69006 2733.0 1
555.55615 -395.4807 2711.0 1
579.2826 -392.4172 2690.0 1
598.0559 -386.43613 2649.0 1
625.6584 -386.43613 2649.0 1
653.2611 -386.43613 2649.0 1
670.5825 -380.60095 2609.0 1
703.1174 -383.51852 2629.0 1
730.5115 -383.51852 2629.0 1
763.6713 -386.43613 2649.0 1
779.3257 -380.60095 2609.0 1
782.7087 -369.36816 2532.0 1
803.3404 -366.74234 2514.0 1
817.6574 -361.49066 2478.0 1
476.19058 -455.9271 2917.0 1
498.24966 -448.42468 2869.0 1
523.7265 -444.6735 2845.0 1
544.4242 -437.4837 2799.0 1
555.55615 -423.72928 2711.0 1
574.7603 -417.1647 2669.0 1
593.5405 -410.9127 2629.0 1
625.6584 -414.0387 2649.0 1
653.2611 -414.0387 2649.0 1
680.8636 -414.0387 2649.0 1
703.1174 -410.9127 2629.0 1
730.5115 -410.9127 2629.0 1
769.437 -417.1647 2669.0 1
767.67615 -401.69098 2570.0 1
777.1444 -392.9382 2514.0 1
803.3404 -392.9382 2514.0 1
476.19058 -486.3222 2917.0 1
502.41766 -482.32092 2893.0 1
528.14453 -478.31964 2869.0 1
544.4242 -466.64923 2799.0 1
555.55615 -451.97787 2711.0 1
574.7603 -444.97565 2669.0 1
598.0559 -441.64124 2649.0 1
625.6584 -441.64124 2649.0 1
653.2611 -441.64124 2649.0 1
675.7231 -438.30685 2629.0 1
703.1174 -438.30685 2629.0 1
736.0688 -441.64124 2649.0 1
769.437 -444.97565 2669.0 1
762.00073 -425.30267 2551.0 1
788.5821 -425.30267 2551.0 1
809.0922 -422.135 2532.0 1
480.27176 -521.1458 2942.0 1
502.41766 -512.46594 2893.0 1
532.5626 -512.46594 2893.0 1
548.8978 -499.889 2822.0 1
555.55615 -480.22647 2711.0 1
579.2826 -476.50653 2690.0 1
602.5712 -472.7866 2669.0 1
625.6584 -469.2438 2649.0 1
653.2611 -469.2438 2649.0 1
680.8636 -469.2438 2649.0 1
708.46625 -469.2438 2649.0 1
736.0688 -469.2438 2649.0 1
746.3741 -458.6154 2589.0 1
767.67615 -455.24973 2570.0 1
788.5821 -451.8841 2551.0 1
815.1636 -451.8841 2551.0 1
453.43668 -556.49054 2967.0 1
480.27176 -551.8016 2942.0 1
502.41766 -542.61115 2893.0 1
528.14453 -538.1097 2869.0 1
553.3715 -533.6083 2845.0 1
555.55615 -508.47522 2711.0 1
579.2826 -504.53644 2690.0 1
598.0559 -496.8465 2649.0 1
630.38214 -500.5977 2669.0 1
658.19324 -500.5977 2669.0 1
686.00415 -500.5977 2669.0 1
713.8152 -500.5977 2669.0 1
736.0688 -496.8465 2649.0 1
746.3741 -485.5929 2589.0 1
767.67615 -482.02924 2570.0 1
788.5821 -478.4656 2551.0 1
453.43668 -587.4067 2967.0 1
480.27176 -582.45715 2942.0 1
506.58566 -577.5077 2917.0 1
532.5626 -572.75616 2893.0 1
558.0397 -568.00464 2869.0 1
560.0645 -541.07935 2733.0 1
579.2826 -532.5662 2690.0 1
602.5712 -528.4086 2669.0 1
635.34204 -532.5662 2690.0 1
658.19324 -528.4086 2669.0 1
686.00415 -528.4086 2669.0 1
719.4316 -532.5662 2690.0 1
736.0688 -524.44904 2649.0 1
746.3741 -512.57025 2589.0 1
767.67615 -508.80862 2570.0 1
788.5821 -505.047 2551.0 1
815.1636 -505.047 2551.0 1
453.43668 -618.3228 2967.0 1
480.27176 -613.1128 2942.0 1
506.58566 -607.9028 2917.0 1
532.5626 -602.9012 2893.0 1
558.0397 -597.8996 2869.0 1
560.0645 -569.5572 2733.0 1
579.2826 -560.596 2690.0 1
602.5712 -556.2196 2669.0 1
640.30194 -564.9724 2711.0 1
668.5507 -564.9724 2711.0 1
696.79926 -564.9724 2711.0 1
719.4316 -560.596 2690.0 1
730.5115 -547.8836 2629.0 1
752.13983 -543.7156 2609.0 1
773.35156 -539.5476 2589.0 1
794.4555 -535.588 2570.0 1
453.43668 -649.2389 2967.0 1
484.35294 -649.2389 2967.0 1
510.92734 -643.7684 2942.0 1
532.5626 -633.0462 2893.0 1
558.0397 -627.79456 2869.0 1
560.0645 -598.03503 2733.0 1
579.2826 -588.62573 2690.0 1
607.3123 -588.62573 2690.0 1
640.30194 -593.221 2711.0 1
668.5507 -593.221 2711.0 1
696.79926 -593.221 2711.0 1
724.9541 -570.90137 2609.0 1
746.3741 -566.52496 2589.0 1
767.67615 -562.3674 2570.0 1
794.4555 -562.3674 2570.0 1
815.1636 -558.2098 2551.0 1
457.41016 -686.11523 2993.0 1
484.35294 -680.155 2967.0 1
515.269 -680.155 2967.0 1
541.5829 -674.424 2942.0 1
562.7078 -663.1912 2893.0 1
564.368 -631.3269 2754.0 1
583.8049 -621.4696 2711.0 1
607.3123 -616.6555 2690.0 1
640.30194 -621.4696 2711.0 1
673.9761 -626.5129 2733.0 1
702.45386 -626.5129 2733.0 1
708.8378 -584.7912 2551.0 1
757.9056 -602.6719 2629.0 1
779.3257 -598.0871 2609.0 1
794.4555 -589.1467 2570.0 1
809.0922 -580.4356 2532.0 1
488.59735 -717.3024 2993.0 1
515.269 -711.0713 2967.0 1
546.18506 -711.0713 2967.0 1
567.376 -699.08826 2917.0 1
569.0813 -665.5359 2777.0 1
588.5425 -654.99084 2733.0 1
612.0534 -649.7183 2711.0 1
650.458 -660.0237 2754.0 1
684.8267 -665.5359 2777.0 1
785.29987 -630.06616 2629.0 1
519.7843 -748.48944 2993.0 1
550.9713 -748.48944 2993.0 1
577.1013 -741.98737 2967.0 1
569.0813 -694.47217 2777.0 1
588.5425 -683.4686 2733.0 1
612.0534 -677.9669 2711.0 1
655.89026 -694.47217 2777.0 1
690.2521 -699.97394 2799.0 1
804.2364 -782.50037 3129.0 1
562.7078 -753.62646 2893.0 1
573.5897 -729.13947 2799.0 1
593.06476 -717.417 2754.0 1
621.7614 -717.417 2754.0 1
655.89026 -723.4085 2777.0 1
684.8267 -723.4085 2777.0 1
797.0396 -807.8105 3101.0 1
836.8407 -815.1045 3129.0 1
553.3715 -770.76733 2845.0 1
573.5897 -758.30505 2799.0 1
598.01776 -752.3448 2777.0 1
626.95404 -752.3448 2777.0 1
655.89026 -752.3448 2777.0 1
744.50555 -817.9074 3019.0 1
797.0396 -840.12286 3101.0 1
836.8407 -847.7086 3129.0 1
861.6645 -840.12286 3101.0 1
553.3715 -800.41223 2845.0 1
578.303 -793.9414 2822.0 1
602.7554 -787.4706 2799.0 1
626.95404 -781.2811 2777.0 1
671.951 -800.41223 2845.0 1
744.50555 -849.36536 3019.0 1
797.0396 -872.43524 3101.0 1
829.3522 -872.43524 3101.0 1
861.6645 -872.43524 3101.0 1
893.97687 -872.43524 3101.0 1
934.6532 -880.3128 3129.0 1
583.0163 -830.05725 2845.0 1
602.7554 -816.6363 2799.0 1
631.9209 -816.6363 2799.0 1
671.951 -830.05725 2845.0 1
725.51685 -858.358 2942.0 1
789.8429 -896.57855 3073.0 1
829.3522 -904.7478 3101.0 1
861.6645 -904.7478 3101.0 1
893.97687 -904.7478 3101.0 1
934.6532 -912.9171 3129.0 1
967.25726 -912.9171 3129.0 1
587.9346 -866.9544 2869.0 1
612.6613 -859.7021 2845.0 1
637.1135 -852.75195 2822.0 1
683.28796 -874.2067 2893.0 1
725.51685 -889.01355 2942.0 1
797.0396 -937.0602 3101.0 1
836.8407 -945.52124 3129.0 1
861.6645 -937.0602 3101.0 1
902.0489 -945.52124 3129.0 1
934.6532 -945.52124 3129.0 1
984.8775 -962.7455 3186.0 1
592.8528 -904.3518 2893.0 1
617.82965 -896.84937 2869.0 1
642.30615 -889.347 2845.0 1
683.28796 -904.3518 2893.0 1
764.7273 -969.37256 3101.0 1
804.2364 -978.12537 3129.0 1
844.3292 -986.8782 3157.0 1
869.44476 -978.12537 3129.0 1
902.0489 -978.12537 3129.0 1
934.6532 -978.12537 3129.0 1
602.8942 -950.32477 2942.0 1
622.998 -934.4968 2893.0 1
642.30615 -918.9919 2845.0 1
688.9564 -942.24927 2917.0 1
771.63226 -1010.72955 3129.0 1
811.4331 -1019.7741 3157.0 1
852.08514 -1029.1417 3186.0 1
877.22504 -1019.7741 3157.0 1
910.1209 -1019.7741 3157.0 1
608.0174 -989.3164 2967.0 1
628.1663 -972.6444 2917.0 1
647.72455 -956.6393 2869.0 1
694.8611 -980.9804 2942.0 1
785.68884 -1062.3397 3186.0 1
818.8869 -1062.3397 3186.0 1
852.08514 -1062.3397 3186.0 1
885.2832 -1062.3397 3186.0 1
592.46735 -1047.3976 3046.0 1
608.0174 -1020.23267 2967.0 1
633.55 -1011.63617 2942.0 1
664.2055 -1011.63617 2942.0 1
719.4245 -1047.3976 3046.0 1
793.0871 -1105.8538 3216.0 1
826.5977 -1105.8538 3216.0 1
582.1585 -1060.3601 2993.0 1
608.0174 -1051.1488 2967.0 1
638.93365 -1051.1488 2967.0 1
664.2055 -1042.2917 2942.0 1
713.0474 -1069.5713 3019.0 1
582.1585 -1091.5471 2993.0 1
613.34546 -1091.5471 2993.0 1
644.53265 -1091.5471 2993.0 1
675.7196 -1091.5471 2993.0 1
725.8015 -1120.723 3073.0 1
533.6777 -1152.7437 3073.0 1
565.69824 -1152.7437 3073.0 1
582.1585 -1122.7341 2993.0 1
613.34546 -1122.7341 2993.0 1
644.53265 -1122.7341 2993.0 1
524.2997 -1163.9452 3019.0 1
555.75757 -1163.9452 3019.0 1
592.46735 -1174.3547 3046.0 1
613.34546 -1153.9211 2993.0 1
644.53265 -1153.9211 2993.0 1
681.58954 -1163.9452 3019.0 1
613.34546 -1185.1083 2993.0 1
644.53265 -1185.1083 2993.0 1
