ply
format ascii 1.0
comment : created from Kinect user tracker
element vertex 780
property float x
property float y
property float z
property int userId
end_header
307.1329 412.20477 2327.0 1
279.23862 382.9558 2297.0 1
303.1733 382.9558 2297.0 1
324.82962 380.2883 2281.0 1
229.75749 356.5203 2281.0 1
251.8584 354.17578 2266.0 1
275.47006 354.17578 2266.0 1
299.08173 354.17578 2266.0 1
322.69354 354.17578 2266.0 1
346.30518 354.17578 2266.0 1
372.3657 356.5203 2281.0 1
207.43443 335.08636 2297.0 1
228.2466 330.5641 2266.0 1
251.8584 330.5641 2266.0 1
273.76813 328.5218 2252.0 1
295.25412 326.3336 2237.0 1
320.69983 328.5218 2252.0 1
341.87323 326.3336 2237.0 1
369.917 330.5641 2266.0 1
183.4996 311.1516 2297.0 1
207.43443 311.1516 2297.0 1
229.75749 308.98425 2281.0 1
251.8584 306.95233 2266.0 1
273.76813 305.0559 2252.0 1
295.25412 303.02402 2237.0 1
318.56375 303.02402 2237.0 1
344.16562 305.0559 2252.0 1
369.917 306.95233 2266.0 1
396.13367 308.98425 2281.0 1
185.89621 290.96808 2327.0 1
208.78905 289.0925 2312.0 1
231.36913 287.2169 2297.0 1
253.5256 285.21625 2281.0 1
273.76813 281.5901 2252.0 1
297.23392 281.5901 2252.0 1
320.69983 281.5901 2252.0 1
344.16562 281.5901 2252.0 1
367.63156 281.5901 2252.0 1
396.13367 285.21625 2281.0 1
417.14032 283.34064 2266.0 1
166.16426 274.17102 2392.0 1
188.45258 270.38855 2359.0 1
211.58855 268.55463 2343.0 1
231.36913 263.2821 2297.0 1
251.8584 259.72888 2266.0 1
275.47006 259.72888 2266.0 1
297.23392 258.1242 2252.0 1
318.56375 256.4049 2237.0 1
344.16562 258.1242 2252.0 1
372.3657 261.44818 2281.0 1
404.1223 266.7207 2327.0 1
187.1744 244.1406 2343.0 1
211.58855 244.1406 2343.0 1
232.88002 240.9104 2312.0 1
253.5256 237.68019 2281.0 1
275.47006 236.1172 2266.0 1
299.08173 236.1172 2266.0 1
322.69354 236.1172 2266.0 1
348.5976 237.68019 2281.0 1
379.87506 242.47339 2327.0 1
406.901 244.1406 2343.0 1
431.315 244.1406 2343.0 1
216.01358 224.32178 2392.0 1
234.39091 218.22607 2327.0 1
255.30396 215.41267 2297.0 1
277.29355 213.9122 2281.0 1
299.08173 212.5055 2266.0 1
324.82962 213.9122 2281.0 1
348.5976 213.9122 2281.0 1
382.487 219.72656 2343.0 1
412.632 222.8213 2376.0 1
220.61922 203.64847 2443.0 1
236.00255 195.31247 2343.0 1
255.30396 191.4779 2297.0 1
277.29355 190.14415 2281.0 1
299.08173 188.89374 2266.0 1
324.82962 190.14415 2281.0 1
353.3352 192.7283 2312.0 1
382.487 195.31247 2343.0 1
415.41064 199.39711 2392.0 1
205.30865 187.45581 2570.0 1
230.37233 186.06995 2551.0 1
255.03989 184.68408 2532.0 1
258.63834 169.73138 2327.0 1
279.23862 167.54318 2297.0 1
301.06152 166.37614 2281.0 1
329.24423 168.63728 2312.0 1
360.51807 172.06548 2359.0 1
393.2613 175.71246 2409.0 1
179.8492 161.86426 2589.0 1
203.79082 159.4885 2551.0 1
228.65651 158.30061 2532.0 1
251.41373 156.0499 2496.0 1
269.64188 151.6735 2426.0 1
281.06213 144.54622 2312.0 1
303.1733 143.60841 2297.0 1
333.65884 146.48433 2343.0 1
365.56134 149.54782 2392.0 1
390.48608 149.54782 2392.0 1
418.363 150.61066 2409.0 1
440.33524 149.54782 2392.0 1
152.87189 134.8869 2589.0 1
177.20946 132.9071 2551.0 1
203.79082 132.9071 2551.0 1
228.65651 131.91719 2532.0 1
249.60065 129.10379 2478.0 1
273.42087 128.166 2460.0 1
292.8541 125.508896 2409.0 1
315.71204 124.6232 2392.0 1
343.05768 125.508896 2409.0 1
365.56134 124.6232 2392.0 1
390.48608 124.6232 2392.0 1
415.41064 124.6232 2392.0 1
440.33524 124.6232 2392.0 1
462.14786 123.7896 2376.0 1
154.05283 108.74314 2609.0 1
177.20946 106.32571 2551.0 1
200.835 104.78355 2514.0 1
223.77995 103.283066 2478.0 1
247.78757 102.53282 2460.0 1
271.53137 101.824265 2443.0 1
292.8541 100.40714 2409.0 1
315.71204 99.698586 2392.0 1
343.05768 100.40714 2409.0 1
365.56134 99.698586 2392.0 1
390.48608 99.698586 2392.0 1
415.41064 99.698586 2392.0 1
434.26038 98.32314 2359.0 1
458.84125 98.32314 2359.0 1
483.42197 98.32314 2359.0 1
154.05283 81.55733 2609.0 1
177.20946 79.74425 2551.0 1
199.39705 78.02495 2496.0 1
222.15443 76.89959 2460.0 1
246.07521 76.368164 2443.0 1
269.64188 75.83675 2426.0 1
292.8541 75.30533 2409.0 1
313.60025 74.27375 2376.0 1
340.63678 74.77391 2392.0 1
365.56134 74.77391 2392.0 1
390.48608 74.77391 2392.0 1
409.67966 73.742325 2359.0 1
431.315 73.242165 2343.0 1
455.72916 73.242165 2343.0 1
480.14313 73.242165 2343.0 1
508.00284 73.742325 2359.0 1
154.05283 54.37157 2609.0 1
175.8896 52.76689 2532.0 1
199.39705 52.01665 2496.0 1
222.15443 51.26641 2460.0 1
244.36285 50.55785 2426.0 1
267.75238 50.20357 2409.0 1
290.78748 49.849293 2392.0 1
315.71204 49.849293 2392.0 1
340.63678 49.849293 2392.0 1
363.11612 49.51585 2376.0 1
382.487 48.828133 2343.0 1
406.901 48.828133 2343.0 1
431.315 48.828133 2343.0 1
455.72916 48.828133 2343.0 1
476.86432 48.49469 2327.0 1
504.55728 48.828133 2343.0 1
525.359 48.49469 2327.0 1
131.82686 28.248592 2711.0 1
155.23375 27.394154 2629.0 1
173.3888 26.008295 2496.0 1
197.95909 25.820734 2478.0 1
222.15443 25.633175 2460.0 1
242.6505 25.101755 2409.0 1
267.75238 25.101755 2409.0 1
288.8424 24.757896 2376.0 1
315.71204 24.924616 2392.0 1
340.63678 24.924616 2392.0 1
360.51807 24.580755 2359.0 1
382.487 24.414036 2343.0 1
406.901 24.414036 2343.0 1
431.315 24.414036 2343.0 1
455.72916 24.414036 2343.0 1
476.86432 24.247316 2327.0 1
501.11176 24.247316 2327.0 1
525.359 24.247316 2327.0 1
131.82686 0.0 2711.0 1
155.23375 0.0 2629.0 1
173.3888 0.0 2496.0 1
196.52113 0.0 2460.0 1
220.61922 0.0 2443.0 1
242.6505 0.0 2409.0 1
267.75238 0.0 2409.0 1
290.78748 0.0 2392.0 1
313.60025 0.0 2376.0 1
335.93735 0.0 2359.0 1
358.07285 0.0 2343.0 1
382.487 0.0 2343.0 1
406.901 0.0 2343.0 1
431.315 0.0 2343.0 1
455.72916 0.0 2343.0 1
476.86432 0.0 2327.0 1
504.55728 0.0 2343.0 1
528.9713 0.0 2343.0 1
150.62811 -26.581394 2551.0 1
172.1384 -25.820734 2478.0 1
196.52113 -25.633175 2460.0 1
220.61922 -25.456036 2443.0 1
244.36285 -25.278896 2426.0 1
265.86288 -24.924616 2392.0 1
290.78748 -24.924616 2392.0 1
313.60025 -24.757896 2376.0 1
335.93735 -24.580755 2359.0 1
358.07285 -24.414036 2343.0 1
382.487 -24.414036 2343.0 1
406.901 -24.414036 2343.0 1
431.315 -24.414036 2343.0 1
455.72916 -24.414036 2343.0 1
480.14313 -24.414036 2343.0 1
504.55728 -24.414036 2343.0 1
532.58356 -24.580755 2359.0 1
564.95844 -24.924616 2392.0 1
173.3888 -52.01659 2496.0 1
196.52113 -51.26635 2460.0 1
222.15443 -51.26635 2460.0 1
244.36285 -50.557793 2426.0 1
265.86288 -49.84923 2392.0 1
288.8424 -49.515793 2376.0 1
311.35648 -49.16151 2359.0 1
335.93735 -49.16151 2359.0 1
360.51807 -49.16151 2359.0 1
385.09894 -49.16151 2359.0 1
406.901 -48.82807 2343.0 1
434.26038 -49.16151 2359.0 1
455.72916 -48.82807 2343.0 1
476.86432 -48.494633 2327.0 1
501.11176 -48.494633 2327.0 1
528.9713 -48.82807 2343.0 1
163.97267 -86.809074 2777.0 1
174.63919 -78.58769 2514.0 1
197.95909 -77.462326 2478.0 1
220.61922 -76.368225 2443.0 1
244.36285 -75.83681 2426.0 1
265.86288 -74.773964 2392.0 1
288.8424 -74.2738 2376.0 1
311.35648 -73.742386 2359.0 1
335.93735 -73.742386 2359.0 1
360.51807 -73.742386 2359.0 1
382.487 -73.242226 2343.0 1
412.632 -74.2738 2376.0 1
437.38986 -74.2738 2376.0 1
458.84125 -73.742386 2359.0 1
480.14313 -73.242226 2343.0 1
504.55728 -73.242226 2343.0 1
532.58356 -73.742386 2359.0 1
136.106 -116.662346 2799.0 1
163.97267 -115.745384 2777.0 1
173.3888 -104.0333 2496.0 1
196.52113 -102.53282 2460.0 1
222.15443 -102.53282 2460.0 1
244.36285 -101.1157 2426.0 1
267.75238 -100.40714 2409.0 1
290.78748 -99.698586 2392.0 1
313.60025 -99.0317 2376.0 1
335.93735 -98.32314 2359.0 1
363.11612 -99.0317 2376.0 1
387.87415 -99.0317 2376.0 1
415.41064 -99.698586 2392.0 1
440.33524 -99.698586 2392.0 1
458.84125 -98.32314 2359.0 1
480.14313 -97.656265 2343.0 1
504.55728 -97.656265 2343.0 1
536.4216 -99.0317 2376.0 1
136.106 -145.8279 2799.0 1
165.2717 -145.8279 2799.0 1
172.1384 -129.10379 2478.0 1
196.52113 -128.166 2460.0 1
222.15443 -128.166 2460.0 1
244.36285 -126.3946 2426.0 1
267.75238 -125.508896 2409.0 1
290.78748 -124.6232 2392.0 1
315.71204 -124.6232 2392.0 1
338.35828 -123.7896 2376.0 1
365.56134 -124.6232 2392.0 1
390.48608 -124.6232 2392.0 1
415.41064 -124.6232 2392.0 1
443.46472 -125.508896 2409.0 1
465.25998 -124.6232 2392.0 1
480.14313 -122.0703 2343.0 1
504.55728 -122.0703 2343.0 1
532.58356 -122.9039 2359.0 1
136.106 -174.99345 2799.0 1
165.2717 -174.99345 2799.0 1
174.63919 -157.17525 2514.0 1
197.95909 -154.92453 2478.0 1
222.15443 -153.79918 2460.0 1
246.07521 -152.73633 2443.0 1
267.75238 -150.61066 2409.0 1
292.8541 -150.61066 2409.0 1
317.9558 -150.61066 2409.0 1
343.05768 -150.61066 2409.0 1
368.1594 -150.61066 2409.0 1
393.2613 -150.61066 2409.0 1
421.31534 -151.6735 2426.0 1
449.72366 -152.73633 2443.0 1
465.25998 -149.54782 2392.0 1
486.90573 -148.5475 2376.0 1
508.00284 -147.48465 2359.0 1
536.4216 -148.5475 2376.0 1
109.61496 -209.2648 2869.0 1
137.22441 -205.83662 2822.0 1
165.2717 -204.159 2799.0 1
175.8896 -184.68402 2532.0 1
197.95909 -180.74527 2478.0 1
222.15443 -179.43234 2460.0 1
246.07521 -178.19237 2443.0 1
267.75238 -175.7124 2409.0 1
294.92072 -176.9524 2426.0 1
317.9558 -175.7124 2409.0 1
343.05768 -175.7124 2409.0 1
373.3555 -178.19237 2443.0 1
396.03647 -176.9524 2426.0 1
424.26767 -178.19237 2443.0 1
452.85312 -179.43234 2460.0 1
468.5666 -175.7124 2409.0 1
483.42197 -172.06541 2359.0 1
508.00284 -172.06541 2359.0 1
536.4216 -173.30539 2376.0 1
107.81925 -235.24197 2822.0 1
137.22441 -235.24197 2822.0 1
166.62976 -235.24197 2822.0 1
175.8896 -211.06757 2532.0 1
197.95909 -206.56613 2478.0 1
222.15443 -205.06564 2460.0 1
246.07521 -203.64853 2443.0 1
271.53137 -203.64853 2443.0 1
296.98737 -203.64853 2443.0 1
320.1996 -202.2314 2426.0 1
345.4786 -202.2314 2426.0 1
370.75745 -202.2314 2426.0 1
398.81168 -203.64853 2443.0 1
427.22 -205.06564 2460.0 1
456.1667 -206.56613 2478.0 1
471.8732 -202.2314 2426.0 1
490.18454 -199.39717 2392.0 1
511.66373 -198.0634 2376.0 1
536.4216 -198.0634 2376.0 1
79.71987 -269.05484 2869.0 1
107.81925 -264.6472 2822.0 1
136.106 -262.49023 2799.0 1
165.2717 -262.49023 2799.0 1
175.8896 -237.45097 2532.0 1
199.39705 -234.0749 2496.0 1
223.77995 -232.38686 2478.0 1
247.78757 -230.69882 2460.0 1
271.53137 -229.10455 2443.0 1
299.054 -230.69882 2460.0 1
322.44336 -229.10455 2443.0 1
350.32043 -230.69882 2460.0 1
375.95355 -230.69882 2460.0 1
401.58685 -230.69882 2460.0 1
430.34598 -232.38686 2478.0 1
466.10736 -237.45097 2532.0 1
468.5666 -225.91605 2409.0 1
490.18454 -224.32178 2392.0 1
511.66373 -222.8213 2376.0 1
536.4216 -222.8213 2376.0 1
79.71987 -298.9498 2869.0 1
109.61496 -298.9498 2869.0 1
137.22441 -294.0524 2822.0 1
155.23375 -273.9418 2629.0 1
175.8896 -263.83438 2532.0 1
199.39705 -260.0832 2496.0 1
223.77995 -258.20758 2478.0 1
249.60065 -258.20758 2478.0 1
273.42087 -256.332 2460.0 1
301.2422 -258.20758 2478.0 1
327.0629 -258.20758 2478.0 1
350.32043 -256.332 2460.0 1
378.70444 -258.20758 2478.0 1
404.5253 -258.20758 2478.0 1
430.34598 -258.20758 2478.0 1
466.10736 -263.83438 2532.0 1
471.8732 -252.7892 2426.0 1
490.18454 -249.2464 2392.0 1
511.66373 -247.5792 2376.0 1
532.58356 -245.8078 2359.0 1
50.241764 -331.5956 2893.0 1
79.71987 -328.84476 2869.0 1
109.61496 -328.84476 2869.0 1
137.22441 -323.4576 2822.0 1
156.41469 -303.62836 2649.0 1
178.52933 -294.57336 2570.0 1
200.835 -288.15466 2514.0 1
225.40547 -286.0915 2496.0 1
249.60065 -284.02832 2478.0 1
275.4215 -284.02832 2478.0 1
299.054 -281.96518 2460.0 1
327.0629 -284.02832 2478.0 1
352.88376 -284.02832 2478.0 1
378.70444 -284.02832 2478.0 1
404.5253 -284.02832 2478.0 1
433.472 -286.0915 2496.0 1
466.10736 -290.2178 2532.0 1
468.5666 -276.11954 2409.0 1
490.18454 -274.17102 2392.0 1
511.66373 -272.3371 2376.0 1
536.4216 -272.3371 2376.0 1
557.16425 -270.38855 2359.0 1
50.241764 -361.74066 2893.0 1
79.71987 -358.7397 2869.0 1
109.61496 -358.7397 2869.0 1
133.9178 -344.3601 2754.0 1
157.59563 -333.7317 2669.0 1
179.8492 -323.72852 2589.0 1
202.27296 -316.60123 2532.0 1
227.03099 -314.3505 2514.0 1
249.60065 -309.84906 2478.0 1
275.4215 -309.84906 2478.0 1
301.2422 -309.84906 2478.0 1
327.0629 -309.84906 2478.0 1
352.88376 -309.84906 2478.0 1
378.70444 -309.84906 2478.0 1
407.46375 -312.0998 2496.0 1
439.724 -316.60123 2532.0 1
469.605 -318.977 2551.0 1
465.25998 -299.09564 2392.0 1
483.42197 -294.9693 2359.0 1
511.66373 -297.095 2376.0 1
536.4216 -297.095 2376.0 1
49.824966 -388.6348 2869.0 1
79.71987 -388.6348 2869.0 1
108.698006 -385.38376 2845.0 1
131.82686 -367.23212 2711.0 1
157.59563 -361.5428 2669.0 1
181.23853 -353.4152 2609.0 1
205.30865 -348.13223 2570.0 1
228.65651 -342.98477 2532.0 1
253.2268 -340.54648 2514.0 1
277.42215 -338.10822 2496.0 1
303.4304 -338.10822 2496.0 1
327.0629 -335.66992 2478.0 1
352.88376 -335.66992 2478.0 1
378.70444 -335.66992 2478.0 1
413.3406 -342.98477 2532.0 1
439.724 -342.98477 2532.0 1
462.7938 -340.54648 2514.0 1
465.25998 -324.02036 2392.0 1
483.42197 -319.55017 2359.0 1
504.55728 -317.3828 2343.0 1
49.824966 -418.52975 2869.0 1
79.71987 -418.52975 2869.0 1
107.81925 -411.67337 2822.0 1
131.82686 -395.4807 2711.0 1
156.41469 -386.43613 2649.0 1
182.62787 -383.51852 2629.0 1
208.42424 -380.60095 2609.0 1
232.08817 -374.91162 2570.0 1
255.03989 -369.36816 2532.0 1
281.42343 -369.36816 2532.0 1
305.6186 -366.74234 2514.0 1
329.43866 -364.1165 2496.0 1
355.44705 -364.1165 2496.0 1
384.2062 -366.74234 2514.0 1
413.3406 -369.36816 2532.0 1
439.724 -369.36816 2532.0 1
446.59418 -353.9049 2426.0 1
462.14786 -346.6109 2376.0 1
483.42197 -344.13095 2359.0 1
511.66373 -346.6109 2376.0 1
50.241764 -452.1759 2893.0 1
80.38675 -452.1759 2893.0 1
107.81925 -441.07858 2822.0 1
131.82686 -423.72928 2711.0 1
158.8356 -420.447 2690.0 1
182.62787 -410.9127 2629.0 1
208.42424 -407.78668 2609.0 1
235.61012 -407.78668 2609.0 1
256.95367 -398.72128 2551.0 1
281.42343 -395.7516 2532.0 1
307.8068 -395.7516 2532.0 1
331.8144 -392.9382 2514.0 1
358.01038 -392.9382 2514.0 1
386.9571 -395.7516 2532.0 1
413.3406 -395.7516 2532.0 1
439.724 -395.7516 2532.0 1
443.46472 -376.5267 2409.0 1
462.14786 -371.3688 2376.0 1
483.42197 -368.7117 2359.0 1
50.658566 -486.3222 2917.0 1
80.38675 -482.32092 2893.0 1
105.22119 -459.14685 2754.0 1
131.82686 -451.97787 2711.0 1
158.8356 -448.47678 2690.0 1
182.62787 -438.30685 2629.0 1
208.42424 -434.97244 2609.0 1
235.61012 -434.97244 2609.0 1
258.8675 -428.47037 2570.0 1
283.53522 -425.30267 2551.0 1
307.8068 -422.135 2532.0 1
334.19016 -422.135 2532.0 1
360.5737 -422.135 2532.0 1
386.9571 -422.135 2532.0 1
413.3406 -422.135 2532.0 1
433.472 -416.1331 2496.0 1
437.38986 -396.12668 2376.0 1
458.84125 -393.29245 2359.0 1
480.14313 -390.62494 2343.0 1
77.7748 -495.8148 2799.0 1
104.41885 -484.12357 2733.0 1
130.8057 -476.50653 2690.0 1
158.8356 -476.50653 2690.0 1
184.0172 -469.2438 2649.0 1
208.42424 -462.1582 2609.0 1
235.61012 -462.1582 2609.0 1
258.8675 -455.24973 2570.0 1
283.53522 -451.8841 2551.0 1
310.11655 -451.8841 2551.0 1
336.6979 -451.8841 2551.0 1
360.5737 -448.51843 2532.0 1
389.86078 -451.8841 2551.0 1
413.3406 -448.51843 2532.0 1
418.363 -426.7302 2409.0 1
431.315 -415.03897 2343.0 1
455.72916 -415.03897 2343.0 1
103.57831 -508.47522 2711.0 1
130.8057 -504.53644 2690.0 1
158.8356 -504.53644 2690.0 1
185.40652 -500.5977 2669.0 1
210.02197 -493.09528 2629.0 1
235.61012 -489.3441 2609.0 1
260.7813 -485.5929 2589.0 1
285.647 -482.02924 2570.0 1
310.11655 -478.4656 2551.0 1
336.6979 -478.4656 2551.0 1
363.27942 -478.4656 2551.0 1
389.86078 -478.4656 2551.0 1
413.3406 -474.90195 2532.0 1
409.67966 -442.45407 2359.0 1
431.315 -439.45312 2343.0 1
458.84125 -442.45407 2359.0 1
75.32958 -536.7238 2711.0 1
104.41885 -541.07935 2733.0 1
131.82686 -536.7238 2711.0 1
158.8356 -532.5662 2690.0 1
186.86533 -532.5662 2690.0 1
213.21744 -528.4086 2669.0 1
237.41626 -520.48944 2629.0 1
262.79584 -516.52985 2609.0 1
285.647 -508.80862 2570.0 1
310.11655 -505.047 2551.0 1
336.6979 -505.047 2551.0 1
360.5737 -501.28537 2532.0 1
389.86078 -505.047 2551.0 1
387.87415 -470.40048 2376.0 1
406.901 -463.86716 2343.0 1
431.315 -463.86716 2343.0 1
76.52441 -573.9336 2754.0 1
105.22119 -573.9336 2754.0 1
131.82686 -564.9724 2711.0 1
160.07558 -564.9724 2711.0 1
188.32413 -564.9724 2711.0 1
216.57268 -564.9724 2711.0 1
242.92496 -560.596 2690.0 1
262.79584 -543.7156 2609.0 1
287.7588 -539.5476 2589.0 1
312.42633 -535.588 2570.0 1
339.20566 -535.588 2570.0 1
363.27942 -531.6284 2551.0 1
382.487 -488.2812 2343.0 1
406.901 -488.2812 2343.0 1
431.315 -488.2812 2343.0 1
77.7748 -612.4771 2799.0 1
105.22119 -602.63025 2754.0 1
131.82686 -593.221 2711.0 1
160.07558 -593.221 2711.0 1
188.32413 -593.221 2711.0 1
216.57268 -593.221 2711.0 1
244.82141 -593.221 2711.0 1
264.81036 -575.2778 2629.0 1
289.98172 -570.90137 2609.0 1
317.16742 -570.90137 2609.0 1
339.20566 -562.3674 2570.0 1
347.8995 -534.5772 2443.0 1
358.07285 -512.69525 2343.0 1
379.87506 -509.19412 2327.0 1
404.1223 -509.19412 2327.0 1
77.7748 -641.6427 2799.0 1
105.22119 -631.3269 2754.0 1
132.89664 -626.5129 2733.0 1
161.3746 -626.5129 2733.0 1
189.8524 -626.5129 2733.0 1
216.57268 -621.4696 2711.0 1
242.92496 -616.6555 2690.0 1
264.81036 -602.6719 2629.0 1
289.98172 -598.0871 2609.0 1
314.73608 -593.5023 2589.0 1
334.19016 -580.4356 2532.0 1
333.65884 -537.10925 2343.0 1
358.07285 -537.10925 2343.0 1
379.87506 -533.4414 2327.0 1
404.1223 -533.4414 2327.0 1
77.7748 -670.8084 2799.0 1
106.099945 -665.5359 2777.0 1
133.9178 -660.0237 2754.0 1
163.97267 -665.5359 2777.0 1
191.3112 -660.0237 2754.0 1
220.0078 -660.0237 2754.0 1
292.20465 -630.06616 2629.0 1
314.73608 -620.4798 2589.0 1
311.35648 -565.358 2359.0 1
331.38034 -557.68884 2327.0 1
355.62762 -557.68884 2327.0 1
379.87506 -557.68884 2327.0 1
406.901 -561.52344 2343.0 1
77.7748 -699.97394 2799.0 1
106.099945 -694.47217 2777.0 1
135.03621 -694.47217 2777.0 1
163.97267 -694.47217 2777.0 1
192.90894 -694.47217 2777.0 1
221.8452 -694.47217 2777.0 1
298.9846 -672.7152 2690.0 1
319.59875 -657.4603 2629.0 1
311.35648 -589.9387 2359.0 1
331.38034 -581.93616 2327.0 1
355.62762 -581.93616 2327.0 1
379.87506 -581.93616 2327.0 1
77.7748 -729.13947 2799.0 1
106.9405 -729.13947 2799.0 1
135.03621 -723.4085 2777.0 1
165.2717 -729.13947 2799.0 1
192.90894 -723.4085 2777.0 1
223.6027 -729.13947 2799.0 1
298.9846 -700.745 2690.0 1
324.46143 -695.2745 2669.0 1
305.1531 -602.276 2312.0 1
331.38034 -606.1835 2327.0 1
355.62762 -606.1835 2327.0 1
377.42636 -602.276 2312.0 1
77.7748 -758.30505 2799.0 1
106.099945 -752.3448 2777.0 1
136.106 -758.30505 2799.0 1
165.2717 -758.30505 2799.0 1
197.63266 -770.76733 2845.0 1
225.4401 -764.5362 2822.0 1
298.9846 -728.7748 2690.0 1
324.46143 -723.08545 2669.0 1
352.27234 -723.08545 2669.0 1
377.2353 -717.66705 2649.0 1
404.8378 -717.66705 2649.0 1
439.1336 -728.7748 2690.0 1
478.27798 -746.11365 2754.0 1
79.052986 -800.41223 2845.0 1
106.9405 -787.4706 2799.0 1
136.106 -787.4706 2799.0 1
165.2717 -787.4706 2799.0 1
194.4372 -787.4706 2799.0 1
308.65436 -781.2811 2777.0 1
327.0143 -756.8045 2690.0 1
355.04407 -756.8045 2690.0 1
380.08344 -750.8964 2669.0 1
407.89432 -750.8964 2669.0 1
439.1336 -756.8045 2690.0 1
478.27798 -774.8103 2754.0 1
519.4925 -793.9414 2822.0 1
80.38675 -844.0617 2893.0 1
108.698006 -830.05725 2845.0 1
137.22441 -823.34674 2822.0 1
166.62976 -823.34674 2822.0 1
199.29987 -837.0595 2869.0 1
327.0143 -784.8344 2690.0 1
355.04407 -784.8344 2690.0 1
383.07397 -784.8344 2690.0 1
404.8378 -772.87225 2649.0 1
442.56177 -790.9614 2711.0 1
482.27234 -810.2176 2777.0 1
515.2585 -816.6363 2799.0 1
548.8978 -823.34674 2822.0 1
80.38675 -874.2067 2893.0 1
109.61496 -866.9544 2869.0 1
138.34282 -859.7021 2845.0 1
167.98784 -859.7021 2845.0 1
199.29987 -866.9544 2869.0 1
357.81577 -819.21 2711.0 1
383.07397 -812.8642 2690.0 1
411.1037 -812.8642 2690.0 1
449.5814 -832.20374 2754.0 1
478.27798 -832.20374 2754.0 1
515.2585 -845.8018 2799.0 1
544.4242 -845.8018 2799.0 1
81.05363 -911.8542 2917.0 1
110.53192 -904.3518 2893.0 1
139.50987 -896.84937 2869.0 1
169.40495 -896.84937 2869.0 1
196.03493 -882.15717 2822.0 1
357.81577 -847.45856 2711.0 1
386.0645 -847.45856 2711.0 1
417.67523 -854.33575 2733.0 1
453.33606 -868.0902 2777.0 1
482.27234 -868.0902 2777.0 1
515.2585 -874.9674 2799.0 1
553.3715 -889.347 2845.0 1
81.05363 -942.24927 2917.0 1
110.53192 -934.4968 2893.0 1
140.67691 -934.4968 2893.0 1
169.40495 -926.7443 2869.0 1
194.4372 -904.13293 2799.0 1
424.3996 -897.0265 2777.0 1
453.33606 -897.0265 2777.0 1
486.093 -904.13293 2799.0 1
519.4925 -911.5624 2822.0 1
558.0397 -926.7443 2869.0 1
587.9346 -926.7443 2869.0 1
81.74829 -980.9804 2942.0 1
110.53192 -964.64185 2893.0 1
140.67691 -964.64185 2893.0 1
170.82208 -964.64185 2893.0 1
456.9275 -933.29846 2799.0 1
498.24966 -956.6393 2869.0 1
528.14453 -956.6393 2869.0 1
562.7078 -964.64185 2893.0 1
597.77106 -972.6444 2917.0 1
81.74829 -1011.63617 2942.0 1
111.44888 -1003.0397 2917.0 1
140.67691 -994.78705 2893.0 1
172.2392 -1003.0397 2917.0 1
506.58566 -1003.0397 2917.0 1
532.5626 -994.78705 2893.0 1
567.376 -1003.0397 2917.0 1
608.0174 -1020.23267 2967.0 1
655.94604 -1047.3976 3046.0 1
51.97843 -1060.3601 2993.0 1
81.74829 -1042.2917 2942.0 1
112.40405 -1042.2917 2942.0 1
143.05962 -1042.2917 2942.0 1
173.71536 -1042.2917 2942.0 1
506.228 -1098.6223 3101.0 1
515.269 -1051.1488 2967.0 1
536.9807 -1033.4348 2917.0 1
572.23865 -1042.2917 2942.0 1
608.0174 -1051.1488 2967.0 1
650.13165 -1069.5713 3019.0 1
51.526897 -1082.0648 2967.0 1
81.74829 -1072.9474 2942.0 1
112.40405 -1072.9474 2942.0 1
143.05962 -1072.9474 2942.0 1
528.98865 -1110.8762 3046.0 1
550.9713 -1091.5471 2993.0 1
577.1013 -1082.0648 2967.0 1
613.34546 -1091.5471 2993.0 1
650.13165 -1101.0293 3019.0 1
51.526897 -1112.981 2967.0 1
81.74829 -1103.603 2942.0 1
111.44888 -1094.225 2917.0 1
143.05962 -1103.603 2942.0 1
176.72675 -1122.7341 2993.0 1
524.2997 -1132.4872 3019.0 1
550.9713 -1122.7341 2993.0 1
587.21564 -1132.4872 3019.0 1
624.2066 -1142.6155 3046.0 1
20.972067 -1163.9452 3019.0 1
51.526897 -1143.8971 2967.0 1
81.74829 -1134.2585 2942.0 1
112.40405 -1134.2585 2942.0 1
145.53957 -1153.9211 2993.0 1
178.26196 -1163.9452 3019.0 1
492.84177 -1163.9452 3019.0 1
524.2997 -1163.9452 3019.0 1
550.9713 -1153.9211 2993.0 1
582.1585 -1153.9211 2993.0 1
618.6736 -1163.9452 3019.0 1
675.7196 -1153.9211 2993.0 1
-10.486033 -1195.4033 3019.0 1
20.610838 -1174.8134 2967.0 1
51.09273 -1164.9143 2942.0 1
81.74829 -1164.9143 2942.0 1
113.359215 -1174.8134 2967.0 1
144.27528 -1174.8134 2967.0 1
178.26196 -1195.4033 3019.0 1
577.1013 -1174.8134 2967.0 1
-10.048391 -1175.6573 2893.0 1
20.263504 -1185.4105 2917.0 1
51.09273 -1195.57 2942.0 1
81.74829 -1195.57 2942.0 1
112.40405 -1195.57 2942.0 1
