ply
format ascii 1.0
comment : created from Kinect user tracker
element vertex 869
property float x
property float y
property float z
property int userId
end_header
694.5972 288.8424 1980.0 1
664.8828 272.95187 2015.0 1
689.9637 274.5774 2027.0 1
702.6658 271.32635 2003.0 1
727.8717 272.95187 2015.0 1
651.5557 254.95656 2039.0 1
664.8828 251.95561 2015.0 1
685.8791 251.95561 2015.0 1
706.8754 251.95561 2015.0 1
719.5635 249.07968 1992.0 1
634.01874 235.0856 2051.0 1
647.7211 232.33472 2027.0 1
660.9232 229.58383 2003.0 1
673.9655 226.94757 1980.0 1
698.8069 228.32301 1992.0 1
715.22876 226.94757 1980.0 1
735.8604 226.94757 1980.0 1
756.492 226.94757 1980.0 1
781.8334 228.32301 1992.0 1
807.0221 229.58383 2003.0 1
623.6995 217.5696 2088.0 1
630.30927 212.46379 2039.0 1
643.8866 209.963 2015.0 1
660.9232 208.7126 2003.0 1
673.9655 206.316 1980.0 1
694.5972 206.316 1980.0 1
719.5635 207.56639 1992.0 1
731.77234 205.1698 1969.0 1
748.08655 204.02359 1958.0 1
777.12354 206.316 1980.0 1
797.7552 206.316 1980.0 1
813.84015 205.1698 1969.0 1
620.11505 194.6873 2076.0 1
630.30927 191.21744 2039.0 1
647.7211 190.09207 2027.0 1
660.9232 187.84135 2003.0 1
673.9655 185.68442 1980.0 1
690.73834 184.65283 1969.0 1
711.25525 184.65283 1969.0 1
735.8604 185.68442 1980.0 1
752.28925 184.65283 1969.0 1
772.80615 184.65283 1969.0 1
793.32324 184.65283 1969.0 1
809.2936 183.62126 1958.0 1
594.73535 171.97166 2063.0 1
616.2319 171.97166 2063.0 1
626.59973 168.9707 2027.0 1
647.7211 168.9707 2027.0 1
660.9232 166.97006 2003.0 1
673.9655 165.05278 1980.0 1
694.5972 165.05278 1980.0 1
707.2818 163.21887 1958.0 1
731.77234 164.13583 1969.0 1
752.28925 164.13583 1969.0 1
772.80615 164.13583 1969.0 1
807.0221 166.97006 2003.0 1
594.73535 150.47523 2063.0 1
612.6474 149.59995 2051.0 1
622.8902 146.9741 2015.0 1
640.052 146.09883 2003.0 1
657.2936 145.2965 1992.0 1
673.9655 144.4212 1980.0 1
690.73834 143.61887 1969.0 1
711.25525 143.61887 1969.0 1
731.77234 143.61887 1969.0 1
752.28925 143.61887 1969.0 1
781.8334 145.2965 1992.0 1
816.69183 147.84938 2027.0 1
594.73535 128.97874 2063.0 1
616.2319 128.97874 2063.0 1
626.59973 126.72802 2027.0 1
640.052 125.22754 2003.0 1
657.2936 124.53982 1992.0 1
673.9655 123.78958 1980.0 1
690.73834 123.10186 1969.0 1
711.25525 123.10186 1969.0 1
731.77234 123.10186 1969.0 1
761.0768 124.53982 1992.0 1
790.8606 125.977776 2015.0 1
816.69183 126.72802 2027.0 1
587.4101 110.1394 2114.0 1
598.48303 108.1596 2076.0 1
616.2319 107.4823 2063.0 1
626.59973 105.6067 2027.0 1
643.8866 104.9815 2015.0 1
657.2936 103.783195 1992.0 1
681.79443 104.3563 2003.0 1
694.5972 103.158 1980.0 1
711.25525 102.5849 1969.0 1
731.77234 102.5849 1969.0 1
765.27954 104.3563 2003.0 1
804.9901 106.8571 2051.0 1
831.1965 107.4823 2063.0 1
847.733 106.8571 2051.0 1
583.79785 87.5697 2101.0 1
598.48303 86.5277 2076.0 1
612.6474 85.4857 2051.0 1
626.59973 84.48538 2027.0 1
643.8866 83.98522 2015.0 1
660.9232 83.48506 2003.0 1
681.79443 83.48506 2003.0 1
694.5972 82.52642 1980.0 1
723.537 83.48506 2003.0 1
748.8681 83.98522 2015.0 1
769.8643 83.98522 2015.0 1
814.80225 86.5277 2076.0 1
831.1965 85.985855 2063.0 1
551.6591 69.928604 2237.0 1
563.91644 68.58443 2194.0 1
583.3012 68.17805 2181.0 1
598.24695 67.302765 2153.0 1
609.4379 66.083626 2114.0 1
620.11505 64.89575 2076.0 1
634.01874 64.11425 2051.0 1
647.7211 63.36401 2027.0 1
664.8828 62.988888 2015.0 1
689.9637 63.36401 2027.0 1
711.08514 63.36401 2027.0 1
732.2064 63.36401 2027.0 1
753.3278 63.36401 2027.0 1
779.03394 63.73913 2039.0 1
809.69995 64.48937 2063.0 1
511.58725 47.22345 2266.0 1
528.3495 46.61909 2237.0 1
544.50757 46.01473 2208.0 1
556.97675 45.16029 2167.0 1
575.81274 44.86853 2153.0 1
587.4101 44.05577 2114.0 1
605.69025 43.78485 2101.0 1
620.11505 43.26385 2076.0 1
637.7283 42.992928 2063.0 1
651.5557 42.49277 2039.0 1
676.7616 42.74285 2051.0 1
702.21765 42.992928 2063.0 1
723.7142 42.992928 2063.0 1
745.2106 42.992928 2063.0 1
766.7071 42.992928 2063.0 1
788.2035 42.992928 2063.0 1
487.9756 23.611696 2266.0 1
511.58725 23.611696 2266.0 1
525.0429 23.163637 2223.0 1
537.8492 22.725998 2181.0 1
553.37836 22.434238 2153.0 1
568.85913 22.163319 2127.0 1
580.1856 21.756939 2088.0 1
598.48303 21.631899 2076.0 1
616.2319 21.496439 2063.0 1
637.7283 21.496439 2063.0 1
659.2248 21.496439 2063.0 1
680.7212 21.496439 2063.0 1
702.21765 21.496439 2063.0 1
732.4843 21.756939 2088.0 1
749.9065 21.631899 2076.0 1
775.9983 21.756939 2088.0 1
487.9756 0.0 2266.0 1
501.8793 0.0 2223.0 1
515.12305 0.0 2181.0 1
534.39667 0.0 2167.0 1
550.03705 0.0 2140.0 1
565.3823 0.0 2114.0 1
580.1856 0.0 2088.0 1
594.73535 0.0 2063.0 1
612.6474 0.0 2051.0 1
630.30927 0.0 2039.0 1
647.7211 0.0 2027.0 1
668.8424 0.0 2027.0 1
698.133 0.0 2051.0 1
473.7904 -24.091017 2312.0 1
484.96075 -23.465816 2252.0 1
501.8793 -23.163637 2223.0 1
511.81644 -22.580118 2167.0 1
530.94415 -22.434238 2153.0 1
546.6957 -22.163319 2127.0 1
561.9055 -21.892399 2101.0 1
576.8512 -21.631899 2076.0 1
594.73535 -21.496439 2063.0 1
605.47845 -21.121319 2027.0 1
626.59973 -21.121319 2027.0 1
643.8866 -20.996279 2015.0 1
660.9232 -20.87124 2003.0 1
678.0502 -20.75662 1992.0 1
476.86432 -48.494633 2327.0 1
481.73053 -46.619034 2237.0 1
495.33206 -45.722916 2194.0 1
515.12305 -45.451996 2181.0 1
524.5324 -44.326637 2127.0 1
546.6957 -44.326637 2127.0 1
558.4287 -43.513878 2088.0 1
573.23895 -42.992878 2063.0 1
587.81647 -42.492718 2039.0 1
605.47845 -42.242638 2027.0 1
622.8902 -41.992558 2015.0 1
636.537 -41.51324 1992.0 1
657.2936 -41.51324 1992.0 1
670.22125 -41.03392 1969.0 1
690.73834 -41.03392 1969.0 1
468.5666 -75.30539 2409.0 1
480.14313 -73.242226 2343.0 1
484.96075 -70.39756 2252.0 1
495.33206 -68.58448 2194.0 1
511.81644 -67.74046 2167.0 1
527.7383 -66.89644 2140.0 1
543.3543 -66.08368 2114.0 1
555.2193 -64.8958 2076.0 1
573.23895 -64.48942 2063.0 1
587.81647 -63.739178 2039.0 1
601.8939 -62.988937 2015.0 1
615.7803 -62.26996 1992.0 1
632.70245 -61.894836 1980.0 1
649.70435 -61.55098 1969.0 1
666.47705 -61.20712 1958.0 1
683.02057 -60.86326 1947.0 1
703.3083 -60.86326 1947.0 1
727.6842 -61.20712 1958.0 1
465.25998 -99.698586 2392.0 1
480.14313 -97.656265 2343.0 1
481.73053 -93.23818 2237.0 1
495.33206 -91.44594 2194.0 1
511.81644 -90.32058 2167.0 1
527.7383 -89.19522 2140.0 1
543.3543 -88.11154 2114.0 1
555.2193 -86.5277 2076.0 1
569.90454 -85.4857 2051.0 1
584.357 -84.48538 2027.0 1
598.30945 -83.48506 2003.0 1
615.7803 -83.02658 1992.0 1
632.70245 -82.52642 1980.0 1
649.70435 -82.06794 1969.0 1
662.7328 -81.15098 1947.0 1
679.16174 -80.6925 1936.0 1
699.3348 -80.6925 1936.0 1
727.6842 -81.60946 1958.0 1
743.8838 -81.15098 1947.0 1
483.42197 -122.9039 2359.0 1
481.73053 -116.5477 2237.0 1
492.3971 -113.6301 2181.0 1
508.50983 -112.171295 2153.0 1
524.5324 -110.816696 2127.0 1
543.3543 -110.1394 2114.0 1
551.7425 -107.4823 2063.0 1
566.5701 -106.231895 2039.0 1
580.8976 -104.9815 2015.0 1
598.30945 -104.3563 2003.0 1
612.07074 -103.158 1980.0 1
625.6724 -102.011795 1958.0 1
642.44507 -101.4387 1947.0 1
662.7328 -101.4387 1947.0 1
679.16174 -100.8656 1936.0 1
695.36127 -100.292496 1925.0 1
719.508 -100.8656 1936.0 1
739.681 -100.8656 1936.0 1
476.86432 -145.48401 2327.0 1
478.7157 -138.98193 2223.0 1
492.3971 -136.3561 2181.0 1
505.4394 -133.79277 2140.0 1
524.5324 -132.98001 2127.0 1
540.013 -131.35449 2101.0 1
555.2193 -129.7915 2076.0 1
566.5701 -127.47826 2039.0 1
584.357 -126.72802 2027.0 1
595.0237 -124.53982 1992.0 1
612.07074 -123.78958 1980.0 1
625.6724 -122.41414 1958.0 1
638.8154 -121.0387 1936.0 1
658.9885 -121.0387 1936.0 1
679.16174 -121.0387 1936.0 1
699.3348 -121.0387 1936.0 1
719.508 -121.0387 1936.0 1
739.681 -121.0387 1936.0 1
464.3638 -165.282 2266.0 1
475.4855 -161.05147 2208.0 1
492.3971 -159.08209 2181.0 1
505.4394 -156.09155 2140.0 1
524.5324 -155.14334 2127.0 1
540.013 -153.2469 2101.0 1
551.7425 -150.47517 2063.0 1
563.2357 -147.84933 2027.0 1
580.8976 -146.97406 2015.0 1
595.0237 -145.29643 1992.0 1
608.67035 -143.61882 1969.0 1
625.6724 -142.81648 1958.0 1
642.44507 -142.01414 1947.0 1
658.9885 -141.21179 1936.0 1
675.30286 -140.40945 1925.0 1
699.3348 -141.21179 1936.0 1
719.508 -141.21179 1936.0 1
739.681 -141.21179 1936.0 1
461.4948 -187.72676 2252.0 1
475.4855 -184.05891 2208.0 1
492.3971 -181.8082 2181.0 1
505.4394 -178.39044 2140.0 1
524.5324 -177.30676 2127.0 1
540.013 -175.1394 2101.0 1
551.7425 -171.97171 2063.0 1
563.2357 -168.97076 2027.0 1
580.8976 -167.97044 2015.0 1
591.4392 -165.05284 1980.0 1
608.67035 -164.13588 1969.0 1
625.6724 -163.21892 1958.0 1
642.44507 -162.30196 1947.0 1
658.9885 -161.385 1936.0 1
675.30286 -160.46803 1925.0 1
695.36127 -160.46803 1925.0 1
719.508 -161.385 1936.0 1
739.681 -161.385 1936.0 1
472.47064 -205.75334 2194.0 1
492.3971 -204.5342 2181.0 1
505.4394 -200.68922 2140.0 1
524.5324 -199.47008 2127.0 1
540.013 -197.0318 2101.0 1
555.2193 -194.6873 2076.0 1
566.5701 -191.21744 2039.0 1
580.8976 -188.96672 2015.0 1
595.0237 -186.80978 1992.0 1
608.67035 -184.65283 1969.0 1
625.6724 -183.62126 1958.0 1
638.8154 -181.55809 1936.0 1
658.9885 -181.55809 1936.0 1
675.30286 -180.52652 1925.0 1
699.3348 -181.55809 1936.0 1
723.59607 -182.58968 1947.0 1
743.8838 -182.58968 1947.0 1
475.4855 -230.0736 2208.0 1
492.3971 -227.2602 2181.0 1
505.4394 -222.98799 2140.0 1
524.5324 -221.63339 2127.0 1
543.3543 -220.2788 2114.0 1
555.2193 -216.3192 2076.0 1
569.90454 -213.7142 2051.0 1
584.357 -211.2134 2027.0 1
601.8939 -209.963 2015.0 1
612.07074 -206.316 1980.0 1
625.6724 -204.02359 1958.0 1
638.8154 -201.7312 1936.0 1
658.9885 -201.7312 1936.0 1
675.30286 -200.58499 1925.0 1
699.3348 -201.7312 1936.0 1
719.508 -201.7312 1936.0 1
739.681 -201.7312 1936.0 1
464.3638 -259.72888 2266.0 1
475.4855 -253.08093 2208.0 1
492.3971 -249.98619 2181.0 1
508.50983 -246.77684 2153.0 1
521.32654 -242.30666 2114.0 1
540.013 -240.81659 2101.0 1
555.2193 -237.9511 2076.0 1
569.90454 -235.0856 2051.0 1
587.81647 -233.71016 2039.0 1
601.8939 -230.95927 2015.0 1
612.07074 -226.94757 1980.0 1
625.6724 -224.42593 1958.0 1
638.8154 -221.9043 1936.0 1
658.9885 -221.9043 1936.0 1
679.16174 -221.9043 1936.0 1
699.3348 -221.9043 1936.0 1
727.6842 -224.42593 1958.0 1
743.8838 -223.16512 1947.0 1
464.3638 -283.34058 2266.0 1
475.4855 -276.08826 2208.0 1
492.3971 -272.7122 2181.0 1
508.50983 -269.21106 2153.0 1
524.5324 -265.96002 2127.0 1
543.3543 -264.3345 2114.0 1
555.2193 -259.583 2076.0 1
573.23895 -257.9575 2063.0 1
587.81647 -254.95651 2039.0 1
605.47845 -253.45604 2027.0 1
619.18066 -250.45508 2003.0 1
625.6724 -244.82828 1958.0 1
638.8154 -242.0774 1936.0 1
655.24426 -240.70195 1925.0 1
679.16174 -242.0774 1936.0 1
699.3348 -242.0774 1936.0 1
723.59607 -243.45284 1947.0 1
748.08655 -244.82828 1958.0 1
464.3638 -306.9524 2266.0 1
475.4855 -299.0957 2208.0 1
492.3971 -295.4383 2181.0 1
511.81644 -293.54187 2167.0 1
524.5324 -288.12344 2127.0 1
543.3543 -286.3625 2114.0 1
558.4287 -282.8405 2088.0 1
573.23895 -279.454 2063.0 1
591.2759 -277.8285 2051.0 1
605.47845 -274.57745 2027.0 1
622.8902 -272.95193 2015.0 1
625.6724 -265.2307 1958.0 1
638.8154 -262.25058 1936.0 1
658.9885 -262.25058 1936.0 1
679.16174 -262.25058 1936.0 1
703.3083 -263.74066 1947.0 1
723.59607 -263.74066 1947.0 1
752.28925 -266.72076 1969.0 1
464.3638 -330.5641 2266.0 1
475.4855 -322.10306 2208.0 1
492.3971 -318.1643 2181.0 1
508.50983 -314.07965 2153.0 1
524.5324 -310.28677 2127.0 1
540.013 -306.4939 2101.0 1
558.4287 -304.59744 2088.0 1
576.8512 -302.8469 2076.0 1
594.73535 -300.95047 2063.0 1
609.0629 -297.44934 2039.0 1
619.18066 -292.19766 2003.0 1
625.6724 -285.63306 1958.0 1
638.8154 -282.4237 1936.0 1
658.9885 -282.4237 1936.0 1
679.16174 -282.4237 1936.0 1
707.2818 -285.63306 1958.0 1
446.78183 -359.0211 2297.0 1
464.3638 -354.17578 2266.0 1
475.4855 -345.11038 2208.0 1
492.3971 -340.8903 2181.0 1
508.50983 -336.5139 2153.0 1
524.5324 -332.4501 2127.0 1
536.67163 -326.3544 2088.0 1
558.4287 -326.3544 2088.0 1
576.8512 -324.4788 2076.0 1
594.73535 -322.4469 2063.0 1
616.2319 -322.4469 2063.0 1
622.8902 -314.9445 2015.0 1
625.6724 -306.0354 1958.0 1
638.8154 -302.5968 1936.0 1
662.7328 -304.3161 1947.0 1
679.16174 -302.5968 1936.0 1
711.25525 -307.7547 1969.0 1
446.78183 -382.9558 2297.0 1
464.3638 -377.78748 2266.0 1
478.7157 -370.61853 2223.0 1
492.3971 -363.6163 2181.0 1
508.50983 -358.94812 2153.0 1
524.5324 -354.6134 2127.0 1
540.013 -350.2787 2101.0 1
555.2193 -346.1107 2076.0 1
576.8512 -346.1107 2076.0 1
598.48303 -346.1107 2076.0 1
616.2319 -343.94333 2063.0 1
622.8902 -335.94077 2015.0 1
629.18744 -328.27167 1969.0 1
646.0747 -326.43774 1958.0 1
658.9885 -322.7699 1936.0 1
683.02057 -324.60382 1947.0 1
707.2818 -326.43774 1958.0 1
440.75214 -401.3992 2266.0 1
461.4948 -398.91922 2252.0 1
478.7157 -393.78217 2223.0 1
492.3971 -386.3423 2181.0 1
508.50983 -381.3824 2153.0 1
524.5324 -376.77673 2127.0 1
543.3543 -374.4739 2114.0 1
555.2193 -367.74258 2076.0 1
576.8512 -367.74258 2076.0 1
594.73535 -365.43976 2063.0 1
616.2319 -365.43976 2063.0 1
634.01874 -363.3141 2051.0 1
625.6724 -346.8401 1958.0 1
642.44507 -344.89154 1947.0 1
658.9885 -342.943 1936.0 1
679.16174 -342.943 1936.0 1
707.2818 -346.8401 1958.0 1
438.02902 -422.38516 2252.0 1
455.55194 -416.94592 2223.0 1
475.4855 -414.1325 2208.0 1
495.33206 -411.50668 2194.0 1
511.81644 -406.44257 2167.0 1
524.5324 -398.94016 2127.0 1
543.3543 -396.50186 2114.0 1
558.4287 -391.6253 2088.0 1
576.8512 -389.3746 2076.0 1
594.73535 -386.9363 2063.0 1
616.2319 -386.9363 2063.0 1
634.01874 -384.6856 2051.0 1
629.18744 -369.30566 1969.0 1
638.8154 -363.11618 1936.0 1
658.9885 -363.11618 1936.0 1
679.16174 -363.11618 1936.0 1
703.3083 -365.17935 1947.0 1
707.6153 -357.11426 1904.0 1
438.02902 -445.85098 2252.0 1
455.55194 -440.10956 2223.0 1
472.47064 -434.36813 2194.0 1
492.3971 -431.7944 2181.0 1
511.81644 -429.02267 2167.0 1
527.7383 -423.67722 2140.0 1
543.3543 -418.52972 2114.0 1
558.4287 -413.38226 2088.0 1
576.8512 -411.0065 2076.0 1
594.73535 -408.43274 2063.0 1
616.2319 -408.43274 2063.0 1
634.01874 -406.057 2051.0 1
629.18744 -389.82263 1969.0 1
638.8154 -383.2893 1936.0 1
658.9885 -383.2893 1936.0 1
679.16174 -383.2893 1936.0 1
703.3083 -385.46707 1947.0 1
422.84702 -478.6948 2297.0 1
438.02902 -469.3168 2252.0 1
455.55194 -463.2732 2223.0 1
472.47064 -457.22958 2194.0 1
492.3971 -454.5204 2181.0 1
508.50983 -448.68518 2153.0 1
524.5324 -443.26678 2127.0 1
543.3543 -440.5576 2114.0 1
561.9055 -437.8484 2101.0 1
580.1856 -435.1392 2088.0 1
598.48303 -432.6384 2076.0 1
616.2319 -429.9292 2063.0 1
637.7283 -429.9292 2063.0 1
632.70245 -412.632 1980.0 1
646.0747 -408.04718 1958.0 1
658.9885 -403.4624 1936.0 1
683.02057 -405.7548 1947.0 1
703.3083 -405.7548 1947.0 1
419.9016 -499.1284 2281.0 1
435.11145 -489.5003 2237.0 1
452.47803 -483.15454 2208.0 1
472.47064 -480.09106 2194.0 1
489.23636 -474.18292 2167.0 1
505.4394 -468.27478 2140.0 1
524.5324 -465.4301 2127.0 1
543.3543 -462.58545 2114.0 1
561.9055 -459.74078 2101.0 1
576.8512 -454.2703 2076.0 1
598.48303 -454.2703 2076.0 1
616.2319 -451.42563 2063.0 1
637.7283 -451.42563 2063.0 1
632.70245 -433.26358 1980.0 1
646.0747 -428.44952 1958.0 1
658.9885 -423.6355 1936.0 1
679.16174 -423.6355 1936.0 1
699.3348 -423.6355 1936.0 1
727.6842 -428.44952 1958.0 1
419.9016 -522.89636 2281.0 1
438.02902 -516.2484 2252.0 1
452.47803 -506.16187 2208.0 1
469.67114 -499.97238 2181.0 1
492.3971 -499.97238 2181.0 1
505.4394 -490.57355 2140.0 1
524.5324 -487.5934 2127.0 1
540.013 -481.63318 2101.0 1
561.9055 -481.63318 2101.0 1
576.8512 -475.9022 2076.0 1
598.48303 -475.9022 2076.0 1
620.11505 -475.9022 2076.0 1
637.7283 -472.92206 2063.0 1
655.39026 -470.1712 2051.0 1
649.70435 -451.3735 1969.0 1
662.7328 -446.33023 1947.0 1
683.02057 -446.33023 1947.0 1
703.3083 -446.33023 1947.0 1
723.59607 -446.33023 1947.0 1
422.84702 -550.4991 2297.0 1
438.02902 -539.71436 2252.0 1
452.47803 -529.1693 2208.0 1
469.67114 -522.6985 2181.0 1
492.3971 -522.6985 2181.0 1
511.81644 -519.34326 2167.0 1
524.5324 -509.75687 2127.0 1
543.3543 -506.64127 2114.0 1
558.4287 -500.41013 2088.0 1
576.8512 -497.53418 2076.0 1
598.48303 -497.53418 2076.0 1
620.11505 -497.53418 2076.0 1
641.74695 -497.53418 2076.0 1
659.2248 -494.4186 2063.0 1
653.334 -474.52682 1980.0 1
666.47705 -469.2543 1958.0 1
683.02057 -466.61804 1947.0 1
707.2818 -469.2543 1958.0 1
731.77234 -471.89056 1969.0 1
422.84702 -574.4338 2297.0 1
440.75214 -566.6813 2266.0 1
455.55194 -555.92786 2223.0 1
472.47064 -548.67554 2194.0 1
492.3971 -545.4245 2181.0 1
508.50983 -538.42224 2153.0 1
524.5324 -531.92017 2127.0 1
546.6957 -531.92017 2127.0 1
565.3823 -528.6691 2114.0 1
580.1856 -522.16705 2088.0 1
598.48303 -519.1661 2076.0 1
620.11505 -519.1661 2076.0 1
641.74695 -519.1661 2076.0 1
663.3789 -519.1661 2076.0 1
685.0108 -519.1661 2076.0 1
670.22125 -492.40753 1969.0 1
686.87946 -489.65665 1958.0 1
711.25525 -492.40753 1969.0 1
731.77234 -492.40753 1969.0 1
752.28925 -492.40753 1969.0 1
428.3696 -606.1835 2327.0 1
443.66974 -594.2005 2281.0 1
458.42093 -582.73846 2237.0 1
472.47064 -571.537 2194.0 1
492.3971 -568.1505 2181.0 1
511.81644 -564.5035 2167.0 1
527.7383 -557.47 2140.0 1
546.6957 -554.0835 2127.0 1
568.85913 -554.0835 2127.0 1
587.4101 -550.69696 2114.0 1
605.69025 -547.3105 2101.0 1
623.6995 -543.924 2088.0 1
649.4751 -547.3105 2101.0 1
671.3676 -547.3105 2101.0 1
697.5495 -550.69696 2114.0 1
678.0502 -518.916 1992.0 1
694.5972 -515.79 1980.0 1
711.25525 -512.9245 1969.0 1
735.8604 -515.79 1980.0 1
761.0768 -518.916 1992.0 1
431.315 -634.7655 2343.0 1
446.78183 -622.3032 2297.0 1
464.3638 -613.90466 2266.0 1
475.4855 -598.19135 2208.0 1
495.33206 -594.39844 2194.0 1
511.81644 -587.0836 2167.0 1
530.94415 -583.2907 2153.0 1
550.03705 -579.76874 2140.0 1
568.85913 -576.2468 2127.0 1
587.4101 -572.72485 2114.0 1
609.4379 -572.72485 2114.0 1
631.4659 -572.72485 2114.0 1
653.4937 -572.72485 2114.0 1
675.52167 -572.72485 2114.0 1
701.8391 -576.2468 2127.0 1
724.0024 -576.2468 2127.0 1
698.8069 -539.6726 1992.0 1
715.22876 -536.4216 1980.0 1
735.8604 -536.4216 1980.0 1
761.0768 -539.6726 1992.0 1
777.12354 -536.4216 1980.0 1
434.26038 -663.681 2359.0 1
449.69943 -650.458 2312.0 1
467.43768 -641.7365 2281.0 1
487.9756 -637.51636 2266.0 1
501.8793 -625.41876 2223.0 1
518.1935 -617.2599 2194.0 1
534.39667 -609.6637 2167.0 1
550.03705 -602.06757 2140.0 1
568.85913 -598.41016 2127.0 1
587.4101 -594.7527 2114.0 1
609.4379 -594.7527 2114.0 1
631.4659 -594.7527 2114.0 1
653.4937 -594.7527 2114.0 1
675.52167 -594.7527 2114.0 1
701.8391 -598.41016 2127.0 1
732.8524 -605.725 2153.0 1
760.19806 -609.6637 2167.0 1
715.22876 -557.05316 1980.0 1
740.3202 -560.42926 1992.0 1
756.492 -557.05316 1980.0 1
777.12354 -557.05316 1980.0 1
431.315 -683.5937 2343.0 1
452.61703 -678.92554 2327.0 1
470.71652 -670.1727 2297.0 1
491.2058 -665.5046 2281.0 1
511.58725 -661.1282 2266.0 1
528.3495 -652.6672 2237.0 1
537.8492 -636.3286 2181.0 1
556.97675 -632.24396 2167.0 1
572.33594 -624.36646 2140.0 1
591.0224 -620.57355 2127.0 1
613.18567 -620.57355 2127.0 1
631.4659 -616.7807 2114.0 1
657.5124 -620.57355 2127.0 1
683.8299 -624.36646 2140.0 1
706.12866 -624.36646 2140.0 1
737.61786 -632.24396 2167.0 1
769.66986 -640.12146 2194.0 1
797.58844 -644.2061 2208.0 1
740.3202 -581.186 1992.0 1
761.0768 -581.186 1992.0 1
781.8334 -581.186 1992.0 1
807.0221 -584.3953 2003.0 1
431.315 -708.00775 2343.0 1
452.61703 -703.17285 2327.0 1
470.71652 -694.1075 2297.0 1
491.2058 -689.2726 2281.0 1
518.586 -694.1075 2297.0 1
538.7417 -689.2726 2281.0 1
548.20667 -671.74615 2223.0 1
560.57513 -659.05457 2181.0 1
579.55695 -654.8241 2167.0 1
598.24695 -650.59357 2153.0 1
616.9334 -646.6652 2140.0 1
639.2323 -646.6652 2140.0 1
661.531 -646.6652 2140.0 1
687.984 -650.59357 2153.0 1
710.4182 -650.59357 2153.0 1
737.61786 -654.8241 2167.0 1
769.66986 -662.9829 2194.0 1
769.8643 -608.8927 2015.0 1
786.1507 -605.26654 2003.0 1
816.69183 -612.51886 2027.0 1
412.632 -742.7376 2376.0 1
437.38986 -742.7376 2376.0 1
455.72916 -732.4218 2343.0 1
470.71652 -718.0422 2297.0 1
494.65134 -718.0422 2297.0 1
518.586 -718.0422 2297.0 1
542.5207 -718.0422 2297.0 1
562.5098 -713.0406 2281.0 1
567.51483 -690.22076 2208.0 1
586.778 -685.84436 2194.0 1
606.02716 -681.7806 2181.0 1
624.71716 -677.4042 2167.0 1
647.29736 -677.4042 2167.0 1
669.87744 -677.4042 2167.0 1
692.45764 -677.4042 2167.0 1
715.0378 -677.4042 2167.0 1
742.38324 -681.7806 2181.0 1
774.5811 -690.22076 2208.0 1
818.5396 -708.35156 2266.0 1
779.03394 -637.3914 2039.0 1
795.57043 -633.6402 2027.0 1
811.85693 -629.889 2015.0 1
832.8532 -629.889 2015.0 1
437.38986 -767.4955 2376.0 1
455.72916 -756.8358 2343.0 1
476.86432 -751.6675 2327.0 1
497.88153 -746.8222 2312.0 1
528.9713 -756.8358 2343.0 1
549.6063 -751.6675 2327.0 1
570.15466 -746.8222 2312.0 1
582.42236 -731.96326 2266.0 1
598.27826 -722.5957 2237.0 1
617.6976 -718.0734 2223.0 1
632.50085 -708.7059 2194.0 1
651.47925 -704.5066 2181.0 1
674.2052 -704.5066 2181.0 1
692.45764 -699.9843 2167.0 1
723.94684 -708.7059 2194.0 1
751.57367 -713.22815 2208.0 1
779.84326 -718.0734 2223.0 1
808.064 -722.5957 2237.0 1
774.4491 -654.76154 2027.0 1
795.57043 -654.76154 2027.0 1
811.85693 -650.88525 2015.0 1
827.89325 -647.00903 2003.0 1
418.363 -803.2569 2409.0 1
440.33524 -797.58844 2392.0 1
455.72916 -781.2499 2343.0 1
476.86432 -775.9148 2327.0 1
501.11176 -775.9148 2327.0 1
528.9713 -781.2499 2343.0 1
553.3853 -781.2499 2343.0 1
581.7451 -786.5849 2359.0 1
590.3902 -765.9116 2297.0 1
606.0342 -755.57495 2266.0 1
625.75574 -750.9068 2252.0 1
644.8972 -745.9052 2237.0 1
659.5443 -736.2355 2208.0 1
678.2239 -731.5673 2194.0 1
705.5591 -736.2355 2208.0 1
738.13544 -745.9052 2237.0 1
761.4449 -745.9052 2237.0 1
784.7545 -745.9052 2237.0 1
800.2803 -679.8841 2039.0 1
816.69183 -675.8828 2027.0 1
837.8131 -675.8828 2027.0 1
418.363 -828.35876 2409.0 1
434.26038 -811.1658 2359.0 1
455.72916 -805.664 2343.0 1
480.14313 -805.664 2343.0 1
504.55728 -805.664 2343.0 1
528.9713 -805.664 2343.0 1
553.3853 -805.664 2343.0 1
638.2597 -789.84644 2297.0 1
657.5818 -784.34467 2281.0 1
668.20685 -769.21484 2237.0 1
691.5163 -769.21484 2237.0 1
714.8259 -769.21484 2237.0 1
738.13544 -769.21484 2237.0 1
766.5507 -774.37274 2252.0 1
794.9279 -779.18677 2266.0 1
812.65576 -731.39026 2127.0 1
809.69995 -709.3832 2063.0 1
816.69183 -697.0043 2027.0 1
837.8131 -697.0043 2027.0 1
864.0195 -701.13055 2039.0 1
418.363 -853.4605 2409.0 1
437.38986 -841.7693 2376.0 1
458.84125 -835.7465 2359.0 1
480.14313 -830.07806 2343.0 1
504.55728 -830.07806 2343.0 1
532.58356 -835.7465 2359.0 1
651.04156 -830.07806 2343.0 1
662.1944 -813.7812 2297.0 1
681.3499 -808.1127 2281.0 1
705.11786 -808.1127 2281.0 1
724.0928 -802.79846 2266.0 1
747.70447 -802.79846 2266.0 1
776.42194 -808.1127 2281.0 1
811.065 -819.0954 2312.0 1
809.69995 -730.87964 2063.0 1
831.1965 -730.87964 2063.0 1
847.733 -726.6283 2051.0 1
390.48608 -872.36237 2392.0 1
415.41064 -872.36237 2392.0 1
437.38986 -866.52716 2376.0 1
462.14786 -866.52716 2376.0 1
480.14313 -854.49207 2343.0 1
504.55728 -854.49207 2343.0 1
532.58356 -860.3273 2359.0 1
655.4874 -860.3273 2359.0 1
675.45557 -854.49207 2343.0 1
686.1292 -837.7159 2297.0 1
710.0639 -837.7159 2297.0 1
728.886 -831.8807 2281.0 1
752.65393 -831.8807 2281.0 1
776.42194 -831.8807 2281.0 1
816.32715 -848.65686 2327.0 1
437.61572 -1152.7437 3073.0 1
378.70444 -929.5473 2478.0 1
396.03647 -910.0411 2426.0 1
415.41064 -897.287 2392.0 1
437.38986 -891.2851 2376.0 1
462.14786 -891.2851 2376.0 1
483.42197 -884.908 2359.0 1
508.00284 -884.908 2359.0 1
684.96906 -891.2851 2376.0 1
699.86975 -878.9061 2343.0 1
724.28375 -878.9061 2343.0 1
733.9987 -861.6506 2297.0 1
757.9334 -861.6506 2297.0 1
781.8681 -861.6506 2297.0 1
827.5529 -884.908 2359.0 1
373.3555 -941.87415 2443.0 1
393.2613 -928.7658 2409.0 1
415.41064 -922.2116 2392.0 1
434.26038 -909.4888 2359.0 1
458.84125 -909.4888 2359.0 1
483.42197 -909.4888 2359.0 1
508.00284 -909.4888 2359.0 1
699.38336 -935.31995 2426.0 1
714.50635 -922.2116 2392.0 1
724.28375 -903.3201 2343.0 1
748.6979 -903.3201 2343.0 1
773.1119 -903.3201 2343.0 1
792.0797 -897.1515 2327.0 1
821.94006 -903.3201 2343.0 1
370.75745 -960.599 2426.0 1
393.2613 -953.8677 2409.0 1
415.41064 -947.13635 2392.0 1
437.38986 -940.80096 2376.0 1
458.84125 -934.06964 2359.0 1
486.90573 -940.80096 2376.0 1
478.7157 -880.2191 2223.0 1
704.28424 -967.3303 2443.0 1
719.58435 -953.8677 2409.0 1
734.4849 -940.80096 2376.0 1
753.8106 -934.06964 2359.0 1
773.1119 -927.7343 2343.0 1
797.5259 -927.7343 2343.0 1
833.51666 -940.80096 2376.0 1
846.354 -927.7343 2343.0 1
347.8995 -992.7863 2443.0 1
370.75745 -985.87787 2426.0 1
390.48608 -972.061 2392.0 1
412.632 -965.5589 2376.0 1
437.38986 -965.5589 2376.0 1
462.14786 -965.5589 2376.0 1
490.18454 -972.061 2392.0 1
719.58435 -978.9694 2409.0 1
734.4849 -965.5589 2376.0 1
753.8106 -958.65045 2359.0 1
784.0008 -965.5589 2376.0 1
802.97205 -958.65045 2359.0 1
833.51666 -965.5589 2376.0 1
