ply
format ascii 1.0
comment : created from Kinect user tracker
element vertex 703
property float x
property float y
property float z
property int userId
end_header
1188.7136 345.11038 2208.0 1
1165.47 328.5218 2252.0 1
1165.7063 322.10306 2208.0 1
1174.1777 318.1643 2181.0 1
1142.0043 305.0559 2252.0 1
1142.6989 299.09567 2208.0 1
1158.3151 297.19922 2194.0 1
1181.1764 297.19922 2194.0 1
1132.9423 285.21625 2281.0 1
1142.0043 281.5901 2252.0 1
1142.6989 276.08832 2208.0 1
1151.4517 272.71225 2181.0 1
1181.1764 274.33777 2194.0 1
1118.5383 258.1242 2252.0 1
1134.3976 256.4049 2237.0 1
1142.6989 253.08093 2208.0 1
1158.3151 251.47626 2194.0 1
1174.1777 249.98619 2181.0 1
1093.0198 239.3474 2297.0 1
1101.8802 236.1172 2266.0 1
1111.088 233.0954 2237.0 1
1134.3976 233.0954 2237.0 1
1150.4617 231.6366 2223.0 1
1151.4517 227.2602 2181.0 1
1174.1777 227.2602 2181.0 1
1100.1576 216.81938 2312.0 1
1101.8802 212.5055 2266.0 1
1104.1344 208.47296 2223.0 1
1112.592 205.75334 2194.0 1
1157.7072 209.78587 2237.0 1
1158.3151 205.75334 2194.0 1
1174.1777 204.5342 2181.0 1
1085.4062 190.14415 2281.0 1
1109.1742 190.14415 2281.0 1
1125.492 188.89374 2266.0 1
1134.3976 186.4763 2237.0 1
1135.4535 182.89183 2194.0 1
1158.3151 182.89183 2194.0 1
1166.6405 180.64111 2167.0 1
1085.4062 166.37614 2281.0 1
1095.0725 164.2609 2252.0 1
1125.492 165.28204 2266.0 1
1127.2981 162.14563 2223.0 1
1135.4535 160.03036 2194.0 1
1158.3151 160.03036 2194.0 1
1174.1777 159.08215 2181.0 1
1069.085 143.60841 2297.0 1
1093.0198 143.60841 2297.0 1
1109.1742 142.6081 2281.0 1
1125.492 141.67029 2266.0 1
1134.3976 139.85721 2237.0 1
1135.4535 137.16885 2194.0 1
1151.4517 136.3561 2181.0 1
1181.1764 137.16885 2194.0 1
991.1504 128.166 2460.0 1
1009.757 127.2803 2443.0 1
1020.8058 125.508896 2409.0 1
1038.5266 124.6232 2392.0 1
1056.3379 123.7896 2376.0 1
1066.0807 122.0703 2343.0 1
1083.0479 121.236694 2327.0 1
1107.2953 121.236694 2327.0 1
1116.9545 119.6737 2297.0 1
1118.5383 117.3292 2252.0 1
1134.3976 116.5477 2237.0 1
1165.47 117.3292 2252.0 1
1181.0167 116.5477 2237.0 1
1204.3262 116.5477 2237.0 1
965.5171 102.53282 2460.0 1
984.301 101.824265 2443.0 1
995.7039 100.40714 2409.0 1
1013.60205 99.698586 2392.0 1
1024.1991 98.32314 2359.0 1
1048.7799 98.32314 2359.0 1
1073.3607 98.32314 2359.0 1
1083.0479 96.98938 2327.0 1
1100.1576 96.36418 2312.0 1
1116.9545 95.73898 2297.0 1
1132.9423 95.0721 2281.0 1
1149.1038 94.4469 2266.0 1
1180.4783 95.0721 2281.0 1
1188.9359 93.86338 2252.0 1
1212.4017 93.86338 2252.0 1
946.76117 77.462265 2478.0 1
965.5171 76.89959 2460.0 1
977.4516 75.83675 2426.0 1
995.7039 75.30533 2409.0 1
999.6184 73.742325 2359.0 1
1024.1991 73.742325 2359.0 1
1048.7799 73.742325 2359.0 1
1051.9755 72.27311 2312.0 1
1069.085 71.80421 2297.0 1
1078.2686 70.835144 2266.0 1
1109.1742 71.30405 2281.0 1
1118.5383 70.39751 2252.0 1
1142.0043 70.39751 2252.0 1
1172.7153 70.835144 2266.0 1
941.0094 52.76689 2532.0 1
946.76117 51.641533 2478.0 1
958.84485 50.912132 2443.0 1
977.4516 50.55785 2426.0 1
982.0641 49.51585 2376.0 1
992.8385 48.828133 2343.0 1
1024.1991 49.16157 2359.0 1
1041.6665 48.828133 2343.0 1
1051.9755 48.18209 2312.0 1
1069.085 47.86949 2297.0 1
1071.6067 46.93169 2252.0 1
1095.0725 46.93169 2252.0 1
1111.088 46.61909 2237.0 1
1134.3976 46.61909 2237.0 1
1157.7072 46.61909 2237.0 1
934.31976 26.195854 2514.0 1
946.76117 25.820734 2478.0 1
952.17255 25.278896 2426.0 1
970.6022 25.101755 2409.0 1
988.6773 24.924616 2392.0 1
992.8385 24.414036 2343.0 1
1024.1991 24.580755 2359.0 1
1041.6665 24.414036 2343.0 1
1045.1503 23.934717 2297.0 1
1069.085 23.934717 2297.0 1
1071.6067 23.465816 2252.0 1
1087.7786 23.309517 2237.0 1
1104.1344 23.163637 2223.0 1
1127.2981 23.163637 2223.0 1
1135.4535 22.861458 2194.0 1
1151.4517 22.725998 2181.0 1
1174.1777 22.725998 2181.0 1
921.4892 0.0 2551.0 1
927.6301 0.0 2496.0 1
946.76117 0.0 2478.0 1
952.17255 0.0 2426.0 1
970.6022 0.0 2409.0 1
982.0641 0.0 2376.0 1
992.8385 0.0 2343.0 1
1017.2525 0.0 2343.0 1
1034.5531 0.0 2327.0 1
1045.1503 0.0 2297.0 1
1054.6567 0.0 2266.0 1
1071.6067 0.0 2252.0 1
1087.7786 0.0 2237.0 1
1096.6841 0.0 2208.0 1
1112.592 0.0 2194.0 1
1135.4535 0.0 2194.0 1
1151.4517 0.0 2181.0 1
1159.1034 0.0 2153.0 1
914.62585 -26.383415 2532.0 1
927.6301 -26.008295 2496.0 1
946.76117 -25.820734 2478.0 1
952.17255 -25.278896 2426.0 1
970.6022 -25.101755 2409.0 1
982.0641 -24.757896 2376.0 1
999.6184 -24.580755 2359.0 1
1024.1991 -24.580755 2359.0 1
1034.5531 -24.247316 2327.0 1
1045.1503 -23.934717 2297.0 1
1054.6567 -23.611696 2266.0 1
1071.6067 -23.465816 2252.0 1
1080.9708 -23.163637 2223.0 1
1096.6841 -23.007338 2208.0 1
1105.9996 -22.725998 2181.0 1
1128.7256 -22.725998 2181.0 1
1144.0604 -22.580118 2167.0 1
1159.1034 -22.434238 2153.0 1
921.4892 -53.16279 2551.0 1
941.0094 -52.76683 2532.0 1
953.63837 -52.01659 2496.0 1
952.17255 -50.557793 2426.0 1
970.6022 -50.20351 2409.0 1
982.0641 -49.515793 2376.0 1
999.6184 -49.16151 2359.0 1
1024.1991 -49.16151 2359.0 1
1027.8843 -48.182034 2312.0 1
1037.8702 -47.535995 2281.0 1
1054.6567 -47.223392 2266.0 1
1071.6067 -46.931633 2252.0 1
1080.9708 -46.327274 2223.0 1
1089.7305 -45.722916 2194.0 1
1105.9996 -45.451996 2181.0 1
1121.4802 -45.160236 2167.0 1
1136.6692 -44.868477 2153.0 1
1152.1046 -44.597557 2140.0 1
894.90784 -79.74431 2551.0 1
921.4892 -79.74431 2551.0 1
941.0094 -79.15037 2532.0 1
953.63837 -78.02501 2496.0 1
958.84485 -76.368225 2443.0 1
970.6022 -75.30539 2409.0 1
982.0641 -74.2738 2376.0 1
999.6184 -73.742386 2359.0 1
1017.2525 -73.242226 2343.0 1
1027.8843 -72.27316 2312.0 1
1031.0452 -70.835205 2266.0 1
1054.6567 -70.835205 2266.0 1
1071.6067 -70.39756 2252.0 1
1080.9708 -69.49102 2223.0 1
1089.7305 -68.58448 2194.0 1
1105.9996 -68.1781 2181.0 1
1114.2349 -67.30282 2153.0 1
1129.8059 -66.89644 2140.0 1
1152.1046 -66.89644 2140.0 1
901.5732 -107.11762 2570.0 1
921.4892 -106.32571 2551.0 1
941.0094 -105.53378 2532.0 1
960.51556 -104.78355 2514.0 1
958.84485 -101.824265 2443.0 1
970.6022 -100.40714 2409.0 1
988.6773 -99.698586 2392.0 1
999.6184 -98.32314 2359.0 1
1017.2525 -97.656265 2343.0 1
1027.8843 -96.36418 2312.0 1
1031.0452 -94.4469 2266.0 1
1048.1407 -93.86338 2252.0 1
1064.469 -93.23818 2237.0 1
1080.9708 -92.65466 2223.0 1
1083.2736 -90.9041 2181.0 1
1105.9996 -90.9041 2181.0 1
1114.2349 -89.73706 2153.0 1
1129.8059 -89.19522 2140.0 1
1152.1046 -89.19522 2140.0 1
908.23846 -134.8869 2589.0 1
921.4892 -132.9071 2551.0 1
948.0707 -132.9071 2551.0 1
974.65204 -132.9071 2551.0 1
965.5171 -128.166 2460.0 1
977.4516 -126.3946 2426.0 1
988.6773 -124.6232 2392.0 1
992.8385 -122.0703 2343.0 1
1017.2525 -122.0703 2343.0 1
1021.2155 -119.6737 2297.0 1
1037.8702 -118.840096 2281.0 1
1048.1407 -117.3292 2252.0 1
1064.469 -116.5477 2237.0 1
1080.9708 -115.8183 2223.0 1
1089.7305 -114.307396 2194.0 1
1098.9001 -112.900696 2167.0 1
1121.4802 -112.900696 2167.0 1
1129.8059 -111.493996 2140.0 1
1152.1046 -111.493996 2140.0 1
901.6842 -165.61545 2649.0 1
901.5732 -160.67638 2570.0 1
921.4892 -159.4885 2551.0 1
948.0707 -159.4885 2551.0 1
967.39276 -158.30061 2532.0 1
958.84485 -152.73633 2443.0 1
977.4516 -151.6735 2426.0 1
995.7039 -150.61066 2409.0 1
999.6184 -147.48465 2359.0 1
1017.2525 -146.48433 2343.0 1
1034.5531 -145.48401 2327.0 1
1045.1503 -143.60841 2297.0 1
1054.6567 -141.67029 2266.0 1
1064.469 -139.85721 2237.0 1
1087.7786 -139.85721 2237.0 1
1104.1344 -138.98193 2223.0 1
1105.9996 -136.3561 2181.0 1
1128.7256 -136.3561 2181.0 1
1136.6692 -134.60553 2153.0 1
1152.1046 -133.79277 2140.0 1
888.0687 -190.3004 2609.0 1
901.5732 -187.45575 2570.0 1
928.3525 -187.45575 2570.0 1
948.0707 -186.06989 2551.0 1
946.76117 -180.74527 2478.0 1
958.84485 -178.19237 2443.0 1
984.301 -178.19237 2443.0 1
995.7039 -175.7124 2409.0 1
999.6184 -172.06541 2359.0 1
1024.1991 -172.06541 2359.0 1
1034.5531 -169.73132 2327.0 1
1045.1503 -167.54314 2297.0 1
1054.6567 -165.282 2266.0 1
1071.6067 -164.26083 2252.0 1
1087.7786 -163.16673 2237.0 1
1111.088 -163.16673 2237.0 1
1112.592 -160.03032 2194.0 1
1121.4802 -158.06093 2167.0 1
1129.8059 -156.09155 2140.0 1
1145.1058 -155.14334 2127.0 1
867.48236 -219.15349 2629.0 1
888.0687 -217.48628 2609.0 1
901.5732 -214.23524 2570.0 1
928.3525 -214.23524 2570.0 1
948.0707 -212.65141 2551.0 1
953.63837 -208.0666 2496.0 1
972.58185 -206.56613 2478.0 1
991.1504 -205.06564 2460.0 1
995.7039 -200.81429 2409.0 1
999.6184 -196.64629 2359.0 1
1024.1991 -196.64629 2359.0 1
1027.8843 -192.72836 2312.0 1
1045.1503 -191.47797 2297.0 1
1069.085 -191.47797 2297.0 1
1093.0198 -191.47797 2297.0 1
1095.0725 -187.72676 2252.0 1
1111.088 -186.47636 2237.0 1
1112.592 -182.89188 2194.0 1
1121.4802 -180.64116 2167.0 1
1129.8059 -178.39044 2140.0 1
1145.1058 -177.30676 2127.0 1
880.681 -250.29884 2669.0 1
894.87646 -246.54764 2629.0 1
908.23846 -242.79645 2589.0 1
935.21576 -242.79645 2589.0 1
941.0094 -237.45097 2532.0 1
953.63837 -234.0749 2496.0 1
972.58185 -232.38686 2478.0 1
991.1504 -230.69882 2460.0 1
995.7039 -225.91605 2409.0 1
999.6184 -221.22704 2359.0 1
1017.2525 -219.72656 2343.0 1
1041.6665 -219.72656 2343.0 1
1051.9755 -216.81938 2312.0 1
1069.085 -215.41267 2297.0 1
1093.0198 -215.41267 2297.0 1
1101.8802 -212.5055 2266.0 1
1118.5383 -211.19258 2252.0 1
1127.2981 -208.47296 2223.0 1
1121.4802 -203.22128 2167.0 1
1129.8059 -200.68922 2140.0 1
1152.1046 -200.68922 2140.0 1
887.6103 -280.298 2690.0 1
894.87646 -273.9418 2629.0 1
915.25464 -271.8578 2609.0 1
949.66486 -273.9418 2629.0 1
967.39276 -263.83438 2532.0 1
972.58185 -258.20758 2478.0 1
984.301 -254.5606 2443.0 1
995.7039 -251.01779 2409.0 1
999.6184 -245.8078 2359.0 1
1010.3058 -242.47339 2327.0 1
1034.5531 -242.47339 2327.0 1
1051.9755 -240.9104 2312.0 1
1069.085 -239.3474 2297.0 1
1093.0198 -239.3474 2297.0 1
1109.1742 -237.68019 2281.0 1
1125.492 -236.1172 2266.0 1
1134.3976 -233.0954 2237.0 1
1128.7256 -227.2602 2181.0 1
1136.6692 -224.34259 2153.0 1
1152.1046 -222.98799 2140.0 1
874.08167 -303.62836 2649.0 1
901.6842 -303.62836 2649.0 1
922.27075 -301.33594 2629.0 1
942.4403 -299.04355 2609.0 1
955.13196 -294.57336 2570.0 1
960.51556 -288.15466 2514.0 1
972.58185 -284.02832 2478.0 1
984.301 -280.01663 2443.0 1
995.7039 -276.11954 2409.0 1
999.6184 -270.38855 2359.0 1
1017.2525 -268.55463 2343.0 1
1034.5531 -266.7207 2327.0 1
1051.9755 -265.0014 2312.0 1
1076.0664 -265.0014 2312.0 1
1093.0198 -263.2821 2297.0 1
1116.9545 -263.2821 2297.0 1
1140.8892 -263.2821 2297.0 1
1149.1038 -259.72888 2266.0 1
1121.4802 -248.38152 2167.0 1
1129.8059 -245.28677 2140.0 1
1152.1046 -245.28677 2140.0 1
880.681 -333.7317 2669.0 1
901.6842 -331.2309 2649.0 1
929.28687 -331.2309 2649.0 1
948.0707 -318.977 2551.0 1
960.51556 -314.3505 2514.0 1
972.58185 -309.84906 2478.0 1
984.301 -305.47266 2443.0 1
988.6773 -299.09564 2392.0 1
999.6184 -294.9693 2359.0 1
1024.1991 -294.9693 2359.0 1
1048.7799 -294.9693 2359.0 1
1051.9755 -289.09244 2312.0 1
1076.0664 -289.09244 2312.0 1
1093.0198 -287.21683 2297.0 1
1116.9545 -287.21683 2297.0 1
1140.8892 -287.21683 2297.0 1
1149.1038 -283.34058 2266.0 1
1121.4802 -270.96164 2167.0 1
1136.6692 -269.21106 2153.0 1
1152.1046 -267.58554 2140.0 1
894.5396 -367.23212 2711.0 1
915.6401 -364.38745 2690.0 1
951.03687 -367.23212 2711.0 1
955.13196 -348.13223 2570.0 1
960.51556 -340.54648 2514.0 1
979.6466 -338.10822 2496.0 1
991.1504 -333.23163 2460.0 1
1002.73047 -328.626 2426.0 1
1013.60205 -324.02036 2392.0 1
1024.1991 -319.55017 2359.0 1
1048.7799 -319.55017 2359.0 1
1066.0807 -317.3828 2343.0 1
1083.0479 -315.21545 2327.0 1
1100.1576 -313.18356 2312.0 1
1116.9545 -311.15167 2297.0 1
1140.8892 -311.15167 2297.0 1
1156.7103 -308.9843 2281.0 1
1128.7256 -295.4383 2181.0 1
1136.6692 -291.64542 2153.0 1
1152.1046 -289.88443 2140.0 1
901.7989 -398.69006 2733.0 1
922.78815 -395.4807 2711.0 1
943.6699 -392.4172 2690.0 1
960.51556 -366.74234 2514.0 1
972.58185 -361.49066 2478.0 1
984.301 -356.38486 2443.0 1
1002.73047 -353.9049 2426.0 1
1013.60205 -348.94498 2392.0 1
1024.1991 -344.13095 2359.0 1
1041.6665 -341.79684 2343.0 1
1058.8005 -339.46277 2327.0 1
1076.0664 -337.27457 2312.0 1
1093.0198 -335.08636 2297.0 1
1116.9545 -335.08636 2297.0 1
1140.8892 -335.08636 2297.0 1
1164.824 -335.08636 2297.0 1
1135.4535 -320.06073 2194.0 1
1129.8059 -312.18323 2140.0 1
1145.1058 -310.28677 2127.0 1
887.38116 -434.0451 2777.0 1
908.7282 -430.4502 2754.0 1
922.78815 -423.72928 2711.0 1
960.51556 -392.9382 2514.0 1
965.5171 -384.498 2460.0 1
977.4516 -379.1838 2426.0 1
995.7039 -376.5267 2409.0 1
1006.82214 -371.3688 2376.0 1
1031.58 -371.3688 2376.0 1
1041.6665 -366.2109 2343.0 1
1058.8005 -363.71008 2327.0 1
1076.0664 -361.3656 2312.0 1
1100.1576 -361.3656 2312.0 1
1124.2485 -361.3656 2312.0 1
1140.8892 -359.0211 2297.0 1
1172.4307 -361.3656 2312.0 1
1165.47 -351.98758 2252.0 1
1136.6692 -336.5139 2153.0 1
1152.1046 -334.482 2140.0 1
894.4112 -466.64923 2799.0 1
908.7282 -459.14685 2754.0 1
922.78815 -451.97787 2711.0 1
958.75464 -455.64572 2733.0 1
955.13196 -428.47037 2570.0 1
953.63837 -416.1331 2496.0 1
958.84485 -407.29694 2443.0 1
970.6022 -401.62845 2409.0 1
988.6773 -398.79422 2392.0 1
999.6184 -393.29245 2359.0 1
1024.1991 -393.29245 2359.0 1
1041.6665 -390.62494 2343.0 1
1058.8005 -387.9574 2327.0 1
1076.0664 -385.4566 2312.0 1
1093.0198 -382.9558 2297.0 1
1124.2485 -385.4566 2312.0 1
1148.3395 -385.4566 2312.0 1
1180.0372 -387.9574 2327.0 1
1196.5216 -385.4566 2312.0 1
1136.6692 -358.94812 2153.0 1
1152.1046 -356.78076 2140.0 1
858.4447 -491.91772 2777.0 1
894.4112 -495.8148 2799.0 1
908.7282 -487.8435 2754.0 1
922.78815 -480.22647 2711.0 1
951.03687 -480.22647 2711.0 1
941.0094 -448.51843 2532.0 1
953.63837 -442.1414 2496.0 1
965.5171 -435.76434 2460.0 1
977.4516 -429.74158 2426.0 1
995.7039 -426.7302 2409.0 1
999.6184 -417.8732 2359.0 1
1024.1991 -417.8732 2359.0 1
1041.6665 -415.03897 2343.0 1
1058.8005 -412.2047 2327.0 1
1076.0664 -409.54764 2312.0 1
1100.1576 -409.54764 2312.0 1
1116.9545 -406.89053 2297.0 1
1140.8892 -406.89053 2297.0 1
1180.0372 -412.2047 2327.0 1
1136.6692 -381.3824 2153.0 1
1152.1046 -379.07956 2140.0 1
858.4447 -520.8542 2777.0 1
894.4112 -524.98047 2799.0 1
916.31744 -520.8542 2777.0 1
930.2767 -512.6015 2733.0 1
951.03687 -508.47522 2711.0 1
948.0707 -478.4656 2551.0 1
967.39276 -474.90195 2532.0 1
958.84485 -458.2091 2443.0 1
977.4516 -455.0206 2426.0 1
982.0641 -445.6426 2376.0 1
999.6184 -442.45407 2359.0 1
1031.58 -445.6426 2376.0 1
1048.7799 -442.45407 2359.0 1
1066.0807 -439.45312 2343.0 1
1076.0664 -433.63876 2312.0 1
1100.1576 -433.63876 2312.0 1
1116.9545 -430.82535 2297.0 1
1140.8892 -430.82535 2297.0 1
1172.4307 -433.63876 2312.0 1
880.03156 -545.23694 2754.0 1
908.7282 -545.23694 2754.0 1
937.4248 -545.23694 2754.0 1
974.65204 -505.047 2551.0 1
965.5171 -487.03082 2460.0 1
977.4516 -480.2995 2426.0 1
988.6773 -473.56818 2392.0 1
999.6184 -467.03482 2359.0 1
1031.58 -470.40048 2376.0 1
1048.7799 -467.03482 2359.0 1
1073.3607 -467.03482 2359.0 1
1090.4946 -463.86716 2343.0 1
1107.2953 -460.69946 2327.0 1
1124.2485 -457.72977 2312.0 1
1148.3395 -457.72977 2312.0 1
1188.1509 -463.86716 2343.0 1
1196.5216 -457.72977 2312.0 1
986.71136 -523.9176 2514.0 1
984.301 -509.1212 2443.0 1
995.7039 -502.03558 2409.0 1
999.6184 -491.6156 2359.0 1
1024.1991 -491.6156 2359.0 1
1048.7799 -491.6156 2359.0 1
1073.3607 -491.6156 2359.0 1
1090.4946 -488.2812 2343.0 1
1100.1576 -481.8208 2312.0 1
1131.5425 -484.94678 2327.0 1
1148.3395 -481.8208 2312.0 1
1180.0372 -484.94678 2327.0 1
1008.6907 -562.3674 2570.0 1
991.1504 -538.2972 2460.0 1
995.7039 -527.1373 2409.0 1
1006.82214 -519.91626 2376.0 1
1031.58 -519.91626 2376.0 1
1048.7799 -516.19635 2359.0 1
1073.3607 -516.19635 2359.0 1
1083.0479 -509.19412 2327.0 1
1107.2953 -509.19412 2327.0 1
1124.2485 -505.9118 2312.0 1
1163.7368 -512.69525 2343.0 1
1196.2646 -516.19635 2359.0 1
1229.6433 -519.91626 2376.0 1
1016.1479 -593.5023 2589.0 1
998.4027 -568.05664 2478.0 1
995.7039 -552.2391 2409.0 1
1006.82214 -544.6742 2376.0 1
1031.58 -544.6742 2376.0 1
1048.7799 -540.7771 2359.0 1
1073.3607 -540.7771 2359.0 1
1090.4946 -537.10925 2343.0 1
1107.2953 -533.4414 2327.0 1
1139.3228 -537.10925 2343.0 1
1155.7898 -533.4414 2327.0 1
1204.8855 -544.6742 2376.0 1
1031.8474 -630.06616 2629.0 1
1020.15967 -606.81915 2532.0 1
1009.757 -585.48944 2443.0 1
1020.8058 -577.341 2409.0 1
1031.58 -569.4322 2376.0 1
1056.3379 -569.4322 2376.0 1
1073.3607 -565.358 2359.0 1
1097.9414 -565.358 2359.0 1
1114.9088 -561.52344 2343.0 1
1139.3228 -561.52344 2343.0 1
1163.7368 -561.52344 2343.0 1
1188.1509 -561.52344 2343.0 1
1035.4701 -642.7056 2570.0 1
1016.78357 -615.19684 2460.0 1
1028.0094 -606.6941 2426.0 1
1045.9075 -602.44275 2409.0 1
1056.3379 -594.19006 2376.0 1
1081.0958 -594.19006 2376.0 1
1097.9414 -589.9387 2359.0 1
1122.5223 -589.9387 2359.0 1
1147.103 -589.9387 2359.0 1
1171.6837 -589.9387 2359.0 1
1180.0372 -581.93616 2327.0 1
1059.2417 -684.8545 2629.0 1
1016.78357 -640.83 2460.0 1
1028.0094 -631.97296 2426.0 1
1053.2883 -631.97296 2426.0 1
1063.4512 -623.11597 2392.0 1
1081.0958 -618.948 2376.0 1
1097.9414 -614.5195 2359.0 1
1122.5223 -614.5195 2359.0 1
1147.103 -614.5195 2359.0 1
1171.6837 -614.5195 2359.0 1
1098.5701 -758.30505 2799.0 1
1092.28 -734.46405 2711.0 1
1024.2234 -671.3397 2478.0 1
1028.0094 -657.2519 2426.0 1
1053.2883 -657.2519 2426.0 1
1063.4512 -648.0406 2392.0 1
1081.0958 -643.7059 2376.0 1
1097.9414 -639.1002 2359.0 1
1122.5223 -639.1002 2359.0 1
1147.103 -639.1002 2359.0 1
1171.6837 -639.1002 2359.0 1
1107.5973 -793.9414 2822.0 1
1127.7357 -787.4706 2799.0 1
1024.2234 -697.16046 2478.0 1
1035.2131 -687.31354 2443.0 1
1053.2883 -682.53076 2426.0 1
1078.5671 -682.53076 2426.0 1
1096.1111 -677.748 2409.0 1
1105.8538 -668.4638 2376.0 1
1130.6117 -668.4638 2376.0 1
1179.6829 -682.53076 2426.0 1
1116.6245 -830.05725 2845.0 1
1012.90735 -733.4847 2514.0 1
1024.2234 -722.9813 2478.0 1
1028.0094 -707.8098 2426.0 1
1053.2883 -707.8098 2426.0 1
1078.5671 -707.8098 2426.0 1
1096.1111 -702.84985 2409.0 1
1113.3005 -697.88995 2392.0 1
1154.404 -707.8098 2426.0 1
1187.9495 -712.7697 2443.0 1
1107.5973 -852.75195 2822.0 1
1012.90735 -759.68054 2514.0 1
1024.2234 -748.80206 2478.0 1
1035.2131 -738.22577 2443.0 1
1060.6692 -738.22577 2443.0 1
1086.1251 -738.22577 2443.0 1
1103.8462 -733.0887 2426.0 1
1129.125 -733.0887 2426.0 1
1146.3147 -727.95166 2409.0 1
1135.4639 -904.3518 2893.0 1
1012.90735 -785.8764 2514.0 1
1031.6633 -780.2496 2496.0 1
1042.4169 -768.996 2460.0 1
1060.6692 -763.68176 2443.0 1
1086.1251 -763.68176 2443.0 1
1111.5813 -763.68176 2443.0 1
1129.125 -758.3676 2426.0 1
1135.4639 -934.4968 2893.0 1
1005.655 -806.2579 2496.0 1
1031.6633 -806.2579 2496.0 1
1042.4169 -794.62915 2460.0 1
1060.6692 -789.1378 2443.0 1
1086.1251 -789.1378 2443.0 1
1111.5813 -789.1378 2443.0 1
1144.9496 -794.62915 2460.0 1
1001.2334 -850.60535 2551.0 1
1005.655 -832.2662 2496.0 1
1024.2234 -826.2643 2478.0 1
1042.4169 -820.2623 2460.0 1
1075.865 -826.2643 2478.0 1
1093.6831 -820.2623 2460.0 1
1111.5813 -814.5939 2443.0 1
1170.0826 -838.26807 2514.0 1
1001.2334 -877.1869 2551.0 1
1005.655 -858.2746 2496.0 1
1024.2234 -852.08514 2478.0 1
1042.4169 -845.8956 2460.0 1
1083.6799 -858.2746 2496.0 1
1101.6857 -852.08514 2478.0 1
1127.5066 -852.08514 2478.0 1
989.1706 -917.23096 2589.0 1
993.7762 -897.037 2532.0 1
998.4027 -877.9058 2478.0 1
1024.2234 -877.9058 2478.0 1
1042.4169 -871.5288 2460.0 1
1068.0499 -871.5288 2460.0 1
1101.6857 -877.9058 2478.0 1
1127.5066 -877.9058 2478.0 1
967.39276 -923.4204 2532.0 1
986.71136 -916.8558 2514.0 1
998.4027 -903.72656 2478.0 1
1024.2234 -903.72656 2478.0 1
1050.0443 -903.72656 2478.0 1
1075.865 -903.72656 2478.0 1
1109.6882 -910.2912 2496.0 1
962.1933 -971.1856 2589.0 1
960.51556 -943.05164 2514.0 1
979.6466 -936.2995 2496.0 1
998.4027 -929.5473 2478.0 1
1024.2234 -929.5473 2478.0 1
1057.6718 -936.2995 2496.0 1
1075.865 -929.5473 2478.0 1
948.0707 -983.51245 2551.0 1
953.63837 -962.3078 2496.0 1
979.6466 -962.3078 2496.0 1
998.4027 -955.36804 2478.0 1
1024.2234 -955.36804 2478.0 1
1050.0443 -955.36804 2478.0 1
921.4892 -1010.094 2551.0 1
941.0094 -1002.57074 2532.0 1
953.63837 -988.31616 2496.0 1
979.6466 -988.31616 2496.0 1
1005.655 -988.31616 2496.0 1
1031.6633 -988.31616 2496.0 1
1042.4169 -974.06165 2460.0 1
881.928 -1021.63934 2514.0 1
921.4892 -1036.6754 2551.0 1
934.31976 -1021.63934 2514.0 1
953.63837 -1014.32446 2496.0 1
979.6466 -1014.32446 2496.0 1
998.4027 -1007.00964 2478.0 1
1031.6633 -1014.32446 2496.0 1
1050.0443 -1007.00964 2478.0 1
