ply
format ascii 1.0
comment : created from Kinect user tracker
element vertex 1120
property float x
property float y
property float z
property int userId
end_header
117.9544 212.31793 1698.0 1
135.00842 211.31761 1690.0 1
82.568054 194.62474 1698.0 1
99.25749 192.6762 1681.0 1
115.661995 190.84229 1665.0 1
133.01126 190.84229 1665.0 1
151.80553 192.6762 1681.0 1
170.22804 193.70778 1690.0 1
186.83759 192.6762 1681.0 1
63.61412 173.493 1665.0 1
80.57436 172.6594 1657.0 1
97.84037 172.6594 1657.0 1
113.50853 170.2628 1634.0 1
129.89568 169.4292 1626.0 1
147.56111 170.2628 1634.0 1
164.58734 170.2628 1634.0 1
185.05923 173.493 1665.0 1
203.38103 174.3266 1673.0 1
63.002815 154.64323 1649.0 1
79.45595 153.23653 1634.0 1
96.00992 152.4863 1626.0 1
111.9108 151.07959 1611.0 1
128.69737 151.07959 1611.0 1
146.11621 151.73605 1618.0 1
163.78154 152.4863 1626.0 1
181.6137 153.23653 1634.0 1
200.46342 154.64323 1649.0 1
220.81364 156.89395 1673.0 1
240.66728 158.48822 1690.0 1
46.264755 138.79439 1665.0 1
62.429714 136.21024 1634.0 1
78.677925 134.87646 1618.0 1
95.12422 134.29295 1611.0 1
111.9108 134.29295 1611.0 1
128.05829 133.62607 1603.0 1
144.76161 133.62607 1603.0 1
162.27063 134.29295 1611.0 1
179.05731 134.29295 1611.0 1
198.63992 136.21024 1634.0 1
219.75775 138.79439 1665.0 1
240.66728 140.87839 1690.0 1
255.67899 139.46127 1673.0 1
45.40337 119.18397 1634.0 1
62.12406 118.60045 1626.0 1
78.677925 118.01693 1618.0 1
95.12422 117.50635 1611.0 1
111.9108 117.50635 1611.0 1
128.69737 117.50635 1611.0 1
146.11621 118.01693 1618.0 1
162.97572 118.01693 1618.0 1
180.72452 118.60045 1626.0 1
196.69487 118.01693 1618.0 1
215.66617 119.18397 1634.0 1
235.96786 120.86159 1657.0 1
253.23376 120.86159 1657.0 1
11.795485 106.15894 1698.0 1
28.915499 104.09578 1665.0 1
45.597878 102.5953 1641.0 1
62.429714 102.15766 1634.0 1
79.45595 102.15766 1634.0 1
96.00992 101.6575 1626.0 1
112.397064 101.15734 1618.0 1
128.69737 100.7197 1611.0 1
145.48405 100.7197 1611.0 1
162.27063 100.7197 1611.0 1
179.05731 100.7197 1611.0 1
195.8439 100.7197 1611.0 1
213.55438 101.15734 1618.0 1
233.68936 102.5953 1641.0 1
-6.0158362 90.2372 1732.0 1
11.913579 89.3515 1715.0 1
28.915499 86.7465 1665.0 1
46.04246 86.3297 1657.0 1
63.002815 85.912895 1649.0 1
79.79633 85.4961 1641.0 1
96.00992 84.7146 1626.0 1
112.9528 84.7146 1626.0 1
128.69737 83.9331 1611.0 1
145.48405 83.9331 1611.0 1
162.97572 84.2978 1618.0 1
180.72452 84.7146 1626.0 1
199.49089 85.4961 1641.0 1
218.70186 86.3297 1657.0 1
11.795485 70.77266 1698.0 1
29.054432 69.73065 1673.0 1
46.264755 69.39722 1665.0 1
63.308468 69.063774 1657.0 1
80.18535 68.73033 1649.0 1
96.48229 68.10513 1634.0 1
112.9528 67.7717 1626.0 1
129.25658 67.438255 1618.0 1
145.48405 67.14649 1611.0 1
162.97572 67.438255 1618.0 1
180.72452 67.7717 1626.0 1
199.49089 68.3969 1641.0 1
226.35709 71.48122 1715.0 1
247.93002 72.564896 1741.0 1
29.349667 52.82939 1690.0 1
46.264755 52.04789 1665.0 1
63.61412 52.04789 1665.0 1
80.96338 52.04789 1665.0 1
96.89562 51.29765 1641.0 1
112.9528 50.82875 1626.0 1
129.89568 50.82875 1626.0 1
146.83865 50.82875 1626.0 1
163.78154 50.82875 1626.0 1
181.6137 51.07883 1634.0 1
202.4085 52.04789 1665.0 1
228.60086 54.14231 1732.0 1
251.77501 55.26767 1768.0 1
29.4886 35.38633 1698.0 1
46.264755 34.69861 1665.0 1
64.225426 35.032047 1681.0 1
81.7414 35.032047 1681.0 1
97.84037 34.531887 1657.0 1
113.9948 34.19845 1641.0 1
130.53477 34.052567 1634.0 1
148.19325 34.19845 1641.0 1
164.58734 34.052567 1634.0 1
184.17007 34.531887 1657.0 1
203.38103 34.865326 1673.0 1
234.54025 37.03269 1777.0 1
12.2192335 18.328762 1759.0 1
30.079065 18.047422 1732.0 1
46.95942 17.609783 1690.0 1
64.56929 17.609783 1690.0 1
81.7414 17.516003 1681.0 1
97.84037 17.265923 1657.0 1
114.55053 17.182564 1649.0 1
131.09398 17.099203 1641.0 1
148.19325 17.099203 1641.0 1
164.58734 17.026264 1634.0 1
184.17007 17.265923 1657.0 1
204.35356 17.516003 1681.0 1
233.35237 18.422543 1768.0 1
30.547966 0.0 1759.0 1
49.126778 0.0 1768.0 1
67.54941 0.0 1768.0 1
82.17904 0.0 1690.0 1
98.312744 0.0 1665.0 1
115.10626 0.0 1657.0 1
132.37216 0.0 1657.0 1
148.19325 0.0 1641.0 1
164.58734 0.0 1634.0 1
183.2809 0.0 1649.0 1
203.38103 0.0 1673.0 1
247.21097 0.0 1873.0 1
31.8331 -19.099842 1833.0 1
50.404964 -18.901861 1814.0 1
68.580986 -18.703882 1795.0 1
85.53428 -18.328762 1759.0 1
99.25749 -17.516003 1681.0 1
115.661995 -17.349283 1665.0 1
132.37216 -17.265923 1657.0 1
149.63817 -17.265923 1657.0 1
166.09825 -17.182564 1649.0 1
185.05923 -17.349283 1665.0 1
225.26303 -19.30824 1853.0 1
247.21097 -19.516642 1873.0 1
268.15176 -19.62084 1883.0 1
290.98193 -19.83966 1904.0 1
310.8217 -19.83966 1904.0 1
-25.466455 -38.199684 1833.0 1
-6.335384 -38.012123 1824.0 1
12.802755 -38.40808 1843.0 1
31.6768 -38.012123 1824.0 1
50.127098 -37.59532 1804.0 1
68.92485 -37.59532 1804.0 1
85.971924 -36.845085 1768.0 1
100.73366 -35.553005 1706.0 1
116.21773 -34.865288 1673.0 1
133.01126 -34.698566 1665.0 1
150.36063 -34.698566 1665.0 1
167.70987 -34.698566 1665.0 1
185.05923 -34.698566 1665.0 1
224.04736 -38.40808 1843.0 1
245.89111 -38.824883 1863.0 1
266.7277 -39.033283 1873.0 1
286.24432 -39.033283 1873.0 1
307.39352 -39.24168 1883.0 1
328.92465 -39.47092 1894.0 1
-63.6662 -57.299614 1833.0 1
-44.347507 -57.018276 1824.0 1
-25.341415 -57.018276 1824.0 1
-6.335384 -57.018276 1824.0 1
12.670768 -57.018276 1824.0 1
31.503132 -56.705673 1814.0 1
50.127098 -56.393074 1804.0 1
68.580986 -56.111736 1795.0 1
86.40956 -55.549053 1777.0 1
103.86313 -54.986374 1759.0 1
120.31626 -54.142353 1732.0 1
134.28944 -52.54809 1681.0 1
151.80553 -52.54809 1681.0 1
169.3215 -52.54809 1681.0 1
202.73157 -57.018276 1824.0 1
222.8317 -57.299614 1833.0 1
243.25137 -57.612217 1843.0 1
263.87958 -57.924816 1853.0 1
284.71606 -58.237415 1863.0 1
305.76105 -58.550014 1873.0 1
325.27765 -58.550014 1873.0 1
346.63513 -58.862617 1883.0 1
-82.35969 -76.02434 1824.0 1
-63.006264 -75.60754 1814.0 1
-43.64242 -74.81561 1795.0 1
-25.202482 -75.60754 1814.0 1
-6.234657 -74.81561 1795.0 1
12.469314 -74.81561 1795.0 1
31.329466 -75.190735 1804.0 1
49.877018 -74.81561 1795.0 1
68.580986 -74.81561 1795.0 1
87.28484 -74.81561 1795.0 1
104.92597 -74.06538 1777.0 1
122.81706 -73.690254 1768.0 1
141.23958 -73.690254 1768.0 1
162.1005 -74.81561 1795.0 1
181.71088 -75.190735 1804.0 1
201.6201 -75.60754 1814.0 1
222.8317 -76.39946 1833.0 1
241.9315 -76.39946 1833.0 1
262.4555 -76.81625 1843.0 1
283.18777 -77.233055 1853.0 1
304.12857 -77.64986 1863.0 1
327.0143 -78.48346 1883.0 1
350.50095 -79.358734 1904.0 1
-99.75416 -93.5195 1795.0 1
-81.90816 -94.5094 1814.0 1
-62.346333 -93.5195 1795.0 1
-43.4236 -93.0506 1786.0 1
-24.938509 -93.5195 1795.0 1
-6.234657 -93.5195 1795.0 1
12.469314 -93.5195 1795.0 1
31.173166 -93.5195 1795.0 1
49.877018 -93.5195 1795.0 1
68.23713 -93.0506 1786.0 1
86.8472 -93.0506 1786.0 1
104.92597 -92.581696 1777.0 1
124.06747 -93.0506 1786.0 1
142.67754 -93.0506 1786.0 1
162.1005 -93.5195 1795.0 1
181.71088 -93.988396 1804.0 1
200.50864 -93.988396 1804.0 1
220.52193 -94.5094 1814.0 1
243.25137 -96.0203 1843.0 1
262.4555 -96.0203 1843.0 1
281.65952 -96.0203 1843.0 1
302.49612 -96.5413 1853.0 1
323.541 -97.0623 1863.0 1
344.79428 -97.5833 1873.0 1
-100.81005 -113.41126 1814.0 1
-81.45663 -112.78606 1804.0 1
-62.033733 -111.6607 1786.0 1
-43.4236 -111.6607 1786.0 1
-24.938509 -112.22338 1795.0 1
-6.203397 -111.6607 1786.0 1
12.469314 -112.22338 1795.0 1
31.173166 -112.22338 1795.0 1
49.376858 -111.09802 1777.0 1
68.23713 -111.6607 1786.0 1
86.40956 -111.09802 1777.0 1
104.394554 -110.53534 1768.0 1
124.06747 -111.6607 1786.0 1
142.67754 -111.6607 1786.0 1
161.28773 -111.6607 1786.0 1
180.80434 -112.22338 1795.0 1
199.50832 -112.22338 1795.0 1
219.30626 -112.78606 1804.0 1
241.9315 -114.59914 1833.0 1
262.4555 -115.22434 1843.0 1
281.65952 -115.22434 1843.0 1
302.49612 -115.84954 1853.0 1
323.541 -116.47474 1863.0 1
346.63513 -117.725136 1883.0 1
372.4803 -119.72578 1915.0 1
-101.36578 -133.04253 1824.0 1
-81.45663 -131.58372 1804.0 1
-62.346333 -130.92726 1795.0 1
-43.4236 -130.2708 1786.0 1
-24.813469 -130.2708 1786.0 1
-6.172137 -129.61435 1777.0 1
12.406794 -130.2708 1786.0 1
31.016867 -130.2708 1786.0 1
49.376858 -129.61435 1777.0 1
68.23713 -130.2708 1786.0 1
85.971924 -128.95789 1768.0 1
104.394554 -128.95789 1768.0 1
123.44226 -129.61435 1777.0 1
141.95856 -129.61435 1777.0 1
160.47496 -129.61435 1777.0 1
180.80434 -130.92726 1795.0 1
199.50832 -130.92726 1795.0 1
219.30626 -131.58372 1804.0 1
240.74362 -133.04253 1824.0 1
261.03143 -133.69897 1833.0 1
280.13126 -133.69897 1833.0 1
302.49612 -135.15778 1853.0 1
323.541 -135.88718 1863.0 1
346.63513 -137.34598 1883.0 1
372.4803 -139.68005 1915.0 1
-120.96575 -152.79892 1833.0 1
-101.36578 -152.04868 1824.0 1
-81.45663 -150.38147 1804.0 1
-62.346333 -149.63123 1795.0 1
-43.4236 -148.881 1786.0 1
-24.813469 -148.881 1786.0 1
-6.172137 -148.13075 1777.0 1
12.469314 -149.63123 1795.0 1
31.016867 -148.881 1786.0 1
49.376858 -148.13075 1777.0 1
67.89327 -148.13075 1777.0 1
85.971924 -147.38051 1768.0 1
104.394554 -147.38051 1768.0 1
122.81706 -147.38051 1768.0 1
141.95856 -148.13075 1777.0 1
159.6622 -147.38051 1768.0 1
179.8978 -148.881 1786.0 1
199.50832 -149.63123 1795.0 1
219.30626 -150.38147 1804.0 1
239.42377 -151.21507 1814.0 1
258.3257 -151.21507 1814.0 1
280.13126 -152.79892 1833.0 1
300.86365 -153.6325 1843.0 1
323.541 -155.29971 1863.0 1
346.63513 -156.96692 1883.0 1
372.4803 -159.63443 1915.0 1
394.4838 -160.46803 1925.0 1
-121.62569 -172.83655 1843.0 1
-101.36578 -171.05473 1824.0 1
-81.90816 -170.11693 1814.0 1
-62.346333 -168.33511 1795.0 1
-43.64242 -168.33511 1795.0 1
-24.813469 -167.49109 1786.0 1
-6.172137 -166.64708 1777.0 1
12.406794 -167.49109 1786.0 1
30.860565 -166.64708 1777.0 1
49.376858 -166.64708 1777.0 1
67.54941 -165.80305 1768.0 1
85.971924 -165.80305 1768.0 1
104.394554 -165.80305 1768.0 1
122.81706 -165.80305 1768.0 1
141.23958 -165.80305 1768.0 1
160.47496 -166.64708 1777.0 1
179.8978 -167.49109 1786.0 1
199.50832 -168.33511 1795.0 1
219.30626 -169.17914 1804.0 1
240.74362 -171.05473 1824.0 1
258.3257 -170.11693 1814.0 1
281.65952 -172.83655 1843.0 1
300.86365 -172.83655 1843.0 1
325.27765 -175.64995 1873.0 1
348.6601 -177.61934 1894.0 1
374.42535 -180.52652 1925.0 1
-122.94556 -194.1246 1863.0 1
-101.36578 -190.06079 1824.0 1
-82.35969 -190.06079 1824.0 1
-62.65893 -187.97679 1804.0 1
-43.64242 -187.039 1795.0 1
-24.813469 -186.1012 1786.0 1
-6.172137 -185.16339 1777.0 1
12.344274 -185.16339 1777.0 1
30.860565 -185.16339 1777.0 1
49.376858 -185.16339 1777.0 1
67.54941 -184.2256 1768.0 1
85.971924 -184.2256 1768.0 1
104.394554 -184.2256 1768.0 1
122.81706 -184.2256 1768.0 1
141.23958 -184.2256 1768.0 1
160.47496 -185.16339 1777.0 1
179.8978 -186.1012 1786.0 1
199.50832 -187.039 1795.0 1
219.30626 -187.97679 1804.0 1
239.42377 -189.0188 1814.0 1
259.7498 -190.06079 1824.0 1
280.13126 -190.9986 1833.0 1
302.49612 -193.0826 1853.0 1
328.92465 -197.3548 1894.0 1
350.50095 -198.39679 1904.0 1
376.5649 -201.7312 1936.0 1
396.738 -201.7312 1936.0 1
-122.94556 -213.53703 1863.0 1
-101.865944 -210.09843 1833.0 1
-82.35969 -209.06686 1824.0 1
-63.006264 -207.92065 1814.0 1
-43.64242 -205.74287 1795.0 1
-24.813469 -204.7113 1786.0 1
-6.172137 -203.67972 1777.0 1
12.344274 -203.67972 1777.0 1
30.704266 -202.64813 1768.0 1
49.126778 -202.64813 1768.0 1
67.54941 -202.64813 1768.0 1
85.971924 -202.64813 1768.0 1
104.92597 -203.67972 1777.0 1
122.81706 -202.64813 1768.0 1
141.95856 -203.67972 1777.0 1
161.28773 -204.7113 1786.0 1
178.99126 -203.67972 1777.0 1
199.50832 -205.74287 1795.0 1
220.52193 -207.92065 1814.0 1
238.1039 -206.77446 1804.0 1
258.3257 -207.92065 1814.0 1
280.13126 -210.09843 1833.0 1
302.49612 -212.39084 1853.0 1
330.66132 -218.23645 1904.0 1
350.50095 -218.23645 1904.0 1
372.4803 -219.49728 1915.0 1
-144.72684 -236.82571 1894.0 1
-122.94556 -232.94948 1863.0 1
-101.865944 -229.19827 1833.0 1
-82.76607 -229.19827 1833.0 1
-63.3536 -228.07292 1824.0 1
-43.64242 -224.44676 1795.0 1
-24.813469 -223.3214 1786.0 1
-6.203397 -223.3214 1786.0 1
12.406794 -223.3214 1786.0 1
30.860565 -222.19604 1777.0 1
49.126778 -221.07068 1768.0 1
67.54941 -221.07068 1768.0 1
85.971924 -221.07068 1768.0 1
104.92597 -222.19604 1777.0 1
123.44226 -222.19604 1777.0 1
142.67754 -223.3214 1786.0 1
161.28773 -223.3214 1786.0 1
179.8978 -223.3214 1786.0 1
199.50832 -224.44676 1795.0 1
218.21216 -224.44676 1795.0 1
238.1039 -225.57211 1804.0 1
259.7498 -228.07292 1824.0 1
280.13126 -229.19827 1833.0 1
307.39352 -235.45027 1883.0 1
332.57166 -239.45155 1915.0 1
352.5259 -239.45155 1915.0 1
374.42535 -240.70195 1925.0 1
-145.49097 -257.91586 1904.0 1
-122.94556 -252.36201 1863.0 1
-102.42168 -249.65282 1843.0 1
-83.217606 -249.65282 1843.0 1
-64.013535 -249.65282 1843.0 1
-44.566326 -248.29822 1833.0 1
-24.938509 -243.15073 1795.0 1
-6.203397 -241.9316 1786.0 1
12.406794 -241.9316 1786.0 1
30.860565 -240.71245 1777.0 1
49.376858 -240.71245 1777.0 1
67.54941 -239.49332 1768.0 1
85.971924 -239.49332 1768.0 1
104.92597 -240.71245 1777.0 1
123.44226 -240.71245 1777.0 1
142.67754 -241.9316 1786.0 1
161.28773 -241.9316 1786.0 1
180.80434 -243.15073 1795.0 1
199.50832 -243.15073 1795.0 1
218.21216 -243.15073 1795.0 1
238.1039 -244.36987 1804.0 1
259.7498 -247.07907 1824.0 1
280.13126 -248.29822 1833.0 1
317.8413 -263.74066 1947.0 1
332.57166 -259.40594 1915.0 1
352.5259 -259.40594 1915.0 1
374.42535 -260.76053 1925.0 1
394.4838 -260.76053 1925.0 1
-145.49097 -277.75552 1904.0 1
-122.94556 -271.77444 1863.0 1
-102.97741 -270.31564 1853.0 1
-83.669136 -270.31564 1853.0 1
-65.055534 -273.23325 1873.0 1
-45.781994 -274.69205 1883.0 1
-25.341415 -266.08514 1824.0 1
-6.234657 -261.8546 1795.0 1
12.469314 -261.8546 1795.0 1
30.860565 -259.22876 1777.0 1
49.376858 -259.22876 1777.0 1
67.54941 -257.91586 1768.0 1
85.971924 -257.91586 1768.0 1
104.92597 -259.22876 1777.0 1
123.44226 -259.22876 1777.0 1
142.67754 -260.5417 1786.0 1
162.91325 -263.16754 1804.0 1
181.71088 -263.16754 1804.0 1
200.50864 -263.16754 1804.0 1
219.30626 -263.16754 1804.0 1
239.42377 -264.62634 1814.0 1
259.7498 -266.08514 1824.0 1
278.7558 -266.08514 1824.0 1
319.63702 -285.63306 1958.0 1
334.30832 -280.819 1925.0 1
354.3668 -280.819 1925.0 1
374.42535 -280.819 1925.0 1
394.4838 -280.819 1925.0 1
405.4978 -274.69205 1883.0 1
-169.0645 -304.3161 1947.0 1
-146.33151 -299.31448 1915.0 1
-124.99135 -296.0322 1894.0 1
-104.088875 -292.7499 1873.0 1
-85.023735 -294.3129 1883.0 1
-66.514336 -299.31448 1915.0 1
-46.292572 -297.59518 1904.0 1
-25.605389 -288.06088 1843.0 1
-6.3006506 -283.5282 1814.0 1
12.469314 -280.5585 1795.0 1
31.173166 -280.5585 1795.0 1
49.376858 -277.7451 1777.0 1
67.89327 -277.7451 1777.0 1
85.971924 -276.3384 1768.0 1
105.45739 -279.1518 1786.0 1
124.692665 -280.5585 1795.0 1
143.39651 -280.5585 1795.0 1
162.1005 -280.5585 1795.0 1
181.71088 -281.9652 1804.0 1
201.6201 -283.5282 1814.0 1
220.52193 -283.5282 1814.0 1
241.9315 -286.4979 1833.0 1
261.03143 -286.4979 1833.0 1
336.21866 -302.5968 1936.0 1
356.39172 -302.5968 1936.0 1
374.42535 -300.8775 1925.0 1
398.9922 -304.3161 1947.0 1
-169.0645 -324.60382 1947.0 1
-147.09566 -320.93597 1925.0 1
-126.377205 -319.26877 1915.0 1
-105.81165 -317.43484 1904.0 1
-85.971954 -317.43484 1904.0 1
-66.514336 -319.26877 1915.0 1
-46.292572 -317.43484 1904.0 1
-25.883255 -310.59933 1863.0 1
-6.3666444 -305.59775 1833.0 1
12.601301 -302.43005 1814.0 1
31.329466 -300.76285 1804.0 1
49.626938 -297.7619 1786.0 1
67.89327 -296.2614 1777.0 1
86.8472 -297.7619 1786.0 1
105.988815 -299.2624 1795.0 1
124.692665 -299.2624 1795.0 1
143.39651 -299.2624 1795.0 1
162.91325 -300.76285 1804.0 1
182.71814 -302.43005 1814.0 1
203.73189 -305.59775 1833.0 1
221.7376 -304.09726 1824.0 1
243.25137 -307.26492 1843.0 1
268.15176 -313.93375 1883.0 1
284.71606 -310.59933 1863.0 1
338.129 -324.60382 1947.0 1
358.4167 -324.60382 1947.0 1
376.5649 -322.7699 1936.0 1
398.9922 -324.60382 1947.0 1
-169.0645 -344.89154 1947.0 1
-147.09566 -340.99445 1925.0 1
-126.377205 -339.22305 1915.0 1
-106.42296 -339.22305 1915.0 1
-87.41686 -342.943 1936.0 1
-66.514336 -339.22305 1915.0 1
-46.292572 -337.2745 1904.0 1
-26.022188 -331.78317 1873.0 1
-6.436111 -328.2404 1853.0 1
12.802755 -326.46896 1843.0 1
31.6768 -323.10333 1824.0 1
50.127098 -319.56052 1804.0 1
68.580986 -317.96625 1795.0 1
87.28484 -317.96625 1795.0 1
106.52023 -319.56052 1804.0 1
125.31786 -319.56052 1804.0 1
144.1155 -319.56052 1804.0 1
162.91325 -319.56052 1804.0 1
183.72542 -323.10333 1824.0 1
202.73157 -323.10333 1824.0 1
224.04736 -326.46896 1843.0 1
245.89111 -330.01178 1863.0 1
269.71826 -335.5031 1894.0 1
341.94965 -348.7886 1969.0 1
360.44162 -346.8401 1958.0 1
378.7045 -344.89154 1947.0 1
398.9922 -344.89154 1947.0 1
-169.0645 -365.17935 1947.0 1
-147.9362 -363.11618 1936.0 1
-127.76306 -363.11618 1936.0 1
-108.2013 -365.17935 1947.0 1
-46.292572 -357.11426 1904.0 1
-26.022188 -351.2999 1873.0 1
-6.4708447 -349.42432 1863.0 1
12.802755 -345.6731 1843.0 1
31.8331 -343.79752 1833.0 1
50.404964 -340.23386 1814.0 1
69.306915 -340.23386 1814.0 1
87.72248 -338.35828 1804.0 1
106.52023 -338.35828 1804.0 1
125.31786 -338.35828 1804.0 1
144.1155 -338.35828 1804.0 1
163.81631 -340.23386 1814.0 1
184.63196 -343.79752 1833.0 1
203.73189 -343.79752 1833.0 1
224.04736 -345.6731 1843.0 1
248.53084 -353.1755 1883.0 1
362.46658 -369.30566 1969.0 1
380.8441 -367.24252 1958.0 1
396.738 -363.11618 1936.0 1
416.9112 -363.11618 1936.0 1
-189.35225 -385.46707 1947.0 1
-169.0645 -385.46707 1947.0 1
-148.77675 -385.46707 1947.0 1
-128.489 -385.46707 1947.0 1
-108.81261 -387.64487 1958.0 1
-67.6258 -385.46707 1947.0 1
-46.292572 -376.95392 1904.0 1
-26.022188 -370.81656 1873.0 1
-6.4708447 -368.83676 1863.0 1
12.9416895 -368.83676 1863.0 1
32.006767 -364.87717 1843.0 1
50.93291 -362.89734 1833.0 1
69.306915 -359.13574 1814.0 1
87.72248 -357.15594 1804.0 1
106.52023 -357.15594 1804.0 1
125.31786 -357.15594 1804.0 1
144.91437 -359.13574 1814.0 1
163.81631 -359.13574 1814.0 1
184.63196 -362.89734 1833.0 1
203.73189 -362.89734 1833.0 1
225.26303 -366.85696 1853.0 1
252.75441 -379.1317 1915.0 1
360.44162 -387.64487 1958.0 1
378.7045 -385.46707 1947.0 1
394.4838 -381.1115 1925.0 1
416.9112 -383.2893 1936.0 1
-189.35225 -405.7548 1947.0 1
-169.0645 -405.7548 1947.0 1
-148.77675 -405.7548 1947.0 1
-129.21492 -408.04718 1958.0 1
-109.42392 -410.3396 1969.0 1
-67.6258 -405.7548 1947.0 1
-46.56002 -399.086 1915.0 1
-26.313948 -394.7096 1894.0 1
-6.4708447 -388.2492 1863.0 1
13.011156 -390.3332 1873.0 1
32.18043 -386.1652 1853.0 1
51.210777 -384.0812 1843.0 1
69.68898 -380.12158 1824.0 1
88.20875 -378.0376 1814.0 1
107.1107 -378.0376 1814.0 1
126.01253 -378.0376 1814.0 1
145.71323 -380.12158 1824.0 1
164.71938 -380.12158 1824.0 1
184.63196 -381.9972 1833.0 1
204.84335 -384.0812 1843.0 1
227.69437 -390.3332 1873.0 1
252.75441 -399.086 1915.0 1
360.44162 -408.04718 1958.0 1
376.5649 -403.4624 1936.0 1
394.4838 -401.16998 1925.0 1
414.5424 -401.16998 1925.0 1
434.60083 -401.16998 1925.0 1
-190.42204 -428.44952 1958.0 1
-169.0645 -426.0425 1947.0 1
-148.77675 -426.0425 1947.0 1
-129.21492 -428.44952 1958.0 1
-67.6258 -426.0425 1947.0 1
-46.56002 -419.04028 1915.0 1
-26.161121 -412.03802 1883.0 1
-6.505578 -409.84982 1873.0 1
13.011156 -409.84982 1873.0 1
32.3541 -407.66162 1863.0 1
51.488644 -405.47342 1853.0 1
70.032845 -401.09705 1833.0 1
89.13265 -401.09705 1833.0 1
107.701164 -399.12766 1824.0 1
126.01253 -396.93945 1814.0 1
145.71323 -399.12766 1824.0 1
165.53214 -401.09705 1833.0 1
184.63196 -401.09705 1833.0 1
207.06628 -407.66162 1863.0 1
230.24727 -414.44507 1894.0 1
254.07428 -421.2285 1925.0 1
274.13284 -421.2285 1925.0 1
358.4167 -426.0425 1947.0 1
374.42535 -421.2285 1925.0 1
392.43454 -419.04028 1915.0 1
410.0201 -416.63324 1904.0 1
432.34317 -419.04028 1915.0 1
-190.42204 -448.85187 1958.0 1
-169.0645 -446.33023 1947.0 1
-148.77675 -446.33023 1947.0 1
-129.21492 -448.85187 1958.0 1
-67.6258 -446.33023 1947.0 1
-46.56002 -438.99457 1915.0 1
-26.161121 -431.65887 1883.0 1
-6.505578 -429.3665 1873.0 1
13.011156 -429.3665 1873.0 1
32.3541 -427.07407 1863.0 1
51.488644 -424.78168 1853.0 1
70.41491 -422.4893 1843.0 1
89.13265 -420.19687 1833.0 1
107.701164 -418.13373 1824.0 1
127.3324 -420.19687 1833.0 1
146.4322 -420.19687 1833.0 1
166.43521 -422.4893 1843.0 1
185.63922 -422.4893 1843.0 1
208.17775 -429.3665 1873.0 1
231.46294 -436.4729 1904.0 1
256.978 -446.33023 1947.0 1
374.42535 -441.28696 1925.0 1
392.43454 -438.99457 1915.0 1
407.86664 -434.1805 1894.0 1
427.60205 -434.1805 1894.0 1
-210.8244 -469.2543 1958.0 1
-189.35225 -466.61804 1947.0 1
-169.0645 -466.61804 1947.0 1
-149.6173 -469.2543 1958.0 1
-129.21492 -469.2543 1958.0 1
-89.40361 -474.52682 1980.0 1
-68.007866 -469.2543 1958.0 1
-46.56002 -458.94894 1915.0 1
-26.313948 -453.91608 1894.0 1
-6.505578 -448.8832 1873.0 1
13.011156 -448.8832 1873.0 1
32.3541 -446.4866 1863.0 1
51.488644 -444.09 1853.0 1
70.796974 -444.09 1853.0 1
89.61892 -441.69342 1843.0 1
108.23259 -439.2968 1833.0 1
128.02707 -441.69342 1843.0 1
147.23108 -441.69342 1843.0 1
166.43521 -441.69342 1843.0 1
187.65375 -446.4866 1863.0 1
208.17775 -448.8832 1873.0 1
231.46294 -456.31268 1904.0 1
256.978 -466.61804 1947.0 1
374.42535 -461.34552 1925.0 1
392.43454 -458.94894 1915.0 1
405.4978 -451.27982 1883.0 1
427.60205 -453.91608 1894.0 1
-212.00882 -492.40753 1969.0 1
-190.42204 -489.65665 1958.0 1
-169.0645 -486.90576 1947.0 1
-149.6173 -489.65665 1958.0 1
-128.489 -486.90576 1947.0 1
-89.40361 -495.15842 1980.0 1
-67.6258 -486.90576 1947.0 1
-46.56002 -478.9032 1915.0 1
-26.45288 -476.15234 1904.0 1
-6.5403113 -470.90067 1883.0 1
13.080623 -470.90067 1883.0 1
32.527767 -468.39984 1873.0 1
51.488644 -463.39825 1853.0 1
70.796974 -463.39825 1853.0 1
89.61892 -460.89746 1843.0 1
108.82305 -460.89746 1843.0 1
128.02707 -460.89746 1843.0 1
147.23108 -460.89746 1843.0 1
167.33827 -463.39825 1853.0 1
187.65375 -465.89905 1863.0 1
209.28922 -470.90067 1883.0 1
232.80016 -478.9032 1915.0 1
259.88168 -492.40753 1969.0 1
372.4803 -478.9032 1915.0 1
390.18033 -476.15234 1904.0 1
405.4978 -470.90067 1883.0 1
425.11862 -470.90067 1883.0 1
452.2974 -478.9032 1915.0 1
-212.00882 -512.9245 1969.0 1
-190.42204 -510.059 1958.0 1
-169.0645 -507.19348 1947.0 1
-149.6173 -510.059 1958.0 1
-67.6258 -507.19348 1947.0 1
-46.56002 -498.85748 1915.0 1
-26.45288 -495.992 1904.0 1
-6.5403113 -490.52148 1883.0 1
13.157037 -493.387 1894.0 1
32.527767 -487.9165 1873.0 1
51.76651 -485.3115 1863.0 1
70.796974 -482.70648 1853.0 1
89.61892 -480.1015 1843.0 1
108.82305 -480.1015 1843.0 1
128.72173 -482.70648 1853.0 1
148.82881 -485.3115 1863.0 1
168.24135 -485.3115 1863.0 1
188.66103 -487.9165 1873.0 1
210.51183 -493.387 1894.0 1
235.35306 -504.328 1936.0 1
264.36923 -521.7815 2003.0 1
390.18033 -495.992 1904.0 1
403.34436 -487.9165 1873.0 1
422.86096 -487.9165 1873.0 1
-212.00882 -533.44147 1969.0 1
-190.42204 -530.4613 1958.0 1
-170.01967 -530.4613 1958.0 1
-149.6173 -530.4613 1958.0 1
-68.007866 -530.4613 1958.0 1
-46.56002 -518.81177 1915.0 1
-26.45288 -515.83167 1904.0 1
-6.6132517 -515.83167 1904.0 1
13.3029175 -518.81177 1915.0 1
32.70143 -510.14233 1883.0 1
52.044376 -507.43314 1873.0 1
71.17905 -504.72394 1863.0 1
90.59145 -504.72394 1863.0 1
110.00399 -504.72394 1863.0 1
130.11107 -507.43314 1873.0 1
149.62767 -507.43314 1873.0 1
170.04747 -510.14233 1883.0 1
190.77628 -513.12244 1894.0 1
212.84592 -518.81177 1915.0 1
238.02753 -530.4613 1958.0 1
264.36923 -542.6527 2003.0 1
388.13107 -513.12244 1894.0 1
403.34436 -507.43314 1873.0 1
420.6033 -504.72394 1863.0 1
442.37756 -507.43314 1873.0 1
-212.00882 -553.95844 1969.0 1
-190.42204 -550.86365 1958.0 1
-170.01967 -550.86365 1958.0 1
-68.38993 -553.95844 1969.0 1
-47.0706 -544.6742 1936.0 1
-26.605707 -538.76605 1915.0 1
-6.6132517 -535.6713 1904.0 1
13.3029175 -538.76605 1915.0 1
33.257168 -538.76605 1915.0 1
52.322243 -529.7632 1883.0 1
71.94318 -529.7632 1883.0 1
91.56399 -529.7632 1883.0 1
111.18492 -529.7632 1883.0 1
130.11107 -526.94977 1873.0 1
150.42654 -529.7632 1883.0 1
171.04085 -532.8579 1894.0 1
192.89154 -538.76605 1915.0 1
217.62521 -550.86365 1958.0 1
240.702 -557.05316 1980.0 1
265.95306 -566.9 2015.0 1
401.1909 -524.13635 1863.0 1
418.3456 -521.323 1853.0 1
437.65384 -521.323 1853.0 1
-233.82477 -577.6848 1980.0 1
-212.00882 -574.47546 1969.0 1
-189.35225 -568.05676 1947.0 1
-170.01967 -571.2661 1958.0 1
-90.44214 -584.3953 2003.0 1
-68.007866 -571.2661 1958.0 1
-47.0706 -564.8474 1936.0 1
-26.605707 -558.7204 1915.0 1
-6.6514587 -558.7204 1915.0 1
13.3029175 -558.7204 1915.0 1
33.257168 -558.7204 1915.0 1
53.211414 -558.7204 1915.0 1
72.745514 -555.51105 1904.0 1
92.09888 -552.59344 1894.0 1
111.18492 -549.3841 1883.0 1
131.56987 -552.59344 1894.0 1
152.98291 -558.7204 1915.0 1
173.84036 -561.638 1925.0 1
196.11479 -568.05676 1947.0 1
218.84784 -574.47546 1969.0 1
242.1608 -581.186 1992.0 1
269.12076 -594.8987 2039.0 1
288.65833 -591.3975 2027.0 1
399.0374 -540.6313 1853.0 1
416.08795 -537.7137 1843.0 1
435.29196 -537.7137 1843.0 1
-229.92769 -588.3445 1947.0 1
-210.8244 -591.66846 1958.0 1
-189.35225 -588.3445 1947.0 1
-88.90692 -594.99243 1969.0 1
-67.6258 -588.3445 1947.0 1
-47.0706 -585.0205 1936.0 1
-26.605707 -578.6747 1915.0 1
-6.6514587 -578.6747 1915.0 1
13.3029175 -578.6747 1915.0 1
33.257168 -578.6747 1915.0 1
53.211414 -578.6747 1915.0 1
73.165794 -578.6747 1915.0 1
93.12004 -578.6747 1915.0 1
113.07442 -578.6747 1915.0 1
133.02867 -578.6747 1915.0 1
153.78178 -581.69653 1925.0 1
174.83372 -585.0205 1936.0 1
197.22278 -591.66846 1958.0 1
218.84784 -594.99243 1969.0 1
244.95683 -608.8927 2015.0 1
269.12076 -616.145 2039.0 1
413.8303 -553.89594 1833.0 1
432.9301 -553.89594 1833.0 1
449.81058 -551.17633 1824.0 1
-232.52574 -615.5094 1969.0 1
-210.8244 -612.0708 1958.0 1
-189.35225 -608.6322 1947.0 1
-88.41024 -612.0708 1958.0 1
-67.6258 -608.6322 1947.0 1
-46.803154 -601.755 1925.0 1
-26.605707 -598.62897 1915.0 1
-6.6132517 -595.19037 1904.0 1
13.3029175 -598.62897 1915.0 1
33.257168 -598.62897 1915.0 1
53.211414 -598.62897 1915.0 1
73.54786 -601.755 1925.0 1
93.12004 -598.62897 1915.0 1
113.66488 -601.755 1925.0 1
133.72333 -601.755 1925.0 1
153.78178 -601.755 1925.0 1
175.8271 -608.6322 1947.0 1
198.33078 -615.5094 1969.0 1
220.07045 -618.948 1980.0 1
243.49803 -626.1378 2003.0 1
265.95306 -629.889 2015.0 1
411.7984 -570.1824 1824.0 1
428.44257 -567.0564 1814.0 1
449.81058 -570.1824 1824.0 1
-231.22672 -632.47314 1958.0 1
-209.64 -628.9199 1947.0 1
-189.35225 -628.9199 1947.0 1
-88.41024 -632.47314 1958.0 1
-67.6258 -628.9199 1947.0 1
-46.803154 -621.8135 1925.0 1
-26.605707 -618.58325 1915.0 1
-6.6132517 -615.03 1904.0 1
13.3029175 -618.58325 1915.0 1
33.257168 -618.58325 1915.0 1
53.211414 -618.58325 1915.0 1
73.54786 -621.8135 1925.0 1
93.60631 -621.8135 1925.0 1
113.66488 -621.8135 1925.0 1
133.72333 -621.8135 1925.0 1
155.53929 -628.9199 1947.0 1
176.82048 -632.47314 1958.0 1
198.33078 -636.02637 1969.0 1
221.4042 -643.4558 1992.0 1
244.95683 -650.88525 2015.0 1
270.7046 -662.514 2051.0 1
407.28305 -582.728 1804.0 1
426.0807 -582.728 1804.0 1
447.3445 -585.95825 1814.0 1
-231.22672 -652.8755 1958.0 1
-210.8244 -652.8755 1958.0 1
-189.35225 -649.20764 1947.0 1
-169.0645 -649.20764 1947.0 1
-88.41024 -652.8755 1958.0 1
-67.6258 -649.20764 1947.0 1
-46.803154 -641.87195 1925.0 1
-26.605707 -638.53754 1915.0 1
-6.6132517 -634.8697 1904.0 1
13.3029175 -638.53754 1915.0 1
33.257168 -638.53754 1915.0 1
53.211414 -638.53754 1915.0 1
73.54786 -641.87195 1925.0 1
93.60631 -641.87195 1925.0 1
114.31439 -645.5398 1936.0 1
134.48746 -645.5398 1936.0 1
155.53929 -649.20764 1947.0 1
177.81384 -656.54333 1969.0 1
198.33078 -656.54333 1969.0 1
222.62682 -667.88025 2003.0 1
244.95683 -671.88153 2015.0 1
270.7046 -683.8854 2051.0 1
388.4854 -601.5257 1804.0 1
405.25116 -598.5248 1795.0 1
423.95502 -598.5248 1795.0 1
444.87845 -601.5257 1804.0 1
468.81662 -608.1945 1824.0 1
-232.52574 -677.06036 1969.0 1
-210.8244 -673.2779 1958.0 1
-189.35225 -669.4954 1947.0 1
-170.01967 -673.2779 1958.0 1
-88.41024 -673.2779 1958.0 1
-67.6258 -669.4954 1947.0 1
-46.803154 -661.93054 1925.0 1
-26.605707 -658.49194 1915.0 1
-6.6132517 -654.7095 1904.0 1
13.3029175 -658.49194 1915.0 1
33.430832 -661.93054 1925.0 1
53.48928 -661.93054 1925.0 1
73.96813 -665.713 1936.0 1
94.676094 -669.4954 1947.0 1
115.61343 -673.2779 1958.0 1
136.01573 -673.2779 1958.0 1
157.2968 -677.06036 1969.0 1
178.80722 -680.84283 1980.0 1
200.64749 -684.9692 1992.0 1
223.96059 -692.8779 2015.0 1
247.87444 -701.13055 2039.0 1
269.12076 -701.13055 2039.0 1
384.6092 -614.134 1786.0 1
403.21927 -614.134 1786.0 1
419.70364 -611.03925 1777.0 1
438.22006 -611.03925 1777.0 1
-232.52574 -697.57733 1969.0 1
-209.64 -689.78314 1947.0 1
-189.35225 -689.78314 1947.0 1
-170.01967 -693.68024 1958.0 1
-88.90692 -697.57733 1969.0 1
-67.6258 -689.78314 1947.0 1
-46.803154 -681.989 1925.0 1
-26.605707 -678.4462 1915.0 1
-6.6514587 -678.4462 1915.0 1
13.3029175 -678.4462 1915.0 1
33.430832 -681.989 1925.0 1
53.48928 -681.989 1925.0 1
74.80868 -693.68024 1958.0 1
95.21098 -693.68024 1958.0 1
116.26294 -697.57733 1969.0 1
136.77986 -697.57733 1969.0 1
159.13419 -705.72577 1992.0 1
180.88428 -709.62286 2003.0 1
201.75548 -709.62286 2003.0 1
223.96059 -713.8742 2015.0 1
249.33322 -726.6283 2051.0 1
382.67108 -629.55554 1777.0 1
401.18735 -629.55554 1777.0 1
419.70364 -629.55554 1777.0 1
438.22006 -629.55554 1777.0 1
456.73636 -629.55554 1777.0 1
-229.92769 -710.07086 1947.0 1
-209.64 -710.07086 1947.0 1
-189.35225 -710.07086 1947.0 1
-170.01967 -714.0826 1958.0 1
-147.9362 -706.0592 1936.0 1
-89.40361 -722.10596 1980.0 1
-67.6258 -710.07086 1947.0 1
-47.0706 -706.0592 1936.0 1
-26.605707 -698.4005 1915.0 1
-6.6514587 -698.4005 1915.0 1
13.372384 -702.0475 1925.0 1
33.430832 -702.0475 1925.0 1
53.48928 -702.0475 1925.0 1
74.80868 -714.0826 1958.0 1
97.399185 -730.4941 2003.0 1
118.97909 -734.8705 2015.0 1
141.64253 -743.6233 2039.0 1
161.93022 -739.2469 2027.0 1
181.96796 -734.8705 2015.0 1
202.9642 -734.8705 2015.0 1
226.6281 -743.6233 2039.0 1
249.33322 -747.9997 2051.0 1
380.73294 -644.7896 1768.0 1
399.15546 -644.7896 1768.0 1
417.57797 -644.7896 1768.0 1
433.78113 -641.50726 1759.0 1
456.73636 -648.0719 1777.0 1
-209.64 -730.3586 1947.0 1
-189.35225 -730.3586 1947.0 1
-170.97482 -738.61127 1969.0 1
-149.6173 -734.4849 1958.0 1
-88.90692 -738.61127 1969.0 1
-67.6258 -730.3586 1947.0 1
-47.0706 -726.2323 1936.0 1
-26.605707 -718.3548 1915.0 1
-6.6514587 -718.3548 1915.0 1
13.372384 -722.10596 1925.0 1
33.621864 -726.2323 1936.0 1
53.794933 -726.2323 1936.0 1
74.80868 -734.4849 1958.0 1
101.53245 -783.25055 2088.0 1
121.813324 -773.8725 2063.0 1
143.30974 -773.8725 2063.0 1
163.84749 -769.3711 2051.0 1
184.13531 -764.8696 2039.0 1
205.38164 -764.8696 2039.0 1
229.29562 -773.8725 2063.0 1
380.73294 -663.21216 1768.0 1
397.12357 -659.83606 1759.0 1
415.4523 -659.83606 1759.0 1
433.78113 -659.83606 1759.0 1
456.73636 -666.5882 1777.0 1
-210.8244 -754.88727 1958.0 1
-190.42204 -754.88727 1958.0 1
-171.93 -763.36914 1980.0 1
-150.45784 -759.12823 1969.0 1
-88.90692 -759.12823 1969.0 1
-67.6258 -750.6463 1947.0 1
-46.803154 -742.1644 1925.0 1
-26.605707 -738.309 1915.0 1
-6.6514587 -738.309 1915.0 1
13.372384 -742.1644 1925.0 1
33.621864 -746.4054 1936.0 1
54.40624 -754.88727 1958.0 1
74.80868 -754.88727 1958.0 1
102.796745 -815.0315 2114.0 1
123.28949 -805.00745 2088.0 1
143.30974 -795.36896 2063.0 1
164.80614 -795.36896 2063.0 1
185.219 -790.7425 2051.0 1
207.79909 -795.36896 2063.0 1
232.0743 -805.00745 2088.0 1
256.99194 -815.0315 2114.0 1
397.12357 -678.1648 1759.0 1
415.4523 -678.1648 1759.0 1
433.78113 -678.1648 1759.0 1
452.10986 -678.1648 1759.0 1
-210.8244 -775.28973 1958.0 1
-190.42204 -775.28973 1958.0 1
-170.97482 -779.64526 1969.0 1
-88.41024 -775.28973 1958.0 1
-67.6258 -770.93414 1947.0 1
-46.803154 -762.223 1925.0 1
-26.74464 -762.223 1925.0 1
-6.6514587 -758.2634 1915.0 1
13.448798 -766.5786 1936.0 1
33.621864 -766.5786 1936.0 1
54.40624 -775.28973 1958.0 1
75.22895 -779.64526 1969.0 1
103.42889 -842.207 2127.0 1
124.0571 -831.912 2101.0 1
145.0464 -826.7645 2088.0 1
165.84467 -822.013 2076.0 1
186.30267 -816.8655 2063.0 1
210.31725 -826.7645 2088.0 1
233.5192 -831.912 2101.0 1
395.09164 -692.93 1750.0 1
415.4523 -696.49365 1759.0 1
436.0006 -700.0573 1768.0 1
-88.90692 -800.16223 1969.0 1
-67.6258 -791.22186 1947.0 1
-47.0706 -786.7517 1936.0 1
-26.897467 -786.7517 1936.0 1
-6.6514587 -778.2177 1915.0 1
13.448798 -786.7517 1936.0 1
34.003933 -795.692 1958.0 1
54.711895 -800.16223 1969.0 1
82.79388 -880.6255 2167.0 1
103.42889 -864.37024 2127.0 1
124.82471 -859.08734 2114.0 1
145.94946 -853.8044 2101.0 1
166.8033 -848.5214 2088.0 1
188.56035 -848.5214 2088.0 1
212.93614 -859.08734 2114.0 1
234.96411 -859.08734 2114.0 1
