ply
format ascii 1.0
comment : created from Kinect user tracker
element vertex 656
property float x
property float y
property float z
property int userId
end_header
841.74493 425.30267 2551.0 1
849.60504 416.1331 2496.0 1
895.1196 413.13214 2478.0 1
927.6301 416.1331 2496.0 1
809.0922 395.7516 2532.0 1
829.5362 392.9382 2514.0 1
855.732 392.9382 2514.0 1
875.61346 390.1248 2496.0 1
895.1196 387.3114 2478.0 1
914.25085 384.498 2460.0 1
953.63837 390.1248 2496.0 1
815.1636 372.1399 2551.0 1
841.74493 372.1399 2551.0 1
861.85895 369.36816 2532.0 1
875.61346 364.1165 2496.0 1
895.1196 361.49066 2478.0 1
920.9405 361.49066 2478.0 1
939.884 358.8648 2460.0 1
979.6466 364.1165 2496.0 1
1067.2998 386.43613 2649.0 1
812.694 356.12433 2629.0 1
827.3064 350.70593 2589.0 1
841.74493 345.55844 2551.0 1
861.85895 342.9847 2532.0 1
875.61346 338.10815 2496.0 1
901.6217 338.10815 2496.0 1
927.6301 338.10815 2496.0 1
953.63837 338.10815 2496.0 1
993.7762 342.9847 2532.0 1
827.3064 323.72858 2589.0 1
848.01434 321.3528 2570.0 1
868.3263 318.97705 2551.0 1
881.928 314.35056 2514.0 1
901.6217 312.09985 2496.0 1
941.0094 316.6013 2532.0 1
953.63837 312.09985 2496.0 1
1001.2334 318.97705 2551.0 1
840.08826 301.33594 2629.0 1
854.2837 296.75116 2589.0 1
868.3263 292.3956 2551.0 1
881.928 288.15466 2514.0 1
914.62585 290.2178 2532.0 1
934.31976 288.15466 2514.0 1
960.51556 288.15466 2514.0 1
854.2837 269.7738 2589.0 1
874.79364 267.794 2570.0 1
888.2425 263.83438 2532.0 1
914.62585 263.83438 2532.0 1
934.31976 261.9588 2514.0 1
953.63837 260.0832 2496.0 1
894.5396 254.23761 2711.0 1
874.79364 241.01462 2570.0 1
894.90784 239.2328 2551.0 1
921.4892 239.2328 2551.0 1
948.0707 239.2328 2551.0 1
879.46533 237.15918 2845.0 1
894.4112 233.32462 2799.0 1
916.31744 231.4907 2777.0 1
901.6842 220.82062 2649.0 1
894.90784 212.65134 2551.0 1
921.4892 212.65134 2551.0 1
969.6262 217.48622 2609.0 1
996.8119 217.48622 2609.0 1
1031.8474 219.15343 2629.0 1
1059.2417 219.15343 2629.0 1
864.1584 211.01543 2893.0 1
872.3554 205.83669 2822.0 1
894.4112 204.15907 2799.0 1
901.7989 199.34503 2733.0 1
922.78815 197.74036 2711.0 1
936.30304 194.67686 2669.0 1
956.8894 193.21806 2649.0 1
977.05914 191.75926 2629.0 1
1004.45325 191.75926 2629.0 1
1031.8474 191.75926 2629.0 1
1051.1835 190.30048 2609.0 1
1086.6357 191.75926 2629.0 1
1122.505 193.21806 2649.0 1
864.1584 180.87033 2893.0 1
865.2455 174.99345 2799.0 1
887.38116 173.61801 2777.0 1
901.7989 170.86713 2733.0 1
915.6401 168.17877 2690.0 1
936.30304 166.86584 2669.0 1
949.66486 164.36505 2629.0 1
977.05914 164.36505 2629.0 1
996.8119 163.11465 2609.0 1
1031.8474 164.36505 2629.0 1
1043.1254 161.86426 2589.0 1
1062.2495 160.67638 2570.0 1
1089.0289 160.67638 2570.0 1
1115.8083 160.67638 2570.0 1
856.98944 149.4749 2869.0 1
865.2455 145.8279 2799.0 1
880.03156 143.4834 2754.0 1
894.5396 141.2431 2711.0 1
908.49194 139.0549 2669.0 1
929.28687 138.0129 2649.0 1
949.66486 136.9709 2629.0 1
977.05914 136.9709 2629.0 1
996.8119 135.9289 2609.0 1
1016.1479 134.8869 2589.0 1
1035.4701 133.897 2570.0 1
1062.2495 133.897 2570.0 1
1072.9266 131.91719 2532.0 1
1107.5592 132.9071 2551.0 1
1117.6908 130.9794 2514.0 1
842.95026 117.62099 2822.0 1
865.2455 116.662346 2799.0 1
880.03156 114.78674 2754.0 1
894.5396 112.99451 2711.0 1
908.49194 111.24394 2669.0 1
929.28687 110.41035 2649.0 1
949.66486 109.576744 2629.0 1
977.05914 109.576744 2629.0 1
996.8119 108.74314 2609.0 1
1008.6907 107.11762 2570.0 1
1035.4701 107.11762 2570.0 1
1054.3962 106.32571 2551.0 1
1080.9778 106.32571 2551.0 1
1107.5592 106.32571 2551.0 1
1117.6908 104.78355 2514.0 1
855.34644 92.748405 2967.0 1
849.8205 88.934685 2845.0 1
858.4447 86.809006 2777.0 1
873.3211 85.43356 2733.0 1
894.5396 84.74584 2711.0 1
901.6842 82.807724 2649.0 1
929.28687 82.807724 2649.0 1
949.66486 82.182526 2629.0 1
969.6262 81.55733 2609.0 1
989.1706 80.93213 2589.0 1
1008.6907 80.33819 2570.0 1
1027.815 79.74425 2551.0 1
1054.3962 79.74425 2551.0 1
1072.9266 79.15031 2532.0 1
1099.3099 79.15031 2532.0 1
1125.6934 79.15031 2532.0 1
855.34644 61.832294 2967.0 1
836.07996 58.331173 2799.0 1
851.3348 57.39337 2754.0 1
866.2911 56.497253 2711.0 1
894.5396 56.497253 2711.0 1
908.49194 55.62197 2669.0 1
922.27075 54.788372 2629.0 1
949.66486 54.788372 2629.0 1
969.6262 54.37157 2609.0 1
981.9113 53.55881 2570.0 1
1008.6907 53.55881 2570.0 1
1027.815 53.162853 2551.0 1
1054.3962 53.162853 2551.0 1
1065.2992 52.391773 2514.0 1
1091.495 52.391773 2514.0 1
1125.6934 52.76689 2532.0 1
836.07996 29.165552 2799.0 1
858.4447 28.936312 2777.0 1
866.2911 28.248592 2711.0 1
887.6103 28.029772 2690.0 1
908.49194 27.810953 2669.0 1
922.27075 27.394154 2629.0 1
942.4403 27.185753 2609.0 1
962.1933 26.977354 2589.0 1
981.9113 26.779373 2570.0 1
1008.6907 26.779373 2570.0 1
1027.815 26.581394 2551.0 1
1062.2495 26.779373 2570.0 1
1080.9778 26.581394 2551.0 1
1099.3099 26.383415 2532.0 1
1142.5876 26.779373 2570.0 1
1178.0123 26.977354 2589.0 1
862.8419 0.0 2993.0 1
842.95026 0.0 2822.0 1
858.4447 0.0 2777.0 1
873.3211 0.0 2733.0 1
887.6103 0.0 2690.0 1
901.6842 0.0 2649.0 1
922.27075 0.0 2629.0 1
942.4403 0.0 2609.0 1
962.1933 0.0 2589.0 1
989.1706 0.0 2589.0 1
1016.1479 0.0 2589.0 1
1035.4701 0.0 2570.0 1
1062.2495 0.0 2570.0 1
1080.9778 0.0 2551.0 1
1099.3099 0.0 2532.0 1
1142.5876 0.0 2570.0 1
878.1211 -31.739288 3046.0 1
856.98944 -29.89495 2869.0 1
865.2455 -29.165552 2799.0 1
873.3211 -28.477833 2733.0 1
880.681 -27.810953 2669.0 1
901.6842 -27.602552 2649.0 1
915.25464 -27.185753 2609.0 1
949.66486 -27.394154 2629.0 1
969.6262 -27.185753 2609.0 1
996.8119 -27.185753 2609.0 1
1023.9976 -27.185753 2609.0 1
1043.1254 -26.977354 2589.0 1
1062.2495 -26.779373 2570.0 1
1089.0289 -26.779373 2570.0 1
1099.3099 -26.383415 2532.0 1
861.6645 -64.62478 3101.0 1
878.1211 -63.478577 3046.0 1
871.3274 -60.790222 2917.0 1
858.4447 -57.872623 2777.0 1
873.3211 -56.955666 2733.0 1
887.6103 -56.059544 2690.0 1
908.49194 -55.621906 2669.0 1
922.27075 -54.788307 2629.0 1
956.8894 -55.205105 2649.0 1
977.05914 -54.788307 2629.0 1
1004.45325 -54.788307 2629.0 1
1031.8474 -54.788307 2629.0 1
1059.2417 -54.788307 2629.0 1
1078.3693 -54.371506 2609.0 1
1089.0289 -53.558746 2570.0 1
1107.5592 -53.16279 2551.0 1
1177.71 -55.205105 2649.0 1
861.6645 -96.93732 3101.0 1
885.90485 -96.06204 3073.0 1
871.3274 -91.18548 2917.0 1
851.3348 -86.090096 2754.0 1
873.3211 -85.43363 2733.0 1
894.5396 -84.74591 2711.0 1
908.49194 -83.43299 2669.0 1
936.30304 -83.43299 2669.0 1
956.8894 -82.80779 2649.0 1
984.49207 -82.80779 2649.0 1
1012.0946 -82.80779 2649.0 1
1031.8474 -82.182594 2629.0 1
1059.2417 -82.182594 2629.0 1
1086.6357 -82.182594 2629.0 1
1089.0289 -80.33825 2570.0 1
1115.8083 -80.33825 2570.0 1
1142.5876 -80.33825 2570.0 1
829.3522 -129.24971 3101.0 1
853.8843 -128.08267 3073.0 1
885.90485 -128.08267 3073.0 1
856.98944 -119.57995 2869.0 1
858.4447 -115.745384 2777.0 1
873.3211 -113.91147 2733.0 1
894.5396 -112.99451 2711.0 1
915.6401 -112.119225 2690.0 1
943.6699 -112.119225 2690.0 1
964.1139 -111.24394 2669.0 1
984.49207 -110.41035 2649.0 1
1012.0946 -110.41035 2649.0 1
1039.6971 -110.41035 2649.0 1
1075.3579 -111.24394 2669.0 1
1086.6357 -109.576744 2629.0 1
1097.0802 -107.909546 2589.0 1
1115.8083 -107.11762 2570.0 1
1142.5876 -107.11762 2570.0 1
829.3522 -161.5621 3101.0 1
861.6645 -161.5621 3101.0 1
885.90485 -160.1033 3073.0 1
849.8205 -148.2245 2845.0 1
858.4447 -144.6817 2777.0 1
873.3211 -142.3893 2733.0 1
894.5396 -141.2431 2711.0 1
922.78815 -141.2431 2711.0 1
943.6699 -140.149 2690.0 1
964.1139 -139.0549 2669.0 1
991.925 -139.0549 2669.0 1
1019.7359 -139.0549 2669.0 1
1039.6971 -138.0129 2649.0 1
1083.819 -140.149 2690.0 1
1094.9023 -138.0129 2649.0 1
1105.555 -135.9289 2609.0 1
1132.7408 -135.9289 2609.0 1
1151.0348 -134.8869 2589.0 1
829.3522 -193.87448 3101.0 1
861.6645 -193.87448 3101.0 1
870.33734 -188.74785 3019.0 1
849.8205 -177.86937 2845.0 1
865.2455 -174.99345 2799.0 1
873.3211 -170.86713 2733.0 1
901.7989 -170.86713 2733.0 1
922.78815 -169.49168 2711.0 1
951.03687 -169.49168 2711.0 1
971.6997 -168.17877 2690.0 1
999.7296 -168.17877 2690.0 1
1012.0946 -165.61545 2649.0 1
1047.5469 -166.86584 2669.0 1
1092.28 -169.49168 2711.0 1
1103.1688 -166.86584 2669.0 1
1097.0802 -161.86426 2589.0 1
1115.8083 -160.67638 2570.0 1
1142.5876 -160.67638 2570.0 1
1205.3126 -165.61545 2649.0 1
811.4331 -230.27151 3157.0 1
829.3522 -226.18687 3101.0 1
861.6645 -226.18687 3101.0 1
856.98944 -209.2648 2869.0 1
865.2455 -204.159 2799.0 1
887.38116 -202.55432 2777.0 1
901.7989 -199.34496 2733.0 1
922.78815 -197.74028 2711.0 1
951.03687 -197.74028 2711.0 1
979.28546 -197.74028 2711.0 1
999.7296 -196.20854 2690.0 1
1027.7593 -196.20854 2690.0 1
1055.7891 -196.20854 2690.0 1
1092.28 -197.74028 2711.0 1
1103.1688 -194.6768 2669.0 1
1114.03 -191.7592 2629.0 1
1132.7408 -190.3004 2609.0 1
1151.0348 -188.8416 2589.0 1
778.5373 -263.16757 3157.0 1
804.2364 -260.8335 3129.0 1
829.3522 -258.49942 3101.0 1
862.8419 -249.49654 2993.0 1
864.1584 -241.16054 2893.0 1
872.3554 -235.24197 2822.0 1
894.4112 -233.32469 2799.0 1
908.7282 -229.57349 2754.0 1
922.78815 -225.98901 2711.0 1
951.03687 -225.98901 2711.0 1
979.28546 -225.98901 2711.0 1
1007.5342 -225.98901 2711.0 1
1035.7827 -225.98901 2711.0 1
1064.0312 -225.98901 2711.0 1
1092.28 -225.98901 2711.0 1
1094.9023 -220.8207 2649.0 1
1114.03 -219.15349 2629.0 1
1124.0575 -215.81909 2589.0 1
1159.9265 -217.48628 2609.0 1
771.63226 -293.43765 3129.0 1
797.0396 -290.8118 3101.0 1
870.33734 -283.12186 3019.0 1
864.1584 -271.30557 2893.0 1
872.3554 -264.6472 2822.0 1
894.4112 -262.49023 2799.0 1
923.57666 -262.49023 2799.0 1
930.2767 -256.30075 2733.0 1
951.03687 -254.23761 2711.0 1
987.2324 -256.30075 2733.0 1
1007.5342 -254.23761 2711.0 1
1035.7827 -254.23761 2711.0 1
1064.0312 -254.23761 2711.0 1
1083.819 -252.26822 2690.0 1
1086.6357 -246.54764 2629.0 1
1097.0802 -242.79645 2589.0 1
1115.8083 -241.01462 2570.0 1
771.63226 -326.0418 3129.0 1
797.0396 -323.1242 3101.0 1
855.34644 -309.1614 2967.0 1
864.1584 -301.4506 2893.0 1
879.46533 -296.449 2845.0 1
901.76074 -294.0524 2822.0 1
923.57666 -291.6558 2799.0 1
930.2767 -284.7786 2733.0 1
958.75464 -284.7786 2733.0 1
987.2324 -284.7786 2733.0 1
1007.5342 -282.4862 2711.0 1
1035.7827 -282.4862 2711.0 1
1064.0312 -282.4862 2711.0 1
1083.819 -280.298 2690.0 1
1078.3693 -271.8578 2609.0 1
1097.0802 -269.7738 2589.0 1
1124.0575 -269.7738 2589.0 1
739.02795 -358.64594 3129.0 1
764.7273 -355.43658 3101.0 1
797.0396 -355.43658 3101.0 1
862.8419 -343.05762 2993.0 1
856.98944 -328.84476 2869.0 1
879.46533 -326.09387 2845.0 1
901.76074 -323.4576 2822.0 1
916.31744 -318.2997 2777.0 1
937.4248 -315.66345 2754.0 1
958.75464 -313.25644 2733.0 1
987.2324 -313.25644 2733.0 1
1015.7104 -313.25644 2733.0 1
1035.7827 -310.7348 2711.0 1
1072.666 -313.25644 2733.0 1
1075.3579 -305.92075 2669.0 1
1086.6357 -301.33594 2629.0 1
1105.555 -299.04355 2609.0 1
1141.4242 -301.33594 2629.0 1
732.41473 -387.74896 3101.0 1
764.7273 -387.74896 3101.0 1
797.0396 -387.74896 3101.0 1
862.8419 -374.24466 2993.0 1
856.98944 -358.7397 2869.0 1
872.3554 -352.86282 2822.0 1
894.4112 -349.9869 2799.0 1
916.31744 -347.23602 2777.0 1
930.2767 -341.73425 2733.0 1
958.75464 -341.73425 2733.0 1
987.2324 -341.73425 2733.0 1
1015.7104 -341.73425 2733.0 1
1044.1882 -341.73425 2733.0 1
1080.9082 -344.3601 2754.0 1
1083.819 -336.35754 2690.0 1
1086.6357 -328.7301 2629.0 1
1114.03 -328.7301 2629.0 1
771.63226 -423.8544 3129.0 1
804.2364 -423.8544 3129.0 1
870.33734 -408.9538 3019.0 1
856.98944 -388.6348 2869.0 1
872.3554 -382.26816 2822.0 1
894.4112 -379.1526 2799.0 1
908.7282 -373.0569 2754.0 1
937.4248 -373.0569 2754.0 1
966.1216 -373.0569 2754.0 1
987.2324 -370.21222 2733.0 1
1015.7104 -370.21222 2733.0 1
1052.2115 -373.0569 2754.0 1
1072.666 -370.21222 2733.0 1
1067.2998 -358.8336 2649.0 1
1086.6357 -356.1244 2629.0 1
1105.555 -353.4152 2609.0 1
878.1211 -444.3505 3046.0 1
864.1584 -422.03085 2893.0 1
872.3554 -411.67337 2822.0 1
894.4112 -408.31815 2799.0 1
916.31744 -405.1088 2777.0 1
930.2767 -398.69006 2733.0 1
958.75464 -398.69006 2733.0 1
987.2324 -398.69006 2733.0 1
1015.7104 -398.69006 2733.0 1
1052.2115 -401.75354 2754.0 1
1064.0312 -395.4807 2711.0 1
1067.2998 -386.43613 2649.0 1
1086.6357 -383.51852 2629.0 1
893.97687 -484.68628 3101.0 1
856.98944 -448.42468 2869.0 1
872.3554 -441.07858 2822.0 1
894.4112 -437.4837 2799.0 1
908.7282 -430.4502 2754.0 1
930.2767 -427.16788 2733.0 1
958.75464 -427.16788 2733.0 1
987.2324 -427.16788 2733.0 1
1015.7104 -427.16788 2733.0 1
1052.2115 -430.4502 2754.0 1
1039.6971 -414.0387 2649.0 1
1067.2998 -414.0387 2649.0 1
842.95026 -470.4838 2822.0 1
865.2455 -466.64923 2799.0 1
894.4112 -466.64923 2799.0 1
908.7282 -459.14685 2754.0 1
937.4248 -459.14685 2754.0 1
966.1216 -459.14685 2754.0 1
987.2324 -455.64572 2733.0 1
1023.51495 -459.14685 2754.0 1
1019.7359 -444.97565 2669.0 1
1031.8474 -438.30685 2629.0 1
1059.2417 -438.30685 2629.0 1
820.1755 -503.96323 2845.0 1
842.95026 -499.889 2822.0 1
865.2455 -495.8148 2799.0 1
894.4112 -495.8148 2799.0 1
908.7282 -487.8435 2754.0 1
945.25366 -491.91772 2777.0 1
974.1901 -491.91772 2777.0 1
994.8182 -487.8435 2754.0 1
1007.5342 -480.22647 2711.0 1
1019.7359 -472.7866 2669.0 1
1039.6971 -469.2438 2649.0 1
1059.2417 -465.701 2629.0 1
820.1755 -533.6083 2845.0 1
842.95026 -529.2944 2822.0 1
865.2455 -524.98047 2799.0 1
887.38116 -520.8542 2777.0 1
908.7282 -516.5403 2754.0 1
937.4248 -516.5403 2754.0 1
981.9079 -524.98047 2799.0 1
987.2324 -512.6015 2733.0 1
991.925 -500.5977 2669.0 1
1019.7359 -500.5977 2669.0 1
1031.8474 -493.09528 2629.0 1
1059.2417 -493.09528 2629.0 1
820.1755 -563.2531 2845.0 1
842.95026 -558.6996 2822.0 1
865.2455 -554.14606 2799.0 1
887.38116 -549.79047 2777.0 1
916.31744 -549.79047 2777.0 1
952.7422 -554.14606 2799.0 1
1006.46436 -568.00464 2869.0 1
987.2324 -541.07935 2733.0 1
999.7296 -532.5662 2690.0 1
1012.0946 -524.44904 2649.0 1
1039.6971 -524.44904 2649.0 1
1067.2998 -524.44904 2649.0 1
803.8682 -602.9012 2893.0 1
820.1755 -592.898 2845.0 1
842.95026 -588.1048 2822.0 1
865.2455 -583.3116 2799.0 1
894.4112 -583.3116 2799.0 1
916.31744 -578.7268 2777.0 1
960.5711 -588.1048 2822.0 1
1040.8434 -618.3228 2967.0 1
979.28546 -564.9724 2711.0 1
991.925 -556.2196 2669.0 1
1012.0946 -552.0516 2649.0 1
1039.6971 -552.0516 2649.0 1
803.8682 -633.0462 2893.0 1
813.54486 -617.51 2822.0 1
842.95026 -617.51 2822.0 1
872.3554 -617.51 2822.0 1
894.4112 -612.4771 2799.0 1
931.1659 -617.51 2822.0 1
1027.6272 -660.61755 3019.0 1
1068.5571 -666.5257 3046.0 1
1100.2964 -666.5257 3046.0 1
780.14197 -668.693 2917.0 1
803.8682 -663.1912 2893.0 1
813.54486 -646.9152 2822.0 1
836.07996 -641.6427 2799.0 1
865.2455 -641.6427 2799.0 1
901.76074 -646.9152 2822.0 1
946.6744 -657.6895 2869.0 1
1046.0082 -704.45447 3073.0 1
1068.5571 -698.26495 3046.0 1
1130.2782 -717.2919 3129.0 1
767.30457 -687.5846 2869.0 1
797.19946 -687.5846 2869.0 1
813.54486 -676.32056 2822.0 1
842.95026 -676.32056 2822.0 1
872.3554 -676.32056 2822.0 1
901.76074 -676.32056 2822.0 1
1023.2266 -743.1857 3101.0 1
1046.0082 -736.4752 3073.0 1
1087.8514 -743.1857 3101.0 1
1130.2782 -749.8962 3129.0 1
773.72327 -723.48145 2893.0 1
797.19946 -717.47955 2869.0 1
813.54486 -705.72577 2822.0 1
849.8205 -711.4776 2845.0 1
872.3554 -705.72577 2822.0 1
901.76074 -705.72577 2822.0 1
1032.4657 -782.50037 3129.0 1
1065.0698 -782.50037 3129.0 1
1097.6741 -782.50037 3129.0 1
1130.2782 -782.50037 3129.0 1
780.14197 -759.8785 2917.0 1
797.19946 -747.3745 2869.0 1
827.09436 -747.3745 2869.0 1
856.98944 -747.3745 2869.0 1
879.46533 -741.1225 2845.0 1
1051.2738 -829.953 3186.0 1
1065.0698 -815.1045 3129.0 1
1097.6741 -815.1045 3129.0 1
1140.3926 -822.3985 3157.0 1
1184.0663 -829.953 3186.0 1
769.28076 -810.8635 2993.0 1
773.72327 -783.77155 2893.0 1
803.8682 -783.77155 2893.0 1
834.01324 -783.77155 2893.0 1
864.1584 -783.77155 2893.0 1
894.3034 -783.77155 2893.0 1
1084.4718 -863.15106 3186.0 1
1097.6741 -847.7086 3129.0 1
1130.2782 -847.7086 3129.0 1
1162.8824 -847.7086 3129.0 1
769.28076 -842.05054 2993.0 1
780.14197 -820.6687 2917.0 1
803.8682 -813.91656 2893.0 1
834.01324 -813.91656 2893.0 1
864.1584 -813.91656 2893.0 1
1094.6835 -904.78937 3216.0 1
1107.4967 -888.1903 3157.0 1
1150.868 -896.3492 3186.0 1
1162.8824 -880.3128 3129.0 1
762.5981 -865.652 2967.0 1
780.14197 -851.06396 2917.0 1
803.8682 -844.0617 2893.0 1
827.09436 -837.0595 2869.0 1
871.3274 -851.06396 2917.0 1
1094.6835 -938.30023 3216.0 1
1117.67 -929.5474 3186.0 1
1140.3926 -921.08636 3157.0 1
1162.8824 -912.9171 3129.0 1
731.682 -896.56805 2967.0 1
756.1724 -889.01355 2942.0 1
773.72327 -874.2067 2893.0 1
803.8682 -874.2067 2893.0 1
834.01324 -874.2067 2893.0 1
1104.895 -980.8763 3246.0 1
1128.1942 -971.8109 3216.0 1
1150.868 -962.7455 3186.0 1
1184.0663 -962.7455 3186.0 1
725.51685 -919.6692 2942.0 1
749.7467 -911.8542 2917.0 1
780.14197 -911.8542 2917.0 1
803.8682 -904.3518 2893.0 1
840.9321 -911.8542 2917.0 1
1104.895 -1014.6996 3246.0 1
1128.1942 -1005.3216 3216.0 1
1161.705 -1005.3216 3216.0 1
1195.2157 -1005.3216 3216.0 1
706.9066 -966.7988 2993.0 1
738.09375 -966.7988 2993.0 1
756.1724 -950.32477 2942.0 1
780.14197 -942.24927 2917.0 1
810.53705 -942.24927 2917.0 1
840.9321 -942.24927 2917.0 1
1115.447 -1058.5365 3277.0 1
1138.7185 -1048.5228 3246.0 1
1161.705 -1038.8323 3216.0 1
1195.2157 -1038.8323 3216.0 1
1240.1884 -1048.5228 3246.0 1
669.8497 -989.3164 2967.0 1
706.9066 -997.98584 2993.0 1
738.09375 -997.98584 2993.0 1
756.1724 -980.9804 2942.0 1
786.8282 -980.9804 2942.0 1
824.43036 -989.3164 2967.0 1
1071.0718 -1082.3462 3246.0 1
1094.6835 -1072.3429 3216.0 1
1128.1942 -1072.3429 3216.0 1
1161.705 -1072.3429 3216.0 1
1206.3651 -1082.3462 3246.0 1
675.7196 -1029.173 2993.0 1
706.9066 -1029.173 2993.0 1
731.682 -1020.23267 2967.0 1
749.7467 -1003.0397 2917.0 1
793.51434 -1020.23267 2967.0 1
817.4837 -1011.63617 2942.0 1
1094.6835 -1105.8538 3216.0 1
1128.1942 -1105.8538 3216.0 1
1161.705 -1105.8538 3216.0 1
661.7604 -1088.7024 3073.0 1
669.8497 -1051.1488 2967.0 1
700.76575 -1051.1488 2967.0 1
725.51685 -1042.2917 2942.0 1
769.28076 -1060.3601 2993.0 1
807.4216 -1069.5713 3019.0 1
644.53265 -1091.5471 2993.0 1
664.2055 -1072.9474 2942.0 1
700.76575 -1082.0648 2967.0 1
738.09375 -1091.5471 2993.0 1
775.96344 -1101.0293 3019.0 1
592.46735 -1142.6155 3046.0 1
613.34546 -1122.7341 2993.0 1
638.93365 -1112.981 2967.0 1
664.2055 -1103.603 2942.0 1
706.9066 -1122.7341 2993.0 1
744.50555 -1132.4872 3019.0 1
565.69824 -1184.7643 3073.0 1
577.1013 -1143.8971 2967.0 1
597.77106 -1124.6201 2917.0 1
633.55 -1134.2585 2942.0 1
658.56134 -1124.6201 2917.0 1
713.0474 -1163.9452 3019.0 1
751.16394 -1174.3547 3046.0 1
519.7843 -1185.1083 2993.0 1
541.5829 -1164.9143 2942.0 1
567.376 -1155.0154 2917.0 1
597.77106 -1155.0154 2917.0 1
633.55 -1164.9143 2942.0 1
664.2055 -1164.9143 2942.0 1
562.7078 -1175.6573 2893.0 1
592.8528 -1175.6573 2893.0 1
622.998 -1175.6573 2893.0 1
664.2055 -1195.57 2942.0 1
