ply
format ascii 1.0
comment : created from Kinect user tracker
element vertex 854
property float x
property float y
property float z
property int userId
end_header
124.82471 330.41818 2114.0 1
145.0464 326.3544 2088.0 1
168.88036 330.41818 2114.0 1
78.82038 300.95047 2063.0 1
101.53245 304.59744 2088.0 1
121.10477 299.1999 2051.0 1
141.64253 297.44934 2039.0 1
163.84749 299.1999 2051.0 1
187.47667 302.8469 2076.0 1
206.59036 299.1999 2051.0 1
56.9904 277.82843 2051.0 1
77.44494 274.5774 2027.0 1
97.982704 272.95187 2015.0 1
118.97909 272.95187 2015.0 1
140.80893 274.5774 2027.0 1
161.93022 274.5774 2027.0 1
185.219 277.82843 2051.0 1
207.79909 279.45398 2063.0 1
229.29562 279.45398 2063.0 1
36.0532 259.58304 2076.0 1
56.9904 256.45703 2051.0 1
77.44494 253.45609 2027.0 1
97.982704 251.95561 2015.0 1
118.97909 251.95561 2015.0 1
139.97533 251.95561 2015.0 1
160.01294 250.45512 2003.0 1
181.96796 251.95561 2015.0 1
204.17293 253.45609 2027.0 1
229.29562 257.95752 2063.0 1
35.827435 236.46103 2063.0 1
56.9904 235.0856 2051.0 1
78.3619 235.0856 2051.0 1
99.14974 233.71016 2039.0 1
118.97909 230.95927 2015.0 1
139.97533 230.95927 2015.0 1
160.97157 230.95927 2015.0 1
180.88428 229.58383 2003.0 1
202.9642 230.95927 2015.0 1
227.96187 235.0856 2051.0 1
14.865923 222.98799 2140.0 1
36.2616 217.5696 2088.0 1
57.323837 214.9646 2063.0 1
78.82038 214.9646 2063.0 1
99.73326 213.7142 2051.0 1
119.687645 211.2134 2027.0 1
139.97533 209.963 2015.0 1
160.97157 209.963 2015.0 1
181.96796 209.963 2015.0 1
205.38164 212.46379 2039.0 1
229.29562 214.9646 2063.0 1
-7.478115 201.90836 2153.0 1
14.775616 199.47008 2127.0 1
36.487366 197.0318 2101.0 1
58.018505 195.81265 2088.0 1
78.82038 193.46815 2063.0 1
99.73326 192.3428 2051.0 1
119.687645 190.09207 2027.0 1
140.80893 190.09207 2027.0 1
160.97157 188.96672 2015.0 1
184.13531 191.21744 2039.0 1
206.59036 192.3428 2051.0 1
236.40901 199.47008 2127.0 1
256.99194 198.25093 2114.0 1
14.775616 177.3067 2127.0 1
36.487366 175.13934 2101.0 1
58.018505 174.05566 2088.0 1
78.82038 171.97166 2063.0 1
99.73326 170.97134 2051.0 1
120.3962 169.97102 2039.0 1
142.47614 170.97134 2051.0 1
160.97157 167.97038 2015.0 1
185.219 170.97134 2051.0 1
207.79909 171.97166 2063.0 1
239.29883 179.47406 2153.0 1
261.73303 179.47406 2153.0 1
36.71313 154.19518 2114.0 1
59.46341 156.09161 2140.0 1
79.77554 152.29872 2088.0 1
99.73326 149.59995 2051.0 1
121.10477 149.59995 2051.0 1
141.64253 148.72467 2039.0 1
161.93022 147.84938 2027.0 1
186.30267 150.47523 2063.0 1
210.31725 152.29872 2088.0 1
239.29883 157.03983 2153.0 1
37.633568 135.48082 2167.0 1
60.21365 135.48082 2167.0 1
80.27223 131.35449 2101.0 1
100.31679 128.97874 2063.0 1
121.10477 128.2285 2051.0 1
142.47614 128.2285 2051.0 1
162.88885 127.47826 2039.0 1
186.30267 128.97874 2063.0 1
210.31725 130.54173 2088.0 1
240.85487 135.48082 2167.0 1
-32.121357 120.4552 2312.0 1
-7.9782767 119.6737 2297.0 1
15.845407 118.840096 2281.0 1
39.613365 118.840096 2281.0 1
62.158714 116.5477 2237.0 1
82.79388 112.900696 2167.0 1
100.31679 107.4823 2063.0 1
121.813324 107.4823 2063.0 1
142.47614 106.8571 2051.0 1
163.84749 106.8571 2051.0 1
187.47667 108.1596 2076.0 1
223.91534 115.8183 2223.0 1
248.63515 116.5477 2237.0 1
-55.84771 95.73898 2297.0 1
-31.690662 95.0721 2281.0 1
-7.870603 94.4469 2266.0 1
15.741206 94.4469 2266.0 1
39.352867 94.4469 2266.0 1
62.158714 93.23818 2237.0 1
84.360344 92.02946 2208.0 1
102.796745 88.11154 2114.0 1
121.813324 85.985855 2063.0 1
143.30974 85.985855 2063.0 1
164.80614 85.985855 2063.0 1
189.73433 87.5697 2101.0 1
223.91534 92.65466 2223.0 1
247.0791 92.65466 2223.0 1
271.94464 93.23818 2237.0 1
-79.22673 71.30405 2281.0 1
-55.093998 70.835144 2266.0 1
-31.482264 70.835144 2266.0 1
-7.821976 70.39751 2252.0 1
15.643952 70.39751 2252.0 1
38.84923 69.928604 2237.0 1
61.7697 69.49097 2223.0 1
84.360344 69.022064 2208.0 1
106.054726 68.17805 2181.0 1
124.0571 65.677246 2101.0 1
144.2128 64.89575 2076.0 1
170.95741 66.896385 2140.0 1
199.39714 69.022064 2208.0 1
222.40445 69.022064 2208.0 1
247.0791 69.49097 2223.0 1
270.2427 69.49097 2223.0 1
293.40628 69.49097 2223.0 1
318.56375 69.928604 2237.0 1
-79.22673 47.53605 2281.0 1
-55.093998 47.22345 2266.0 1
-31.287756 46.93169 2252.0 1
-7.821976 46.93169 2252.0 1
15.539752 46.61909 2237.0 1
38.6061 46.32733 2223.0 1
61.3529 46.01473 2208.0 1
84.360344 46.01473 2208.0 1
106.686874 45.72297 2194.0 1
128.78084 45.45205 2181.0 1
151.50679 45.45205 2181.0 1
175.27129 45.72297 2194.0 1
198.13286 45.72297 2194.0 1
220.99428 45.72297 2194.0 1
245.4119 46.01473 2208.0 1
268.4192 46.01473 2208.0 1
291.42648 46.01473 2208.0 1
316.57004 46.32733 2223.0 1
341.87323 46.61909 2237.0 1
-105.07182 24.247316 2327.0 1
-79.78246 23.934717 2297.0 1
-55.093998 23.611696 2266.0 1
-31.287756 23.465816 2252.0 1
-7.721249 23.163637 2223.0 1
15.539752 23.309517 2237.0 1
38.6061 23.163637 2223.0 1
61.3529 23.007338 2208.0 1
83.825455 22.861458 2194.0 1
106.686874 22.861458 2194.0 1
129.54845 22.861458 2194.0 1
150.53427 22.580118 2167.0 1
173.11435 22.580118 2167.0 1
196.95886 22.725998 2181.0 1
220.99428 22.861458 2194.0 1
245.4119 23.007338 2208.0 1
266.71725 22.861458 2194.0 1
291.42648 23.007338 2208.0 1
314.43393 23.007338 2208.0 1
339.73364 23.163637 2223.0 1
365.18283 23.309517 2237.0 1
-105.07182 0.0 2327.0 1
-79.78246 0.0 2297.0 1
-55.093998 0.0 2266.0 1
-31.287756 0.0 2252.0 1
-7.721249 0.0 2223.0 1
15.442498 0.0 2223.0 1
38.3456 0.0 2208.0 1
61.3529 0.0 2208.0 1
83.328766 0.0 2181.0 1
106.054726 0.0 2181.0 1
128.78084 0.0 2181.0 1
151.50679 0.0 2181.0 1
173.11435 0.0 2167.0 1
196.95886 0.0 2181.0 1
218.27466 0.0 2167.0 1
245.4119 0.0 2208.0 1
266.71725 0.0 2194.0 1
291.42648 0.0 2208.0 1
312.44025 0.0 2194.0 1
337.44125 0.0 2208.0 1
362.8974 0.0 2223.0 1
-105.07182 -24.247316 2327.0 1
-80.30347 -24.091017 2312.0 1
-55.093998 -23.611696 2266.0 1
-31.287756 -23.465816 2252.0 1
-7.721249 -23.163637 2223.0 1
15.442498 -23.163637 2223.0 1
38.3456 -23.007338 2208.0 1
61.3529 -23.007338 2208.0 1
83.328766 -22.725998 2181.0 1
105.373955 -22.580118 2167.0 1
128.78084 -22.725998 2181.0 1
150.53427 -22.580118 2167.0 1
173.11435 -22.580118 2167.0 1
195.69456 -22.580118 2167.0 1
219.68483 -22.725998 2181.0 1
242.41093 -22.725998 2181.0 1
266.71725 -22.861458 2194.0 1
289.57867 -22.861458 2194.0 1
314.43393 -23.007338 2208.0 1
339.73364 -23.163637 2223.0 1
367.63156 -23.465816 2252.0 1
-130.20834 -48.82807 2343.0 1
-105.07182 -48.494633 2327.0 1
-80.30347 -48.182034 2312.0 1
-55.093998 -47.223392 2266.0 1
-31.079357 -46.619034 2237.0 1
-7.721249 -46.327274 2223.0 1
15.442498 -46.327274 2223.0 1
38.3456 -46.014675 2208.0 1
61.3529 -46.014675 2208.0 1
83.328766 -45.451996 2181.0 1
106.054726 -45.451996 2181.0 1
127.954185 -45.160236 2167.0 1
150.53427 -45.160236 2167.0 1
173.11435 -45.160236 2167.0 1
195.69456 -45.160236 2167.0 1
219.68483 -45.451996 2181.0 1
240.85487 -45.160236 2167.0 1
266.71725 -45.722916 2194.0 1
291.42648 -46.014675 2208.0 1
314.43393 -46.014675 2208.0 1
341.87323 -46.619034 2237.0 1
369.917 -47.223392 2266.0 1
-131.09752 -73.742386 2359.0 1
-105.79427 -73.242226 2343.0 1
-80.82446 -72.742065 2327.0 1
-55.4587 -71.30411 2281.0 1
-31.287756 -70.39756 2252.0 1
-7.669149 -69.022125 2208.0 1
15.442498 -69.49102 2223.0 1
38.3456 -69.022125 2208.0 1
60.963886 -68.58448 2194.0 1
83.825455 -68.58448 2194.0 1
106.054726 -68.1781 2181.0 1
127.954185 -67.74046 2167.0 1
150.53427 -67.74046 2167.0 1
173.11435 -67.74046 2167.0 1
195.69456 -67.74046 2167.0 1
219.68483 -68.1781 2181.0 1
242.41093 -68.1781 2181.0 1
266.71725 -68.58448 2194.0 1
291.42648 -69.022125 2208.0 1
314.43393 -69.022125 2208.0 1
341.87323 -69.928665 2237.0 1
369.917 -70.835205 2266.0 1
-132.93144 -99.698586 2392.0 1
-106.51672 -98.32314 2359.0 1
-81.380196 -97.656265 2343.0 1
-57.355137 -98.32314 2359.0 1
-31.482264 -94.4469 2266.0 1
-7.669149 -92.02946 2208.0 1
15.338298 -92.02946 2208.0 1
38.3456 -92.02946 2208.0 1
61.3529 -92.02946 2208.0 1
83.825455 -91.44594 2194.0 1
106.054726 -90.9041 2181.0 1
128.78084 -90.9041 2181.0 1
150.53427 -90.32058 2167.0 1
173.11435 -90.32058 2167.0 1
195.69456 -90.32058 2167.0 1
218.27466 -90.32058 2167.0 1
242.41093 -90.9041 2181.0 1
266.71725 -91.44594 2194.0 1
291.42648 -92.02946 2208.0 1
316.57004 -92.65466 2223.0 1
344.16562 -93.86338 2252.0 1
372.3657 -95.0721 2281.0 1
-133.87619 -125.508896 2409.0 1
-108.00679 -124.6232 2392.0 1
-83.08213 -124.6232 2392.0 1
-58.157475 -124.6232 2392.0 1
-31.482264 -118.0586 2266.0 1
-7.721249 -115.8183 2223.0 1
15.442498 -115.8183 2223.0 1
38.3456 -115.0368 2208.0 1
60.963886 -114.307396 2194.0 1
83.825455 -114.307396 2194.0 1
106.054726 -113.6301 2181.0 1
128.78084 -113.6301 2181.0 1
150.53427 -112.900696 2167.0 1
173.11435 -112.900696 2167.0 1
195.69456 -112.900696 2167.0 1
218.27466 -112.900696 2167.0 1
242.41093 -113.6301 2181.0 1
268.4192 -115.0368 2208.0 1
293.40628 -115.8183 2223.0 1
320.69983 -117.3292 2252.0 1
346.30518 -118.0586 2266.0 1
372.3657 -118.840096 2281.0 1
-161.22168 -152.73633 2443.0 1
-134.82094 -151.6735 2426.0 1
-109.542 -151.6735 2426.0 1
-84.26306 -151.6735 2426.0 1
-31.912956 -143.60841 2297.0 1
-7.821976 -140.79501 2252.0 1
15.442498 -138.98193 2223.0 1
38.3456 -138.04413 2208.0 1
61.3529 -138.04413 2208.0 1
84.360344 -138.04413 2208.0 1
106.686874 -137.16885 2194.0 1
128.78084 -136.3561 2181.0 1
151.50679 -136.3561 2181.0 1
173.11435 -135.48082 2167.0 1
195.69456 -135.48082 2167.0 1
219.68483 -136.3561 2181.0 1
242.41093 -136.3561 2181.0 1
268.4192 -138.04413 2208.0 1
299.08173 -141.67029 2266.0 1
327.10812 -143.60841 2297.0 1
348.5976 -142.6081 2281.0 1
372.3657 -142.6081 2281.0 1
-187.97678 -179.43234 2460.0 1
-162.34357 -179.43234 2460.0 1
-136.71043 -179.43234 2460.0 1
-111.07722 -179.43234 2460.0 1
-84.85353 -178.19237 2443.0 1
-32.329754 -169.73132 2327.0 1
-7.870603 -165.282 2266.0 1
15.643952 -164.26083 2252.0 1
38.6061 -162.14557 2223.0 1
61.3529 -161.05147 2208.0 1
84.93345 -162.14557 2223.0 1
107.367645 -161.05147 2208.0 1
130.37509 -161.05147 2208.0 1
152.40987 -160.03032 2194.0 1
173.11435 -158.06093 2167.0 1
195.69456 -158.06093 2167.0 1
219.68483 -159.08209 2181.0 1
243.85583 -160.03032 2194.0 1
271.94464 -163.16673 2237.0 1
303.1733 -167.54314 2297.0 1
333.65884 -170.89838 2343.0 1
355.62762 -169.73132 2327.0 1
379.87506 -169.73132 2327.0 1
-187.97678 -205.06564 2460.0 1
-162.34357 -205.06564 2460.0 1
-136.71043 -205.06564 2460.0 1
-111.07722 -205.06564 2460.0 1
-32.329754 -193.97876 2327.0 1
-7.9227033 -190.1442 2281.0 1
15.741206 -188.8938 2266.0 1
38.84923 -186.47636 2237.0 1
61.7697 -185.30933 2223.0 1
84.360344 -184.05891 2208.0 1
107.367645 -184.05891 2208.0 1
130.37509 -184.05891 2208.0 1
153.3824 -184.05891 2208.0 1
174.23276 -181.8082 2181.0 1
198.13286 -182.89188 2194.0 1
220.99428 -182.89188 2194.0 1
247.0791 -185.30933 2223.0 1
275.47006 -188.8938 2266.0 1
307.1329 -193.97876 2327.0 1
335.93735 -196.64629 2359.0 1
358.07285 -195.31253 2343.0 1
382.487 -195.31253 2343.0 1
-213.61 -230.69882 2460.0 1
-186.67775 -229.10455 2443.0 1
-162.34357 -230.69882 2460.0 1
-137.71075 -232.38686 2478.0 1
-111.07722 -230.69882 2460.0 1
-32.552048 -219.72656 2343.0 1
-8.030377 -216.81938 2312.0 1
15.845407 -213.9122 2281.0 1
39.109734 -211.19258 2252.0 1
61.7697 -208.47296 2223.0 1
84.360344 -207.06625 2208.0 1
107.367645 -207.06625 2208.0 1
130.37509 -207.06625 2208.0 1
153.3824 -207.06625 2208.0 1
176.3897 -207.06625 2208.0 1
199.39714 -207.06625 2208.0 1
223.91534 -208.47296 2223.0 1
250.30235 -211.19258 2252.0 1
281.06213 -216.81938 2312.0 1
311.35648 -221.22704 2359.0 1
340.63678 -224.32178 2392.0 1
363.11612 -222.8213 2376.0 1
387.87415 -222.8213 2376.0 1
-213.61 -256.332 2460.0 1
-187.97678 -256.332 2460.0 1
-162.34357 -256.332 2460.0 1
-137.71075 -258.20758 2478.0 1
-33.01053 -247.5792 2376.0 1
-8.030377 -240.9104 2312.0 1
15.845407 -237.68019 2281.0 1
39.352867 -236.1172 2266.0 1
61.7697 -231.6366 2223.0 1
84.93345 -231.6366 2223.0 1
108.097046 -231.6366 2223.0 1
131.2608 -231.6366 2223.0 1
153.3824 -230.0736 2208.0 1
177.588 -231.6366 2223.0 1
200.75174 -231.6366 2223.0 1
226.83643 -234.6584 2252.0 1
251.8584 -236.1172 2266.0 1
282.88562 -242.47339 2327.0 1
313.60025 -247.5792 2376.0 1
343.05768 -251.01779 2409.0 1
365.56134 -249.2464 2392.0 1
393.2613 -251.01779 2409.0 1
418.363 -251.01779 2409.0 1
-244.49489 -288.15466 2514.0 1
-215.17299 -284.02832 2478.0 1
-187.97678 -281.96518 2460.0 1
-162.34357 -281.96518 2460.0 1
-32.77434 -270.38855 2359.0 1
-8.030377 -265.0014 2312.0 1
15.845407 -261.44818 2281.0 1
39.109734 -258.1242 2252.0 1
62.158714 -256.4049 2237.0 1
84.93345 -254.80023 2223.0 1
108.097046 -254.80023 2223.0 1
131.2608 -254.80023 2223.0 1
154.4244 -254.80023 2223.0 1
177.588 -254.80023 2223.0 1
202.01604 -256.4049 2237.0 1
228.2466 -259.72888 2266.0 1
253.5256 -261.44818 2281.0 1
281.06213 -265.0014 2312.0 1
350.32043 -281.96518 2460.0 1
368.1594 -276.11954 2409.0 1
393.2613 -276.11954 2409.0 1
421.31534 -278.06808 2426.0 1
-240.99377 -309.84906 2478.0 1
-215.17299 -309.84906 2478.0 1
-189.35222 -309.84906 2478.0 1
-33.232822 -299.09564 2392.0 1
-8.082478 -290.96802 2327.0 1
15.956553 -287.21683 2297.0 1
39.352867 -283.34058 2266.0 1
62.575512 -281.59003 2252.0 1
85.46834 -279.71442 2237.0 1
108.777824 -279.71442 2237.0 1
132.08745 -279.71442 2237.0 1
154.4244 -277.96387 2223.0 1
178.7064 -279.71442 2237.0 1
204.63493 -283.34058 2266.0 1
229.75749 -285.2162 2281.0 1
255.30396 -287.21683 2297.0 1
282.88562 -290.96802 2327.0 1
350.32043 -307.59836 2460.0 1
370.75745 -303.347 2426.0 1
393.2613 -301.2213 2409.0 1
421.31534 -303.347 2426.0 1
-239.24321 -333.23163 2460.0 1
-213.61 -333.23163 2460.0 1
-189.35222 -335.66992 2478.0 1
-33.469006 -326.32318 2409.0 1
-8.082478 -315.21545 2327.0 1
15.956553 -311.15167 2297.0 1
39.613365 -308.9843 2281.0 1
62.964527 -306.9524 2266.0 1
86.04144 -305.05597 2252.0 1
109.507225 -305.05597 2252.0 1
132.08745 -303.02405 2237.0 1
155.39693 -303.02405 2237.0 1
179.90471 -305.05597 2252.0 1
205.98953 -308.9843 2281.0 1
229.75749 -308.9843 2281.0 1
256.97116 -313.18356 2312.0 1
286.77576 -319.55017 2359.0 1
347.8995 -330.92883 2443.0 1
370.75745 -328.626 2426.0 1
393.2613 -326.32318 2409.0 1
418.363 -326.32318 2409.0 1
-266.81454 -361.49066 2478.0 1
-240.99377 -361.49066 2478.0 1
-215.17299 -361.49066 2478.0 1
-60.24842 -361.49066 2478.0 1
-33.469006 -351.42493 2409.0 1
-8.138051 -341.79684 2343.0 1
16.060755 -337.27457 2312.0 1
39.613365 -332.7523 2281.0 1
62.964527 -330.5641 2266.0 1
86.57633 -330.5641 2266.0 1
110.187996 -330.5641 2266.0 1
132.97314 -328.5218 2252.0 1
157.41147 -330.5641 2266.0 1
181.02312 -330.5641 2266.0 1
205.98953 -332.7523 2281.0 1
231.36913 -335.08636 2297.0 1
258.63834 -339.46277 2327.0 1
286.77576 -344.13095 2359.0 1
347.8995 -356.38486 2443.0 1
375.95355 -358.8648 2460.0 1
398.81168 -356.38486 2443.0 1
421.31534 -353.9049 2426.0 1
-264.87643 -384.498 2460.0 1
-239.24321 -384.498 2460.0 1
-59.810783 -384.498 2460.0 1
-33.705193 -379.1838 2426.0 1
-8.1936245 -368.7117 2359.0 1
16.164955 -363.71008 2327.0 1
39.89123 -359.0211 2297.0 1
63.381325 -356.5203 2281.0 1
87.14944 -356.5203 2281.0 1
110.187996 -354.17578 2266.0 1
134.6855 -356.5203 2281.0 1
157.41147 -354.17578 2266.0 1
182.22142 -356.5203 2281.0 1
207.43443 -359.0211 2297.0 1
234.39091 -363.71008 2327.0 1
260.4167 -366.2109 2343.0 1
290.78748 -373.8696 2392.0 1
350.32043 -384.498 2460.0 1
375.95355 -384.498 2460.0 1
401.58685 -384.498 2460.0 1
430.34598 -387.3114 2478.0 1
-296.8866 -419.13403 2514.0 1
-264.87643 -410.13116 2460.0 1
-242.74434 -416.1331 2496.0 1
-59.810783 -410.13116 2460.0 1
-33.705193 -404.46268 2426.0 1
-8.252671 -396.12668 2376.0 1
16.276102 -390.62494 2343.0 1
40.151733 -385.4566 2312.0 1
63.825912 -382.9558 2297.0 1
87.14944 -380.2883 2281.0 1
110.9174 -380.2883 2281.0 1
134.6855 -380.2883 2281.0 1
158.45346 -380.2883 2281.0 1
183.4996 -382.9558 2297.0 1
208.78905 -385.4566 2312.0 1
236.00255 -390.62494 2343.0 1
260.4167 -390.62494 2343.0 1
288.8424 -396.12668 2376.0 1
378.70444 -413.13214 2478.0 1
401.58685 -410.13116 2460.0 1
430.34598 -413.13214 2478.0 1
-292.63525 -438.95285 2478.0 1
-264.87643 -435.76434 2460.0 1
-59.810783 -435.76434 2460.0 1
-33.94138 -432.75296 2443.0 1
-8.308245 -423.7188 2392.0 1
16.505342 -420.88458 2376.0 1
40.690098 -415.03897 2343.0 1
64.65951 -412.2047 2327.0 1
88.33384 -409.54764 2312.0 1
111.69542 -406.89053 2297.0 1
135.63025 -406.89053 2297.0 1
159.56493 -406.89053 2297.0 1
184.6979 -409.54764 2312.0 1
210.14365 -412.2047 2327.0 1
236.00255 -415.03897 2343.0 1
262.19504 -417.8732 2359.0 1
286.77576 -417.8732 2359.0 1
303.1733 -406.89053 2297.0 1
381.45532 -442.1414 2496.0 1
404.5253 -438.95285 2478.0 1
-290.50955 -461.39764 2460.0 1
-264.87643 -461.39764 2460.0 1
-59.810783 -461.39764 2460.0 1
-33.94138 -458.2091 2443.0 1
-8.367291 -451.8321 2409.0 1
16.61649 -448.64355 2392.0 1
41.2632 -445.6426 2376.0 1
65.104095 -439.45312 2343.0 1
89.51825 -439.45312 2343.0 1
112.42482 -433.63876 2312.0 1
137.40166 -436.45215 2327.0 1
160.60693 -433.63876 2312.0 1
185.89621 -436.45215 2327.0 1
211.58855 -439.45312 2343.0 1
236.00255 -439.45312 2343.0 1
262.19504 -442.45407 2359.0 1
286.77576 -442.45407 2359.0 1
381.45532 -468.1498 2496.0 1
404.5253 -464.7737 2478.0 1
-316.1428 -487.03082 2460.0 1
-290.50955 -487.03082 2460.0 1
-264.87643 -487.03082 2460.0 1
-60.24842 -490.59445 2478.0 1
-33.94138 -483.66516 2443.0 1
-8.367291 -476.93384 2409.0 1
16.734583 -476.93384 2409.0 1
41.541065 -473.56818 2392.0 1
65.54868 -467.03482 2359.0 1
89.51825 -463.86716 2343.0 1
113.15422 -460.69946 2327.0 1
137.40166 -460.69946 2327.0 1
161.64893 -460.69946 2327.0 1
185.89621 -460.69946 2327.0 1
211.58855 -463.86716 2343.0 1
236.00255 -463.86716 2343.0 1
264.08453 -470.40048 2376.0 1
286.77576 -467.03482 2359.0 1
384.2062 -497.72174 2514.0 1
407.46375 -494.15808 2496.0 1
430.34598 -490.59445 2478.0 1
-316.1428 -512.664 2460.0 1
-294.76093 -520.1664 2496.0 1
-264.87643 -512.664 2460.0 1
-60.24842 -516.41516 2478.0 1
-34.177567 -512.664 2460.0 1
-8.426338 -505.5784 2426.0 1
16.734583 -502.03558 2409.0 1
41.541065 -498.4928 2392.0 1
65.54868 -491.6156 2359.0 1
90.129555 -491.6156 2359.0 1
113.93224 -488.2812 2343.0 1
138.3464 -488.2812 2343.0 1
162.76039 -488.2812 2343.0 1
187.1744 -488.2812 2343.0 1
213.03345 -491.6156 2359.0 1
237.61417 -491.6156 2359.0 1
264.08453 -495.1584 2376.0 1
290.78748 -498.4928 2392.0 1
363.27942 -531.6284 2551.0 1
384.2062 -523.9176 2514.0 1
413.3406 -527.66876 2532.0 1
-316.1428 -538.2972 2460.0 1
-294.76093 -546.1747 2496.0 1
-266.81454 -542.2359 2478.0 1
-60.68606 -546.1747 2496.0 1
-34.177567 -538.2972 2460.0 1
-8.485386 -534.5772 2443.0 1
16.852676 -530.8573 2426.0 1
41.541065 -523.4174 2392.0 1
65.54868 -516.19635 2359.0 1
90.129555 -516.19635 2359.0 1
113.93224 -512.69525 2343.0 1
137.40166 -509.19412 2327.0 1
162.76039 -512.69525 2343.0 1
187.1744 -512.69525 2343.0 1
211.58855 -512.69525 2343.0 1
236.00255 -512.69525 2343.0 1
262.19504 -516.19635 2359.0 1
290.78748 -523.4174 2392.0 1
336.6979 -558.2098 2551.0 1
363.27942 -558.2098 2551.0 1
386.9571 -554.0522 2532.0 1
413.3406 -554.0522 2532.0 1
-292.63525 -568.05664 2478.0 1
-266.81454 -568.05664 2478.0 1
-61.56134 -580.4356 2532.0 1
-34.427647 -568.05664 2478.0 1
-8.544433 -563.93036 2460.0 1
17.088865 -563.93036 2460.0 1
41.8363 -552.2391 2409.0 1
66.465645 -548.34204 2392.0 1
90.77907 -544.6742 2376.0 1
114.71027 -540.7771 2359.0 1
138.3464 -537.10925 2343.0 1
162.76039 -537.10925 2343.0 1
187.1744 -537.10925 2343.0 1
211.58855 -537.10925 2343.0 1
236.00255 -537.10925 2343.0 1
262.19504 -540.7771 2359.0 1
341.7134 -593.5023 2589.0 1
365.98517 -589.1467 2570.0 1
389.86078 -584.7912 2551.0 1
416.44232 -584.7912 2551.0 1
-62.023296 -611.3727 2551.0 1
-34.927807 -602.50525 2514.0 1
-8.606953 -593.8775 2478.0 1
17.213905 -593.8775 2478.0 1
42.722 -589.56366 2460.0 1
66.93801 -577.341 2409.0 1
91.39037 -573.2668 2392.0 1
115.53693 -569.4322 2376.0 1
139.29115 -565.358 2359.0 1
162.76039 -561.52344 2343.0 1
187.1744 -561.52344 2343.0 1
211.58855 -561.52344 2343.0 1
236.00255 -561.52344 2343.0 1
262.19504 -565.358 2359.0 1
395.6682 -620.4798 2589.0 1
-35.177887 -633.2026 2532.0 1
-8.731993 -628.7011 2514.0 1
17.589027 -633.2026 2532.0 1
43.3472 -624.1997 2496.0 1
69.35545 -624.1997 2496.0 1
92.03989 -602.44275 2409.0 1
115.53693 -594.19006 2376.0 1
138.3464 -585.93744 2343.0 1
162.76039 -585.93744 2343.0 1
187.1744 -585.93744 2343.0 1
211.58855 -585.93744 2343.0 1
237.61417 -589.9387 2359.0 1
262.19504 -589.9387 2359.0 1
-35.177887 -659.586 2532.0 1
-8.794514 -659.586 2532.0 1
17.721014 -664.53546 2551.0 1
43.9724 -659.586 2532.0 1
70.88372 -664.53546 2551.0 1
93.33892 -636.4015 2443.0 1
116.31495 -623.11597 2392.0 1
138.3464 -610.3515 2343.0 1
162.76039 -610.3515 2343.0 1
187.1744 -610.3515 2343.0 1
211.58855 -610.3515 2343.0 1
237.61417 -614.5195 2359.0 1
264.08453 -618.948 2376.0 1
-36.247673 -706.83026 2609.0 1
-8.992495 -701.41187 2589.0 1
17.853 -696.26434 2570.0 1
44.63233 -696.26434 2570.0 1
71.93961 -701.41187 2589.0 1
94.67615 -671.3397 2478.0 1
116.31495 -648.0406 2392.0 1
139.29115 -639.1002 2359.0 1
162.76039 -634.7655 2343.0 1
187.1744 -634.7655 2343.0 1
211.58855 -634.7655 2343.0 1
236.00255 -634.7655 2343.0 1
265.86288 -648.0406 2392.0 1
-36.247673 -734.016 2609.0 1
-9.061961 -734.016 2609.0 1
18.123922 -734.016 2609.0 1
45.30963 -734.016 2609.0 1
73.05108 -739.6428 2629.0 1
93.988434 -692.0963 2460.0 1
116.31495 -672.9652 2392.0 1
139.29115 -663.681 2359.0 1
162.76039 -659.17957 2343.0 1
187.1744 -659.17957 2343.0 1
211.58855 -659.17957 2343.0 1
237.61417 -663.681 2359.0 1
256.97116 -650.458 2312.0 1
-9.131428 -767.03705 2629.0 1
18.40179 -772.87225 2649.0 1
46.0043 -772.87225 2649.0 1
74.162544 -778.70746 2669.0 1
93.988434 -717.7296 2460.0 1
115.53693 -693.2218 2376.0 1
138.3464 -683.5937 2343.0 1
163.87186 -688.2619 2359.0 1
187.1744 -683.5937 2343.0 1
213.03345 -688.2619 2359.0 1
240.93816 -697.88995 2392.0 1
-9.131428 -794.4312 2629.0 1
18.40179 -800.47485 2649.0 1
46.35163 -806.51843 2669.0 1
74.74606 -812.8642 2690.0 1
93.33892 -738.22577 2443.0 1
116.31495 -722.8146 2392.0 1
139.29115 -712.84265 2359.0 1
163.87186 -712.84265 2359.0 1
188.45258 -712.84265 2359.0 1
211.58855 -708.00775 2343.0 1
240.93816 -722.8146 2392.0 1
-9.416243 -847.45856 2711.0 1
18.832485 -847.45856 2711.0 1
46.71633 -840.894 2690.0 1
75.32958 -847.45856 2711.0 1
93.33892 -763.68176 2443.0 1
116.31495 -747.7392 2392.0 1
139.29115 -737.4234 2359.0 1
162.76039 -732.4218 2343.0 1
187.1744 -732.4218 2343.0 1
213.03345 -737.4234 2359.0 1
236.00255 -732.4218 2343.0 1
19.443794 -904.13293 2799.0 1
48.227234 -897.0265 2777.0 1
77.1635 -897.0265 2777.0 1
92.03989 -778.15515 2409.0 1
116.31495 -772.6638 2392.0 1
140.29494 -767.4955 2376.0 1
163.87186 -762.00415 2359.0 1
188.45258 -762.00415 2359.0 1
216.01358 -772.6638 2392.0 1
239.32652 -767.4955 2376.0 1
19.603567 -940.9676 2822.0 1
49.00873 -940.9676 2822.0 1
77.7748 -933.29846 2799.0 1
92.03989 -803.2569 2409.0 1
116.31495 -797.58844 2392.0 1
140.29494 -792.25336 2376.0 1
165.0528 -792.25336 2376.0 1
189.81065 -792.25336 2376.0 1
214.56866 -792.25336 2376.0 1
49.824966 -986.53436 2869.0 1
78.413895 -970.373 2822.0 1
93.33892 -840.05 2443.0 1
116.31495 -822.5131 2392.0 1
141.23969 -822.5131 2392.0 1
166.16426 -822.5131 2392.0 1
189.81065 -817.0114 2376.0 1
216.01358 -822.5131 2392.0 1
20.096783 -1024.932 2893.0 1
50.241764 -1024.932 2893.0 1
79.71987 -1016.4293 2869.0 1
92.68941 -859.4833 2426.0 1
117.14161 -853.4605 2409.0 1
141.23969 -847.43774 2392.0 1
166.16426 -847.43774 2392.0 1
191.08884 -847.43774 2392.0 1
216.01358 -847.43774 2392.0 1
20.791452 -1091.5471 2993.0 1
50.241764 -1055.077 2893.0 1
80.38675 -1055.077 2893.0 1
92.68941 -884.7622 2426.0 1
117.14161 -878.56226 2409.0 1
141.23969 -872.36237 2392.0 1
166.16426 -872.36237 2392.0 1
191.08884 -872.36237 2392.0 1
217.54878 -878.56226 2409.0 1
20.610838 -1112.981 2967.0 1
50.241764 -1085.2222 2893.0 1
80.38675 -1085.2222 2893.0 1
92.68941 -910.0411 2426.0 1
117.14161 -903.66406 2409.0 1
141.23969 -897.287 2392.0 1
166.16426 -897.287 2392.0 1
192.44691 -903.66406 2409.0 1
219.084 -910.0411 2426.0 1
20.610838 -1143.8971 2967.0 1
51.09273 -1134.2585 2942.0 1
80.38675 -1115.3672 2893.0 1
93.988434 -948.42834 2460.0 1
117.14161 -928.7658 2409.0 1
141.23969 -922.2116 2392.0 1
166.16426 -922.2116 2392.0 1
192.44691 -928.7658 2409.0 1
-10.305419 -1174.8134 2967.0 1
20.43717 -1164.9143 2942.0 1
50.658566 -1155.0154 2917.0 1
81.74829 -1164.9143 2942.0 1
93.988434 -974.06165 2460.0 1
117.96826 -960.599 2426.0 1
142.24348 -953.8677 2409.0 1
167.3452 -953.8677 2409.0 1
192.44691 -953.8677 2409.0 1
-10.131752 -1185.4105 2917.0 1
20.43717 -1195.57 2942.0 1
51.09273 -1195.57 2942.0 1
93.988434 -999.6948 2460.0 1
117.96826 -985.87787 2426.0 1
142.24348 -978.9694 2409.0 1
167.3452 -978.9694 2409.0 1
193.805 -985.87787 2426.0 1
