ply
format ascii 1.0
comment : created from Kinect user tracker
element vertex 299
property float x
property float y
property float z
property int userId
end_header
1363.1444 26.383415 2532.0 1
1356.823 0.0 2570.0 1
1353.4537 0.0 2514.0 1
1312.8992 -26.977354 2589.0 1
1339.8765 -26.977354 2589.0 1
1346.792 -26.581394 2551.0 1
1363.1444 -26.383415 2532.0 1
1295.8555 -54.371506 2609.0 1
1312.8992 -53.95471 2589.0 1
1330.0435 -53.558746 2570.0 1
1346.792 -53.16279 2551.0 1
1353.4537 -52.39171 2514.0 1
1288.1204 -82.80779 2649.0 1
1305.7892 -82.182594 2629.0 1
1312.8992 -80.93219 2589.0 1
1330.0435 -80.33825 2570.0 1
1356.823 -80.33825 2570.0 1
1363.1444 -79.15037 2532.0 1
1268.6697 -108.74314 2609.0 1
1305.7892 -109.576744 2629.0 1
1312.8992 -107.909546 2589.0 1
1339.8765 -107.909546 2589.0 1
1398.5308 -110.41035 2649.0 1
1415.366 -109.576744 2629.0 1
1278.395 -136.9709 2629.0 1
1295.8555 -135.9289 2609.0 1
1312.8992 -134.8869 2589.0 1
1370.9281 -138.0129 2649.0 1
1398.5308 -138.0129 2649.0 1
1404.5986 -135.9289 2609.0 1
1278.395 -164.36505 2629.0 1
1295.8555 -163.11465 2609.0 1
1312.8992 -161.86426 2589.0 1
1381.2786 -166.86584 2669.0 1
1398.5308 -165.61545 2649.0 1
1393.8313 -161.86426 2589.0 1
1241.484 -190.3004 2609.0 1
1268.6697 -190.3004 2609.0 1
1285.9216 -188.8416 2589.0 1
1343.3256 -193.218 2649.0 1
1381.2786 -194.6768 2669.0 1
1387.9718 -191.7592 2629.0 1
1404.5986 -190.3004 2609.0 1
1251.001 -219.15349 2629.0 1
1278.395 -219.15349 2629.0 1
1305.7892 -219.15349 2629.0 1
1374.7662 -225.98901 2711.0 1
1370.9281 -220.8207 2649.0 1
1387.9718 -219.15349 2629.0 1
1393.8313 -215.81909 2589.0 1
1241.484 -244.67204 2609.0 1
1278.395 -246.54764 2629.0 1
1315.7229 -248.42325 2649.0 1
1364.117 -252.26822 2690.0 1
1370.9281 -248.42325 2649.0 1
1387.9718 -246.54764 2629.0 1
1393.8313 -242.79645 2589.0 1
1241.484 -271.8578 2609.0 1
1268.6697 -271.8578 2609.0 1
1325.6566 -278.1098 2669.0 1
1353.4677 -278.1098 2669.0 1
1370.9281 -276.0258 2649.0 1
1398.5308 -276.0258 2649.0 1
1404.5986 -271.8578 2609.0 1
1232.9152 -303.62836 2649.0 1
1241.484 -299.04355 2609.0 1
1268.6697 -299.04355 2609.0 1
1336.087 -308.32776 2690.0 1
1353.4677 -305.92075 2669.0 1
1370.9281 -303.62836 2649.0 1
1387.9718 -301.33594 2629.0 1
1415.366 -301.33594 2629.0 1
1214.2981 -326.2293 2609.0 1
1231.967 -323.72852 2589.0 1
1258.9443 -323.72852 2589.0 1
1346.5175 -338.98337 2711.0 1
1353.4677 -333.7317 2669.0 1
1370.9281 -331.2309 2649.0 1
1387.9718 -328.7301 2629.0 1
1415.366 -328.7301 2629.0 1
1223.6067 -356.1244 2629.0 1
1231.967 -350.706 2589.0 1
1318.2689 -367.23212 2711.0 1
1336.087 -364.38745 2690.0 1
1353.4677 -361.5428 2669.0 1
1370.9281 -358.8336 2649.0 1
1398.5308 -358.8336 2649.0 1
1415.366 -356.1244 2629.0 1
1205.3126 -386.43613 2649.0 1
1223.6067 -383.51852 2629.0 1
1231.967 -377.68335 2589.0 1
1288.1204 -386.43613 2649.0 1
1336.087 -392.4172 2690.0 1
1353.4677 -389.35373 2669.0 1
1381.2786 -389.35373 2669.0 1
1398.5308 -386.43613 2649.0 1
1426.1333 -386.43613 2649.0 1
1243.5332 -427.16788 2733.0 1
1214.2981 -407.78668 2609.0 1
1231.967 -404.6607 2589.0 1
1268.6697 -407.78668 2609.0 1
1336.087 -420.447 2690.0 1
1353.4677 -417.1647 2669.0 1
1381.2786 -417.1647 2669.0 1
1409.0897 -417.1647 2669.0 1
1426.1333 -414.0387 2649.0 1
1214.4128 -444.97565 2669.0 1
1214.2981 -434.97244 2609.0 1
1231.967 -431.63806 2589.0 1
1278.395 -438.30685 2629.0 1
1336.087 -448.47678 2690.0 1
1364.117 -448.47678 2690.0 1
1381.2786 -444.97565 2669.0 1
1398.5308 -441.64124 2649.0 1
1426.1333 -441.64124 2649.0 1
1244.398 -495.8148 2799.0 1
1263.5535 -491.91772 2777.0 1
1242.2238 -472.7866 2669.0 1
1241.484 -462.1582 2609.0 1
1278.395 -465.701 2629.0 1
1336.087 -476.50653 2690.0 1
1374.7662 -480.22647 2711.0 1
1392.1467 -476.50653 2690.0 1
1409.0897 -472.7866 2669.0 1
1436.9006 -472.7866 2669.0 1
1254.6235 -529.2944 2822.0 1
1263.5535 -520.8542 2777.0 1
1261.7716 -508.47522 2711.0 1
1280.0276 -504.53644 2690.0 1
1318.2689 -508.47522 2711.0 1
1336.087 -504.53644 2690.0 1
1364.117 -504.53644 2690.0 1
1392.1467 -504.53644 2690.0 1
1409.0897 -500.5977 2669.0 1
1436.9006 -500.5977 2669.0 1
1254.6235 -558.6996 2822.0 1
1273.5637 -554.14606 2799.0 1
1272.011 -541.07935 2733.0 1
1290.0204 -536.7238 2711.0 1
1328.9668 -541.07935 2733.0 1
1346.5175 -536.7238 2711.0 1
1364.117 -532.5662 2690.0 1
1403.0148 -536.7238 2711.0 1
1431.2634 -536.7238 2711.0 1
1459.512 -536.7238 2711.0 1
1245.6241 -597.8996 2869.0 1
1264.849 -592.898 2845.0 1
1273.5637 -583.3116 2799.0 1
1272.011 -569.5572 2733.0 1
1300.489 -569.5572 2733.0 1
1339.1783 -573.9336 2754.0 1
1357.4446 -569.5572 2733.0 1
1396.5718 -573.9336 2754.0 1
1495.0442 -578.7268 2777.0 1
1256.0442 -633.0462 2893.0 1
1254.6235 -617.51 2822.0 1
1263.5535 -607.6631 2777.0 1
1292.4897 -607.6631 2777.0 1
1300.489 -598.03503 2733.0 1
1339.1783 -602.63025 2754.0 1
1379.2988 -607.6631 2777.0 1
1495.0442 -607.6631 2777.0 1
1195.754 -663.1912 2893.0 1
1236.0691 -668.693 2917.0 1
1235.2041 -652.18774 2845.0 1
1254.6235 -646.9152 2822.0 1
1273.5637 -641.6427 2799.0 1
1292.4897 -636.5994 2777.0 1
1300.489 -626.5129 2733.0 1
1350.3625 -636.5994 2777.0 1
1502.0083 -652.18774 2845.0 1
1495.0442 -636.5994 2777.0 1
1226.3402 -711.0713 2967.0 1
1225.8992 -693.3364 2893.0 1
1235.2041 -681.83276 2845.0 1
1254.6235 -676.32056 2822.0 1
1273.5637 -670.8084 2799.0 1
1292.4897 -665.5359 2777.0 1
1331.8949 -670.8084 2799.0 1
1495.0442 -665.5359 2777.0 1
1226.3402 -741.98737 2967.0 1
1225.8992 -723.48145 2893.0 1
1225.2183 -705.72577 2822.0 1
1254.6235 -705.72577 2822.0 1
1284.0288 -705.72577 2822.0 1
1313.434 -705.72577 2822.0 1
1502.0083 -711.4776 2845.0 1
1482.6617 -688.72034 2754.0 1
1205.8997 -779.6765 2993.0 1
1216.007 -766.391 2942.0 1
1225.8992 -753.62646 2893.0 1
1235.2041 -741.1225 2845.0 1
1254.6235 -735.131 2822.0 1
1284.0288 -735.131 2822.0 1
1495.0442 -723.4085 2777.0 1
1195.5143 -825.2223 3046.0 1
1205.8997 -810.8635 2993.0 1
1216.007 -797.0466 2942.0 1
1236.0691 -790.2736 2917.0 1
1256.0442 -783.77155 2893.0 1
1286.1891 -783.77155 2893.0 1
1495.0442 -752.3448 2777.0 1
1195.5143 -856.96155 3046.0 1
1205.8997 -842.05054 2993.0 1
1226.3402 -834.7357 2967.0 1
1257.2565 -834.7357 2967.0 1
1277.3184 -827.7022 2942.0 1
1296.8593 -820.6687 2917.0 1
1527.3497 -813.91656 2893.0 1
1506.8883 -787.4706 2799.0 1
1195.5143 -888.701 3046.0 1
1216.3752 -880.8235 3019.0 1
1237.0867 -873.23773 2993.0 1
1257.2565 -865.652 2967.0 1
1277.3184 -858.358 2942.0 1
1378.6631 -904.7478 3101.0 1
1502.0083 -830.05725 2845.0 1
1506.8883 -816.6363 2799.0 1
1174.0908 -928.5992 3073.0 1
1195.5143 -920.4403 3046.0 1
1227.2538 -920.4403 3046.0 1
1237.0867 -904.42474 2993.0 1
1257.2565 -896.56805 2967.0 1
1509.6252 -881.45905 2917.0 1
1502.0083 -859.7021 2845.0 1
1519.2708 -852.75195 2822.0 1
1173.2886 -986.8782 3157.0 1
1184.7887 -969.37256 3101.0 1
1206.1115 -960.6198 3073.0 1
1227.2538 -952.17957 3046.0 1
1258.9929 -952.17957 3046.0 1
1279.2913 -943.7394 3019.0 1
1509.6252 -911.8542 2917.0 1
1502.0083 -889.347 2845.0 1
1519.2708 -882.15717 2822.0 1
1173.2886 -1019.7741 3157.0 1
1184.7887 -1001.685 3101.0 1
1206.1115 -992.6404 3073.0 1
1227.2538 -983.9189 3046.0 1
1270.1528 -992.6404 3073.0 1
1484.7839 -926.7443 2869.0 1
1502.0083 -918.9919 2845.0 1
1519.2708 -911.5624 2822.0 1
1162.8824 -1043.3336 3129.0 1
1174.0908 -1024.661 3073.0 1
1206.1115 -1024.661 3073.0 1
1238.1322 -1024.661 3073.0 1
1293.2991 -1043.3336 3129.0 1
1484.7839 -956.6393 2869.0 1
1502.0083 -948.6367 2845.0 1
1531.6532 -948.6367 2845.0 1
1130.2782 -1075.938 3129.0 1
1162.8824 -1075.938 3129.0 1
1174.0908 -1056.6818 3073.0 1
1195.5143 -1047.3976 3046.0 1
1260.695 -1075.938 3129.0 1
1491.9078 -1011.63617 2942.0 1
1497.2046 -994.78705 2893.0 1
1514.6791 -986.53436 2869.0 1
1531.6532 -978.28174 2845.0 1
1130.2782 -1108.5421 3129.0 1
1152.4763 -1098.6223 3101.0 1
1184.7887 -1098.6223 3101.0 1
1491.9078 -1042.2917 2942.0 1
1497.2046 -1024.932 2893.0 1
1527.3497 -1024.932 2893.0 1
1544.574 -1016.4293 2869.0 1
1065.0698 -1141.1462 3129.0 1
1087.8514 -1130.9347 3101.0 1
1120.1638 -1130.9347 3101.0 1
1142.0703 -1120.723 3073.0 1
1174.0908 -1120.723 3073.0 1
1517.7703 -1091.5471 2993.0 1
1509.6252 -1063.8298 2917.0 1
1540.0205 -1063.8298 2917.0 1
1583.8748 -1072.9474 2942.0 1
1078.0289 -1152.7437 3073.0 1
1110.0494 -1152.7437 3073.0 1
1142.0703 -1152.7437 3073.0 1
1174.0908 -1152.7437 3073.0 1
1517.7703 -1122.7341 2993.0 1
1522.5634 -1103.603 2942.0 1
1540.0205 -1094.225 2917.0 1
1570.4155 -1094.225 2917.0 1
1036.8176 -1174.3547 3046.0 1
1059.0853 -1163.9452 3019.0 1
1090.5432 -1163.9452 3019.0 1
1122.0013 -1163.9452 3019.0 1
1479.2301 -1124.6201 2917.0 1
1509.6252 -1124.6201 2917.0 1
1540.0205 -1124.6201 2917.0 1
1570.4155 -1124.6201 2917.0 1
1491.9078 -1164.9143 2942.0 1
1509.6252 -1155.0154 2917.0 1
1540.0205 -1155.0154 2917.0 1
1570.4155 -1155.0154 2917.0 1
1522.5634 -1195.57 2942.0 1
1553.2191 -1195.57 2942.0 1
1583.8748 -1195.57 2942.0 1
