ply
format ascii 1.0
comment : created from Kinect user tracker
element vertex 646
property float x
property float y
property float z
property int userId
end_header
619.1772 401.62845 2409.0 1
639.7325 398.79422 2392.0 1
572.9888 379.1838 2426.0 1
598.2678 379.1838 2426.0 1
610.6953 371.3688 2376.0 1
630.90674 368.7117 2359.0 1
655.4874 368.7117 2359.0 1
694.4825 376.5267 2409.0 1
714.50635 373.8696 2392.0 1
555.386 358.8648 2460.0 1
585.2705 361.49066 2478.0 1
602.4601 356.38486 2443.0 1
619.1772 351.42493 2409.0 1
639.7325 348.94498 2392.0 1
660.2112 346.6109 2376.0 1
689.5816 348.94498 2392.0 1
709.72705 346.6109 2376.0 1
563.5136 338.10815 2496.0 1
589.52185 338.10815 2496.0 1
594.0755 326.32312 2409.0 1
619.1772 326.32312 2409.0 1
639.7325 324.0203 2392.0 1
664.65704 324.0203 2392.0 1
684.96906 321.85294 2376.0 1
709.72705 321.85294 2376.0 1
734.4849 321.85294 2376.0 1
563.5136 312.09985 2496.0 1
577.00397 305.47272 2443.0 1
598.2678 303.34705 2426.0 1
619.1772 301.22137 2409.0 1
639.7325 299.09567 2392.0 1
669.3808 301.22137 2409.0 1
694.4825 301.22137 2409.0 1
719.58435 301.22137 2409.0 1
749.9412 303.34705 2426.0 1
780.6525 305.47272 2443.0 1
800.49915 303.34705 2426.0 1
571.6412 290.2178 2532.0 1
585.2705 284.02832 2478.0 1
602.4601 280.01663 2443.0 1
623.54663 278.06808 2426.0 1
644.27905 276.11954 2409.0 1
669.3808 276.11954 2409.0 1
694.4825 276.11954 2409.0 1
724.6624 278.06808 2426.0 1
760.45154 281.96518 2460.0 1
791.8367 284.02832 2478.0 1
593.7732 261.9588 2514.0 1
606.6524 256.332 2460.0 1
619.1772 251.01779 2409.0 1
648.8257 252.7892 2426.0 1
669.3808 251.01779 2409.0 1
699.38336 252.7892 2426.0 1
729.7404 254.5606 2443.0 1
593.7732 235.76294 2514.0 1
611.0914 232.38686 2478.0 1
623.54663 227.5103 2426.0 1
648.8257 227.5103 2426.0 1
669.3808 225.91605 2409.0 1
699.38336 227.5103 2426.0 1
734.8184 230.69882 2460.0 1
771.58014 234.0749 2496.0 1
612.0534 225.98894 2711.0 1
645.49805 227.82286 2733.0 1
615.5303 208.06654 2496.0 1
627.9161 203.64847 2443.0 1
648.8257 202.23134 2426.0 1
674.1045 202.23134 2426.0 1
719.5634 208.06654 2496.0 1
745.57184 208.06654 2496.0 1
612.0534 197.74036 2711.0 1
640.30194 197.74036 2711.0 1
653.2611 193.21806 2649.0 1
632.2856 179.4324 2460.0 1
662.7329 180.74533 2478.0 1
693.5552 182.05824 2496.0 1
729.9418 184.68408 2532.0 1
762.00073 186.06995 2551.0 1
782.7087 184.68408 2532.0 1
588.5425 170.86713 2733.0 1
602.5712 166.86584 2669.0 1
625.6584 165.61545 2649.0 1
648.329 164.36505 2629.0 1
660.5585 160.67638 2570.0 1
682.25653 159.4885 2551.0 1
703.5584 158.30061 2532.0 1
729.9418 158.30061 2532.0 1
756.3253 158.30061 2532.0 1
777.1444 157.17525 2514.0 1
797.5885 156.0499 2496.0 1
593.06476 143.4834 2754.0 1
602.5712 139.0549 2669.0 1
620.9347 136.9709 2629.0 1
643.3968 135.9289 2609.0 1
665.442 134.8869 2589.0 1
682.25653 132.9071 2551.0 1
708.8378 132.9071 2551.0 1
724.7526 130.9794 2514.0 1
745.57184 130.0416 2496.0 1
771.58014 130.0416 2496.0 1
791.8367 129.10379 2478.0 1
817.6574 129.10379 2478.0 1
843.4781 129.10379 2478.0 1
583.8049 112.99451 2711.0 1
598.0559 110.41035 2649.0 1
616.21094 108.74314 2609.0 1
638.46466 107.909546 2589.0 1
660.5585 107.11762 2570.0 1
677.175 105.53378 2532.0 1
703.5584 105.53378 2532.0 1
724.7526 104.78355 2514.0 1
745.57184 104.0333 2496.0 1
766.0158 103.283066 2478.0 1
786.08484 102.53282 2460.0 1
811.71796 102.53282 2460.0 1
831.5646 101.824265 2443.0 1
862.98444 102.53282 2460.0 1
579.2826 84.089386 2690.0 1
593.5405 82.182526 2629.0 1
616.21094 81.55733 2609.0 1
633.7792 80.33819 2570.0 1
660.5585 80.33819 2570.0 1
677.175 79.15031 2532.0 1
703.5584 79.15031 2532.0 1
719.5634 78.02495 2496.0 1
740.1951 77.462265 2478.0 1
760.45154 76.89959 2460.0 1
780.6525 76.368164 2443.0 1
806.1086 76.368164 2443.0 1
831.5646 76.368164 2443.0 1
857.0207 76.368164 2443.0 1
542.8507 55.205173 2649.0 1
574.7603 55.62197 2669.0 1
593.5405 54.788372 2629.0 1
616.21094 54.37157 2609.0 1
633.7792 53.55881 2570.0 1
655.675 53.162853 2551.0 1
672.36096 52.391773 2514.0 1
693.5552 52.01665 2496.0 1
719.5634 52.01665 2496.0 1
740.1951 51.641533 2478.0 1
760.45154 51.26641 2460.0 1
780.6525 50.912132 2443.0 1
800.49915 50.55785 2426.0 1
825.77795 50.55785 2426.0 1
857.0207 50.912132 2443.0 1
882.4767 50.912132 2443.0 1
555.55615 28.248592 2711.0 1
570.45337 27.602552 2649.0 1
593.5405 27.394154 2629.0 1
620.9347 27.394154 2629.0 1
633.7792 26.779373 2570.0 1
655.675 26.581394 2551.0 1
677.175 26.383415 2532.0 1
693.5552 26.008295 2496.0 1
714.37427 25.820734 2478.0 1
740.1951 25.820734 2478.0 1
760.45154 25.633175 2460.0 1
780.6525 25.456036 2443.0 1
800.49915 25.278896 2426.0 1
825.77795 25.278896 2426.0 1
862.98444 25.633175 2460.0 1
882.4767 25.456036 2443.0 1
551.2527 0.0 2690.0 1
570.45337 0.0 2649.0 1
589.0252 0.0 2609.0 1
620.9347 0.0 2629.0 1
633.7792 0.0 2570.0 1
655.675 0.0 2551.0 1
677.175 0.0 2532.0 1
693.5552 0.0 2496.0 1
719.5634 0.0 2496.0 1
740.1951 0.0 2478.0 1
766.0158 0.0 2478.0 1
780.6525 0.0 2443.0 1
806.1086 0.0 2443.0 1
825.77795 0.0 2426.0 1
857.0207 0.0 2443.0 1
876.3358 0.0 2426.0 1
579.2826 -28.029772 2690.0 1
593.5405 -27.394154 2629.0 1
616.21094 -27.185753 2609.0 1
633.7792 -26.779373 2570.0 1
650.7915 -26.383415 2532.0 1
677.175 -26.383415 2532.0 1
693.5552 -26.008295 2496.0 1
719.5634 -26.008295 2496.0 1
740.1951 -25.820734 2478.0 1
766.0158 -25.820734 2478.0 1
786.08484 -25.633175 2460.0 1
800.49915 -25.278896 2426.0 1
831.5646 -25.456036 2443.0 1
862.98444 -25.633175 2460.0 1
888.61755 -25.633175 2460.0 1
574.7603 -55.621906 2669.0 1
593.5405 -54.788307 2629.0 1
611.4872 -53.95471 2589.0 1
629.0936 -53.16279 2551.0 1
650.7915 -52.76683 2532.0 1
677.175 -52.76683 2532.0 1
698.55676 -52.39171 2514.0 1
719.5634 -52.01659 2496.0 1
745.57184 -52.01659 2496.0 1
771.58014 -52.01659 2496.0 1
791.8367 -51.641468 2478.0 1
806.1086 -50.91207 2443.0 1
843.4781 -51.641468 2478.0 1
869.29895 -51.641468 2478.0 1
895.1196 -51.641468 2478.0 1
569.0813 -86.809074 2777.0 1
574.7603 -83.43299 2669.0 1
593.5405 -82.182594 2629.0 1
620.9347 -82.182594 2629.0 1
633.7792 -80.33825 2570.0 1
655.675 -79.74431 2551.0 1
682.25653 -79.74431 2551.0 1
703.5584 -79.15037 2532.0 1
729.9418 -79.15037 2532.0 1
756.3253 -79.15037 2532.0 1
782.7087 -79.15037 2532.0 1
797.5885 -78.02501 2496.0 1
811.71796 -76.89965 2460.0 1
831.5646 -76.368225 2443.0 1
869.29895 -77.462326 2478.0 1
901.6217 -78.02501 2496.0 1
574.7603 -111.24394 2669.0 1
593.5405 -109.576744 2629.0 1
620.9347 -109.576744 2629.0 1
633.7792 -107.11762 2570.0 1
655.675 -106.32571 2551.0 1
687.338 -107.11762 2570.0 1
714.1173 -107.11762 2570.0 1
735.4192 -106.32571 2551.0 1
762.00073 -106.32571 2551.0 1
788.5821 -106.32571 2551.0 1
803.3404 -104.78355 2514.0 1
817.6574 -103.283066 2478.0 1
843.4781 -103.283066 2478.0 1
875.61346 -104.0333 2496.0 1
901.6217 -104.0333 2496.0 1
551.2527 -140.149 2690.0 1
579.2826 -140.149 2690.0 1
593.5405 -136.9709 2629.0 1
620.9347 -136.9709 2629.0 1
643.3968 -135.9289 2609.0 1
665.442 -134.8869 2589.0 1
687.338 -133.897 2570.0 1
714.1173 -133.897 2570.0 1
740.89667 -133.897 2570.0 1
767.67615 -133.897 2570.0 1
794.4555 -133.897 2570.0 1
821.235 -133.897 2570.0 1
835.4756 -131.91719 2532.0 1
849.60504 -130.0416 2496.0 1
875.61346 -130.0416 2496.0 1
901.6217 -130.0416 2496.0 1
592.46735 -190.43588 3046.0 1
560.0645 -170.86713 2733.0 1
570.45337 -165.61545 2649.0 1
593.5405 -164.36505 2629.0 1
620.9347 -164.36505 2629.0 1
648.329 -164.36505 2629.0 1
670.5825 -163.11465 2609.0 1
692.4195 -161.86426 2589.0 1
719.3968 -161.86426 2589.0 1
740.89667 -160.67638 2570.0 1
767.67615 -160.67638 2570.0 1
800.3289 -161.86426 2589.0 1
821.235 -160.67638 2570.0 1
835.4756 -158.30061 2532.0 1
855.732 -157.17525 2514.0 1
881.928 -157.17525 2514.0 1
901.6217 -156.0499 2496.0 1
592.46735 -222.17517 3046.0 1
560.0645 -199.34496 2733.0 1
574.7603 -194.6768 2669.0 1
593.5405 -191.7592 2629.0 1
625.6584 -193.218 2649.0 1
643.3968 -190.3004 2609.0 1
675.7231 -191.7592 2629.0 1
697.76843 -190.3004 2609.0 1
719.3968 -188.8416 2589.0 1
740.89667 -187.45575 2570.0 1
773.35156 -188.8416 2589.0 1
806.5114 -190.3004 2609.0 1
833.6973 -190.3004 2609.0 1
841.74493 -186.06989 2551.0 1
849.60504 -182.05818 2496.0 1
881.928 -183.37111 2514.0 1
908.1238 -183.37111 2514.0 1
586.5 -265.58502 3186.0 1
603.1652 -258.49942 3101.0 1
560.0645 -227.82294 2733.0 1
579.2826 -224.23845 2690.0 1
598.0559 -220.8207 2649.0 1
625.6584 -220.8207 2649.0 1
648.329 -219.15349 2629.0 1
675.7231 -219.15349 2629.0 1
697.76843 -217.48628 2609.0 1
730.5115 -219.15349 2629.0 1
746.3741 -215.81909 2589.0 1
773.35156 -215.81909 2589.0 1
806.5114 -217.48628 2609.0 1
840.08826 -219.15349 2629.0 1
848.01434 -214.23524 2570.0 1
861.85895 -211.06757 2532.0 1
881.928 -209.5671 2514.0 1
908.1238 -209.5671 2514.0 1
570.85266 -290.8118 3101.0 1
603.1652 -290.8118 3101.0 1
564.368 -258.27014 2754.0 1
583.8049 -254.23761 2711.0 1
598.0559 -248.42325 2649.0 1
625.6584 -248.42325 2649.0 1
648.329 -246.54764 2629.0 1
675.7231 -246.54764 2629.0 1
703.1174 -246.54764 2629.0 1
719.3968 -242.79645 2589.0 1
746.3741 -242.79645 2589.0 1
779.3257 -244.67204 2609.0 1
806.5114 -244.67204 2609.0 1
840.08826 -246.54764 2629.0 1
848.01434 -241.01462 2570.0 1
861.85895 -237.45097 2532.0 1
881.928 -235.76294 2514.0 1
914.62585 -237.45097 2532.0 1
570.85266 -323.1242 3101.0 1
597.719 -320.2066 3073.0 1
573.5897 -291.6558 2799.0 1
583.8049 -282.4862 2711.0 1
598.0559 -276.0258 2649.0 1
625.6584 -276.0258 2649.0 1
653.2611 -276.0258 2649.0 1
680.8636 -276.0258 2649.0 1
703.1174 -273.9418 2629.0 1
724.9541 -271.8578 2609.0 1
752.13983 -271.8578 2609.0 1
779.3257 -271.8578 2609.0 1
812.694 -273.9418 2629.0 1
840.08826 -273.9418 2629.0 1
841.74493 -265.8142 2551.0 1
855.732 -261.9588 2514.0 1
888.2425 -263.83438 2532.0 1
921.4892 -265.8142 2551.0 1
581.1615 -361.85532 3157.0 1
597.719 -352.22723 3073.0 1
587.9346 -328.84476 2869.0 1
593.06476 -315.66345 2754.0 1
612.0534 -310.7348 2711.0 1
635.34204 -308.32776 2690.0 1
653.2611 -303.62836 2649.0 1
680.8636 -303.62836 2649.0 1
703.1174 -301.33594 2629.0 1
730.5115 -301.33594 2629.0 1
757.9056 -301.33594 2629.0 1
779.3257 -299.04355 2609.0 1
818.87646 -303.62836 2649.0 1
840.08826 -301.33594 2629.0 1
841.74493 -292.3956 2551.0 1
861.85895 -290.2178 2532.0 1
881.928 -288.15466 2514.0 1
587.21564 -377.4957 3019.0 1
583.0163 -355.73874 2845.0 1
593.06476 -344.3601 2754.0 1
612.0534 -338.98337 2711.0 1
640.30194 -338.98337 2711.0 1
663.37195 -336.35754 2690.0 1
680.8636 -331.2309 2649.0 1
708.46625 -331.2309 2649.0 1
730.5115 -328.7301 2629.0 1
757.9056 -328.7301 2629.0 1
785.29987 -328.7301 2629.0 1
818.87646 -331.2309 2649.0 1
840.08826 -328.7301 2629.0 1
841.74493 -318.977 2551.0 1
861.85895 -316.60123 2532.0 1
888.2425 -316.60123 2532.0 1
562.7078 -391.88583 2893.0 1
573.5897 -379.1526 2799.0 1
593.06476 -373.0569 2754.0 1
612.0534 -367.23212 2711.0 1
640.30194 -367.23212 2711.0 1
663.37195 -364.38745 2690.0 1
680.8636 -358.8336 2649.0 1
708.46625 -358.8336 2649.0 1
736.0688 -358.8336 2649.0 1
763.6713 -358.8336 2649.0 1
791.274 -358.8336 2649.0 1
818.87646 -358.8336 2649.0 1
840.08826 -356.1244 2629.0 1
841.74493 -345.5585 2551.0 1
868.3263 -345.5585 2551.0 1
888.2425 -342.98477 2532.0 1
562.7078 -422.03085 2893.0 1
573.5897 -408.31815 2799.0 1
593.06476 -401.75354 2754.0 1
607.3123 -392.4172 2690.0 1
640.30194 -395.4807 2711.0 1
663.37195 -392.4172 2690.0 1
680.8636 -386.43613 2649.0 1
708.46625 -386.43613 2649.0 1
736.0688 -386.43613 2649.0 1
763.6713 -386.43613 2649.0 1
791.274 -386.43613 2649.0 1
831.55066 -392.4172 2690.0 1
840.08826 -383.51852 2629.0 1
848.01434 -374.91162 2570.0 1
868.3263 -372.1399 2551.0 1
550.9713 -467.80588 2993.0 1
567.376 -455.9271 2917.0 1
583.0163 -444.6735 2845.0 1
593.06476 -430.4502 2754.0 1
612.0534 -423.72928 2711.0 1
630.38214 -417.1647 2669.0 1
658.19324 -417.1647 2669.0 1
680.8636 -414.0387 2649.0 1
708.46625 -414.0387 2649.0 1
736.0688 -414.0387 2649.0 1
763.6713 -414.0387 2649.0 1
791.274 -414.0387 2649.0 1
831.55066 -420.447 2690.0 1
833.6973 -407.78668 2609.0 1
854.2837 -404.6607 2589.0 1
874.79364 -401.69098 2570.0 1
546.18506 -494.6582 2967.0 1
567.376 -486.3222 2917.0 1
592.8528 -482.32092 2893.0 1
598.01776 -462.9814 2777.0 1
612.0534 -451.97787 2711.0 1
635.34204 -448.47678 2690.0 1
658.19324 -444.97565 2669.0 1
680.8636 -441.64124 2649.0 1
708.46625 -441.64124 2649.0 1
736.0688 -441.64124 2649.0 1
769.437 -444.97565 2669.0 1
803.52094 -448.47678 2690.0 1
831.55066 -448.47678 2690.0 1
833.6973 -434.97244 2609.0 1
854.2837 -431.63806 2589.0 1
881.261 -431.63806 2589.0 1
550.9713 -530.17993 2993.0 1
572.23865 -521.1458 2942.0 1
597.77106 -516.7173 2917.0 1
598.01776 -491.91772 2777.0 1
612.0534 -480.22647 2711.0 1
640.30194 -480.22647 2711.0 1
658.19324 -472.7866 2669.0 1
686.00415 -472.7866 2669.0 1
708.46625 -469.2438 2649.0 1
741.6261 -472.7866 2669.0 1
769.437 -472.7866 2669.0 1
816.36536 -484.12357 2733.0 1
833.6973 -462.1582 2609.0 1
854.2837 -458.6154 2589.0 1
874.79364 -455.24973 2570.0 1
541.5829 -551.8016 2942.0 1
577.1013 -556.49054 2967.0 1
592.8528 -542.61115 2893.0 1
598.01776 -520.8542 2777.0 1
607.3123 -504.53644 2690.0 1
640.30194 -508.47522 2711.0 1
663.37195 -504.53644 2690.0 1
691.4017 -504.53644 2690.0 1
713.8152 -500.5977 2669.0 1
747.4613 -504.53644 2690.0 1
775.491 -504.53644 2690.0 1
833.6973 -489.3441 2609.0 1
854.2837 -485.5929 2589.0 1
555.75757 -597.70166 3019.0 1
577.1013 -587.4067 2967.0 1
597.77106 -577.5077 2917.0 1
593.06476 -545.23694 2754.0 1
607.3123 -532.5662 2690.0 1
640.30194 -536.7238 2711.0 1
668.5507 -536.7238 2711.0 1
691.4017 -532.5662 2690.0 1
725.048 -536.7238 2711.0 1
753.2965 -536.7238 2711.0 1
812.694 -520.48944 2629.0 1
833.6973 -516.52985 2609.0 1
860.883 -516.52985 2609.0 1
894.87646 -520.48944 2629.0 1
550.9713 -623.7412 2993.0 1
577.1013 -618.3228 2967.0 1
597.77106 -607.9028 2917.0 1
593.06476 -573.9336 2754.0 1
612.0534 -564.9724 2711.0 1
640.30194 -564.9724 2711.0 1
668.5507 -564.9724 2711.0 1
696.79926 -564.9724 2711.0 1
730.9318 -569.5572 2733.0 1
759.4096 -569.5572 2733.0 1
818.87646 -552.0516 2649.0 1
840.08826 -547.8836 2629.0 1
860.883 -543.7156 2609.0 1
888.0687 -543.7156 2609.0 1
550.9713 -654.9282 2993.0 1
582.1585 -654.9282 2993.0 1
597.77106 -638.2979 2917.0 1
593.06476 -602.63025 2754.0 1
617.02026 -598.03503 2733.0 1
645.49805 -598.03503 2733.0 1
673.9761 -598.03503 2733.0 1
702.45386 -598.03503 2733.0 1
725.048 -593.221 2711.0 1
818.87646 -579.6541 2649.0 1
846.4792 -579.6541 2649.0 1
867.48236 -575.2778 2629.0 1
888.0687 -570.90137 2609.0 1
555.75757 -692.0755 3019.0 1
587.21564 -692.0755 3019.0 1
592.8528 -663.1912 2893.0 1
598.01776 -636.5994 2777.0 1
617.02026 -626.5129 2733.0 1
645.49805 -626.5129 2733.0 1
673.9761 -626.5129 2733.0 1
702.45386 -626.5129 2733.0 1
860.1085 -737.2358 3216.0 1
597.719 -736.4752 3073.0 1
592.8528 -693.3364 2893.0 1
598.01776 -665.5359 2777.0 1
621.7614 -660.0237 2754.0 1
650.458 -660.0237 2754.0 1
684.8267 -665.5359 2777.0 1
707.8514 -660.0237 2754.0 1
829.3522 -743.1857 3101.0 1
853.8843 -736.4752 3073.0 1
578.303 -705.72577 2822.0 1
598.01776 -694.47217 2777.0 1
617.02026 -683.4686 2733.0 1
655.89026 -694.47217 2777.0 1
690.2521 -699.97394 2799.0 1
737.4095 -717.47955 2869.0 1
821.86365 -768.49585 3073.0 1
853.8843 -768.49585 3073.0 1
893.97687 -775.4981 3101.0 1
578.303 -735.131 2822.0 1
598.01776 -723.4085 2777.0 1
626.95404 -723.4085 2777.0 1
661.08636 -729.13947 2799.0 1
690.2521 -729.13947 2799.0 1
769.28076 -779.6765 2993.0 1
821.86365 -800.5165 3073.0 1
861.6645 -807.8105 3101.0 1
893.97687 -807.8105 3101.0 1
934.6532 -815.1045 3129.0 1
583.0163 -770.76733 2845.0 1
602.7554 -758.30505 2799.0 1
631.9209 -758.30505 2799.0 1
666.5187 -764.5362 2822.0 1
695.924 -764.5362 2822.0 1
797.0396 -840.12286 3101.0 1
829.3522 -840.12286 3101.0 1
853.8843 -832.5371 3073.0 1
902.0489 -847.7086 3129.0 1
926.28937 -840.12286 3101.0 1
967.25726 -847.7086 3129.0 1
587.9346 -807.16437 2869.0 1
607.7084 -793.9414 2822.0 1
631.9209 -787.4706 2799.0 1
671.951 -800.41223 2845.0 1
701.596 -800.41223 2845.0 1
829.3522 -872.43524 3101.0 1
869.44476 -880.3128 3129.0 1
902.0489 -880.3128 3129.0 1
926.28937 -872.43524 3101.0 1
975.91284 -888.1903 3157.0 1
1008.8089 -888.1903 3157.0 1
1041.7047 -888.1903 3157.0 1
578.303 -823.34674 2822.0 1
612.6613 -830.05725 2845.0 1
631.9209 -816.6363 2799.0 1
666.5187 -823.34674 2822.0 1
695.924 -823.34674 2822.0 1
877.22504 -921.08636 3157.0 1
902.0489 -912.9171 3129.0 1
943.01697 -921.08636 3157.0 1
975.91284 -921.08636 3157.0 1
999.8616 -912.9171 3129.0 1
1032.4657 -912.9171 3129.0 1
1065.0698 -912.9171 3129.0 1
587.9346 -866.9544 2869.0 1
617.82965 -866.9544 2869.0 1
642.30615 -859.7021 2845.0 1
671.951 -859.7021 2845.0 1
701.596 -859.7021 2845.0 1
893.6192 -971.8109 3216.0 1
910.1209 -953.9823 3157.0 1
951.67944 -962.7455 3186.0 1
967.25726 -945.52124 3129.0 1
999.8616 -945.52124 3129.0 1
1041.7047 -953.9823 3157.0 1
1084.4718 -962.7455 3186.0 1
622.998 -904.3518 2893.0 1
647.72455 -896.84937 2869.0 1
677.61945 -896.84937 2869.0 1
713.4331 -904.3518 2893.0 1
927.1298 -1005.3216 3216.0 1
951.67944 -995.9436 3186.0 1
984.8775 -995.9436 3186.0 1
1018.07574 -995.9436 3186.0 1
1051.2738 -995.9436 3186.0 1
608.0174 -958.40027 2967.0 1
622.998 -934.4968 2893.0 1
653.14294 -934.4968 2893.0 1
688.9564 -942.24927 2917.0 1
944.71533 -1058.5365 3277.0 1
960.6407 -1038.8323 3216.0 1
984.8775 -1029.1417 3186.0 1
1027.6621 -1038.8323 3216.0 1
1061.1727 -1038.8323 3216.0 1
608.0174 -989.3164 2967.0 1
622.998 -964.64185 2893.0 1
653.14294 -964.64185 2893.0 1
700.76575 -989.3164 2967.0 1
951.67944 -1062.3397 3186.0 1
984.8775 -1062.3397 3186.0 1
587.21564 -1038.1134 3019.0 1
613.34546 -1029.173 2993.0 1
633.55 -1011.63617 2942.0 1
658.56134 -1003.0397 2917.0 1
694.8611 -1011.63617 2942.0 1
960.6407 -1105.8538 3216.0 1
581.1615 -1118.4619 3157.0 1
582.1585 -1060.3601 2993.0 1
608.0174 -1051.1488 2967.0 1
638.93365 -1051.1488 2967.0 1
658.56134 -1033.4348 2917.0 1
719.4245 -1079.1368 3046.0 1
570.85266 -1130.9347 3101.0 1
582.1585 -1091.5471 2993.0 1
613.34546 -1091.5471 2993.0 1
644.53265 -1091.5471 2993.0 1
675.7196 -1091.5471 2993.0 1
533.6777 -1152.7437 3073.0 1
565.69824 -1152.7437 3073.0 1
587.21564 -1132.4872 3019.0 1
613.34546 -1122.7341 2993.0 1
650.13165 -1132.4872 3019.0 1
524.2997 -1163.9452 3019.0 1
555.75757 -1163.9452 3019.0 1
587.21564 -1163.9452 3019.0 1
613.34546 -1153.9211 2993.0 1
644.53265 -1153.9211 2993.0 1
613.34546 -1185.1083 2993.0 1
644.53265 -1185.1083 2993.0 1
