ply
format ascii 1.0
comment : created from Kinect user tracker
element vertex 900
property float x
property float y
property float z
property int userId
end_header
139.14172 292.19766 2003.0 1
160.01294 292.19766 2003.0 1
74.80868 265.23065 1958.0 1
96.28077 268.2108 1980.0 1
117.62101 269.8363 1992.0 1
136.77986 266.72073 1969.0 1
156.41805 265.23065 1958.0 1
178.80722 268.2108 1980.0 1
199.43877 268.2108 1980.0 1
74.80868 244.82832 1958.0 1
95.21098 244.82832 1958.0 1
114.31439 242.07744 1936.0 1
133.72333 240.70201 1925.0 1
154.66054 242.07744 1936.0 1
173.84036 240.70201 1925.0 1
198.33078 246.20377 1969.0 1
221.4042 249.07968 1992.0 1
242.1608 249.07968 1992.0 1
54.711895 225.68675 1969.0 1
74.388405 223.16512 1947.0 1
93.60631 220.64348 1925.0 1
113.66488 220.64348 1925.0 1
133.72333 220.64348 1925.0 1
153.78178 220.64348 1925.0 1
173.84036 220.64348 1925.0 1
195.00679 221.9043 1936.0 1
218.84784 225.68675 1969.0 1
240.702 226.94757 1980.0 1
34.194965 205.1698 1969.0 1
54.711895 205.1698 1969.0 1
74.80868 204.02359 1958.0 1
95.21098 204.02359 1958.0 1
114.31439 201.7312 1936.0 1
133.72333 200.58499 1925.0 1
153.78178 200.58499 1925.0 1
173.84036 200.58499 1925.0 1
193.8988 200.58499 1925.0 1
215.18 201.7312 1936.0 1
238.02753 204.02359 1958.0 1
262.9174 207.56639 1992.0 1
34.5944 186.80978 1992.0 1
54.711895 184.65283 1969.0 1
75.22895 184.65283 1969.0 1
95.74588 184.65283 1969.0 1
114.96391 182.58968 1947.0 1
133.72333 180.52652 1925.0 1
153.78178 180.52652 1925.0 1
173.84036 180.52652 1925.0 1
193.8988 180.52652 1925.0 1
213.95738 180.52652 1925.0 1
235.35306 181.55809 1936.0 1
261.33356 185.68442 1980.0 1
14.164307 169.97102 2039.0 1
34.78543 166.97006 2003.0 1
55.350986 166.0531 1992.0 1
75.22895 164.13583 1969.0 1
95.21098 163.21887 1958.0 1
114.31439 161.38495 1936.0 1
133.72333 160.46799 1925.0 1
152.98291 159.63438 1915.0 1
173.84036 160.46799 1925.0 1
196.11479 162.30191 1947.0 1
220.07045 165.05278 1980.0 1
243.49803 166.97006 2003.0 1
34.99383 146.9741 2015.0 1
55.350986 145.2965 1992.0 1
75.64922 144.4212 1980.0 1
95.21098 142.81653 1958.0 1
114.31439 141.21185 1936.0 1
134.48746 141.21185 1936.0 1
154.66054 141.21185 1936.0 1
173.84036 140.4095 1925.0 1
197.22278 142.81653 1958.0 1
222.62682 146.09883 2003.0 1
247.87444 148.72467 2039.0 1
272.28842 150.47523 2063.0 1
14.247667 128.2285 2051.0 1
35.202232 126.72802 2027.0 1
55.990078 125.977776 2015.0 1
76.52798 125.22754 2003.0 1
95.74588 123.10186 1969.0 1
115.61343 122.41414 1958.0 1
135.2516 121.72642 1947.0 1
155.53929 121.72642 1947.0 1
174.83372 121.0387 1936.0 1
198.33078 123.10186 1969.0 1
221.4042 124.53982 1992.0 1
249.33322 128.2285 2051.0 1
35.827435 107.4823 2063.0 1
57.323837 107.4823 2063.0 1
77.44494 105.6067 2027.0 1
95.74588 102.5849 1969.0 1
115.61343 102.011795 1958.0 1
135.2516 101.4387 1947.0 1
154.66054 100.8656 1936.0 1
173.84036 100.292496 1925.0 1
199.43877 103.158 1980.0 1
223.96059 104.9815 2015.0 1
255.41156 109.4621 2101.0 1
36.9389 88.65338 2127.0 1
58.740955 88.11154 2114.0 1
78.82038 85.985855 2063.0 1
96.28077 82.52642 1980.0 1
116.26294 82.06794 1969.0 1
136.01573 81.60946 1958.0 1
155.53929 81.15098 1947.0 1
174.83372 80.6925 1936.0 1
199.43877 82.52642 1980.0 1
232.0743 87.02786 2088.0 1
255.41156 87.5697 2101.0 1
15.241045 68.58443 2194.0 1
37.876698 68.17805 2181.0 1
59.46341 66.896385 2140.0 1
80.76892 66.083626 2114.0 1
99.14974 63.73913 2039.0 1
116.91245 61.89479 1980.0 1
136.01573 61.20707 1958.0 1
156.41805 61.20707 1958.0 1
176.82048 61.20707 1958.0 1
199.43877 61.89479 1980.0 1
237.85391 66.896385 2140.0 1
-53.027363 45.45205 2181.0 1
-30.106825 45.16029 2167.0 1
-7.526742 45.16029 2167.0 1
15.053484 45.16029 2167.0 1
37.390434 44.86853 2153.0 1
59.46341 44.59761 2140.0 1
80.76892 44.05577 2114.0 1
101.53245 43.51393 2088.0 1
118.97909 41.99261 2015.0 1
137.54399 41.26321 1980.0 1
157.2968 41.03397 1969.0 1
178.80722 41.26321 1980.0 1
212.93614 44.05577 2114.0 1
237.85391 44.59761 2140.0 1
260.15265 44.59761 2140.0 1
282.45142 44.59761 2140.0 1
-76.20493 22.861458 2194.0 1
-52.686977 22.580118 2167.0 1
-29.912317 22.434238 2153.0 1
-7.4329615 22.298779 2140.0 1
14.95623 22.434238 2153.0 1
37.390434 22.434238 2153.0 1
59.102184 22.163319 2127.0 1
80.76892 22.027859 2114.0 1
102.1646 21.892399 2101.0 1
121.813324 21.496439 2063.0 1
140.80893 21.121319 2027.0 1
162.88885 21.246359 2039.0 1
188.56035 21.756939 2088.0 1
214.24559 22.163319 2127.0 1
237.85391 22.298779 2140.0 1
258.5723 22.163319 2127.0 1
282.45142 22.298779 2140.0 1
306.60156 22.434238 2153.0 1
329.03577 22.434238 2153.0 1
-99.69857 0.0 2208.0 1
-76.20493 0.0 2194.0 1
-52.346592 0.0 2153.0 1
-29.731705 0.0 2140.0 1
-7.4329615 0.0 2140.0 1
14.865923 0.0 2140.0 1
36.9389 0.0 2127.0 1
58.740955 0.0 2114.0 1
80.76892 0.0 2114.0 1
102.1646 0.0 2101.0 1
123.28949 0.0 2088.0 1
145.0464 0.0 2088.0 1
166.8033 0.0 2088.0 1
189.73433 0.0 2101.0 1
212.93614 0.0 2114.0 1
233.5192 0.0 2101.0 1
258.5723 0.0 2127.0 1
279.01974 0.0 2114.0 1
302.89902 0.0 2127.0 1
327.04904 0.0 2140.0 1
351.47012 0.0 2153.0 1
-99.69857 -23.007338 2208.0 1
-75.753395 -22.725998 2181.0 1
-52.346592 -22.434238 2153.0 1
-29.731705 -22.298779 2140.0 1
-7.387808 -22.163319 2127.0 1
14.775616 -22.163319 2127.0 1
36.71313 -22.027859 2114.0 1
58.740955 -22.027859 2114.0 1
80.27223 -21.892399 2101.0 1
102.1646 -21.892399 2101.0 1
124.0571 -21.892399 2101.0 1
145.0464 -21.756939 2088.0 1
167.84183 -21.892399 2101.0 1
188.56035 -21.756939 2088.0 1
211.6267 -21.892399 2101.0 1
233.5192 -21.892399 2101.0 1
256.99194 -22.027859 2114.0 1
279.01974 -22.027859 2114.0 1
302.89902 -22.163319 2127.0 1
325.0623 -22.163319 2127.0 1
349.34793 -22.298779 2140.0 1
-99.69857 -46.014675 2208.0 1
-75.753395 -45.451996 2181.0 1
-52.346592 -44.868477 2153.0 1
-29.731705 -44.597557 2140.0 1
-7.4329615 -44.597557 2140.0 1
14.865923 -44.597557 2140.0 1
36.71313 -44.055717 2114.0 1
58.740955 -44.055717 2114.0 1
80.27223 -43.784798 2101.0 1
101.53245 -43.513878 2088.0 1
123.28949 -43.513878 2088.0 1
145.0464 -43.513878 2088.0 1
167.84183 -43.784798 2101.0 1
188.56035 -43.513878 2088.0 1
211.6267 -43.784798 2101.0 1
233.5192 -43.784798 2101.0 1
255.41156 -43.784798 2101.0 1
279.01974 -44.055717 2114.0 1
302.89902 -44.326637 2127.0 1
325.0623 -44.326637 2127.0 1
349.34793 -44.597557 2140.0 1
373.90433 -44.868477 2153.0 1
-99.69857 -69.022125 2208.0 1
-75.753395 -68.1781 2181.0 1
-52.346592 -67.30282 2153.0 1
-29.731705 -66.89644 2140.0 1
-7.387808 -66.49006 2127.0 1
14.775616 -66.49006 2127.0 1
36.71313 -66.08368 2114.0 1
58.37973 -65.6773 2101.0 1
80.27223 -65.6773 2101.0 1
101.53245 -65.27092 2088.0 1
122.58093 -64.8958 2076.0 1
144.2128 -64.8958 2076.0 1
165.84467 -64.8958 2076.0 1
187.47667 -64.8958 2076.0 1
210.31725 -65.27092 2088.0 1
233.5192 -65.6773 2101.0 1
255.41156 -65.6773 2101.0 1
279.01974 -66.08368 2114.0 1
301.04773 -66.08368 2114.0 1
325.0623 -66.49006 2127.0 1
349.34793 -66.89644 2140.0 1
373.90433 -67.30282 2153.0 1
-125.15118 -93.86338 2252.0 1
-99.69857 -92.02946 2208.0 1
-76.20493 -91.44594 2194.0 1
-52.686977 -90.32058 2167.0 1
-29.731705 -89.19522 2140.0 1
-7.3426547 -88.11154 2114.0 1
14.685309 -88.11154 2114.0 1
36.71313 -88.11154 2114.0 1
58.37973 -87.5697 2101.0 1
80.27223 -87.5697 2101.0 1
101.53245 -87.02786 2088.0 1
122.58093 -86.5277 2076.0 1
144.2128 -86.5277 2076.0 1
164.80614 -85.985855 2063.0 1
188.56035 -87.02786 2088.0 1
209.10854 -86.5277 2076.0 1
232.0743 -87.02786 2088.0 1
255.41156 -87.5697 2101.0 1
279.01974 -88.11154 2114.0 1
301.04773 -88.11154 2114.0 1
325.0623 -88.65338 2127.0 1
351.47012 -89.73706 2153.0 1
376.33566 -90.32058 2167.0 1
-125.15118 -117.3292 2252.0 1
-101.00802 -116.5477 2237.0 1
-76.6912 -115.0368 2208.0 1
-52.686977 -112.900696 2167.0 1
-29.912317 -112.171295 2153.0 1
-7.3426547 -110.1394 2114.0 1
14.685309 -110.1394 2114.0 1
36.487366 -109.4621 2101.0 1
58.37973 -109.4621 2101.0 1
79.77554 -108.7848 2088.0 1
100.94893 -108.1596 2076.0 1
122.58093 -108.1596 2076.0 1
144.2128 -108.1596 2076.0 1
165.84467 -108.1596 2076.0 1
188.56035 -108.7848 2088.0 1
210.31725 -108.7848 2088.0 1
233.5192 -109.4621 2101.0 1
255.41156 -109.4621 2101.0 1
279.01974 -110.1394 2114.0 1
301.04773 -110.1394 2114.0 1
327.04904 -111.493996 2140.0 1
353.75558 -112.900696 2167.0 1
383.456 -115.0368 2208.0 1
-125.15118 -140.79501 2252.0 1
-101.68532 -140.79501 2252.0 1
-77.69846 -139.85721 2237.0 1
-53.683823 -138.04413 2208.0 1
-29.912317 -134.60553 2153.0 1
-7.387808 -132.98001 2127.0 1
14.685309 -132.16725 2114.0 1
36.487366 -131.35449 2101.0 1
58.37973 -131.35449 2101.0 1
80.27223 -131.35449 2101.0 1
100.94893 -129.7915 2076.0 1
123.28949 -130.54173 2088.0 1
145.0464 -130.54173 2088.0 1
165.84467 -129.7915 2076.0 1
187.47667 -129.7915 2076.0 1
210.31725 -130.54173 2088.0 1
232.0743 -130.54173 2088.0 1
255.41156 -131.35449 2101.0 1
279.01974 -132.16725 2114.0 1
301.04773 -132.16725 2114.0 1
329.03577 -134.60553 2153.0 1
356.04105 -136.3561 2181.0 1
386.061 -138.98193 2223.0 1
-153.56645 -169.73132 2327.0 1
-127.65198 -167.54314 2297.0 1
-102.31747 -165.282 2266.0 1
-78.705734 -165.282 2266.0 1
-54.753613 -164.26083 2252.0 1
-30.106825 -158.06093 2167.0 1
-7.387808 -155.14334 2127.0 1
14.775616 -155.14334 2127.0 1
36.487366 -153.2469 2101.0 1
58.37973 -153.2469 2101.0 1
80.27223 -153.2469 2101.0 1
101.53245 -152.29868 2088.0 1
124.0571 -153.2469 2101.0 1
145.0464 -152.29868 2088.0 1
165.84467 -151.4234 2076.0 1
187.47667 -151.4234 2076.0 1
210.31725 -152.29868 2088.0 1
230.74052 -151.4234 2076.0 1
255.41156 -153.2469 2101.0 1
279.01974 -154.19511 2114.0 1
306.60156 -157.03978 2153.0 1
333.3149 -159.08209 2181.0 1
360.4487 -161.05147 2208.0 1
386.061 -162.14557 2223.0 1
-153.56645 -193.97876 2327.0 1
-127.65198 -191.47797 2297.0 1
-102.99477 -190.1442 2281.0 1
-79.22673 -190.1442 2281.0 1
-56.21241 -192.72836 2312.0 1
-30.30133 -181.8082 2181.0 1
-7.4329615 -178.39044 2140.0 1
14.775616 -177.30676 2127.0 1
36.71313 -176.22308 2114.0 1
58.37973 -175.1394 2101.0 1
80.27223 -175.1394 2101.0 1
102.1646 -175.1394 2101.0 1
124.0571 -175.1394 2101.0 1
145.94946 -175.1394 2101.0 1
165.84467 -173.0554 2076.0 1
187.47667 -173.0554 2076.0 1
209.10854 -173.0554 2076.0 1
232.0743 -174.05573 2088.0 1
255.41156 -175.1394 2101.0 1
280.73557 -177.30676 2127.0 1
312.44025 -182.89188 2194.0 1
335.30167 -182.89188 2194.0 1
358.16324 -182.89188 2194.0 1
-179.03642 -219.72656 2343.0 1
-153.56645 -218.22607 2327.0 1
-128.48558 -216.81938 2312.0 1
-104.39452 -216.81938 2312.0 1
-80.30347 -216.81938 2312.0 1
-30.481943 -205.75334 2194.0 1
-7.478115 -201.90836 2153.0 1
14.775616 -199.47008 2127.0 1
36.71313 -198.25093 2114.0 1
58.37973 -197.0318 2101.0 1
80.27223 -197.0318 2101.0 1
102.1646 -197.0318 2101.0 1
124.0571 -197.0318 2101.0 1
145.94946 -197.0318 2101.0 1
166.8033 -195.81265 2088.0 1
188.56035 -195.81265 2088.0 1
210.31725 -195.81265 2088.0 1
233.5192 -197.0318 2101.0 1
256.99194 -198.25093 2114.0 1
284.16724 -201.90836 2153.0 1
318.56375 -209.78587 2237.0 1
339.73364 -208.47296 2223.0 1
362.8974 -208.47296 2223.0 1
-207.70532 -249.2464 2392.0 1
-179.03642 -244.1406 2343.0 1
-153.56645 -242.47339 2327.0 1
-129.31917 -242.47339 2327.0 1
-105.07182 -242.47339 2327.0 1
-30.67645 -230.0736 2208.0 1
-7.526742 -225.80139 2167.0 1
14.95623 -224.34259 2153.0 1
37.164665 -222.98799 2140.0 1
58.740955 -220.2788 2114.0 1
80.76892 -220.2788 2114.0 1
102.796745 -220.2788 2114.0 1
124.0571 -218.9242 2101.0 1
145.0464 -217.5696 2088.0 1
166.8033 -217.5696 2088.0 1
189.73433 -218.9242 2101.0 1
211.6267 -218.9242 2101.0 1
233.5192 -218.9242 2101.0 1
260.15265 -222.98799 2140.0 1
289.57867 -228.61479 2194.0 1
322.69354 -236.1172 2266.0 1
346.30518 -236.1172 2266.0 1
369.917 -236.1172 2266.0 1
393.52866 -236.1172 2266.0 1
-204.83983 -270.38855 2359.0 1
-177.81381 -266.7207 2327.0 1
-153.56645 -266.7207 2327.0 1
-129.31917 -266.7207 2327.0 1
-106.51672 -270.38855 2359.0 1
-30.88485 -254.80023 2223.0 1
-7.575369 -249.98619 2181.0 1
14.95623 -246.77684 2153.0 1
37.164665 -245.28677 2140.0 1
59.102184 -243.7967 2127.0 1
80.76892 -242.30666 2114.0 1
102.796745 -242.30666 2114.0 1
124.82471 -242.30666 2114.0 1
145.94946 -240.81659 2101.0 1
167.84183 -240.81659 2101.0 1
189.73433 -240.81659 2101.0 1
214.24559 -243.7967 2127.0 1
237.85391 -245.28677 2140.0 1
263.43497 -248.38152 2167.0 1
299.08173 -259.72888 2266.0 1
329.24423 -265.0014 2312.0 1
348.5976 -261.44818 2281.0 1
372.3657 -261.44818 2281.0 1
-204.83983 -294.9693 2359.0 1
-177.81381 -290.96802 2327.0 1
-153.56645 -290.96802 2327.0 1
-130.20834 -292.96866 2343.0 1
-31.287756 -281.59003 2252.0 1
-7.6205225 -274.3377 2194.0 1
15.150738 -272.7122 2181.0 1
37.390434 -269.21106 2153.0 1
59.46341 -267.58554 2140.0 1
81.26561 -265.96002 2127.0 1
103.42889 -265.96002 2127.0 1
124.82471 -264.3345 2114.0 1
146.85252 -264.3345 2114.0 1
168.88036 -264.3345 2114.0 1
190.90833 -264.3345 2114.0 1
215.55504 -267.58554 2140.0 1
240.85487 -270.96164 2167.0 1
265.1369 -272.7122 2181.0 1
301.06152 -285.2162 2281.0 1
331.38034 -290.96802 2327.0 1
353.3352 -289.09244 2312.0 1
377.42636 -289.09244 2312.0 1
-227.86458 -317.3828 2343.0 1
-202.06116 -315.21545 2327.0 1
-179.03642 -317.3828 2343.0 1
-154.62234 -317.3828 2343.0 1
-130.20834 -317.3828 2343.0 1
-31.287756 -305.05597 2252.0 1
-7.669149 -299.0957 2208.0 1
15.150738 -295.4383 2181.0 1
37.390434 -291.64542 2153.0 1
59.46341 -289.88443 2140.0 1
81.26561 -288.12344 2127.0 1
102.796745 -286.3625 2114.0 1
124.82471 -286.3625 2114.0 1
146.85252 -286.3625 2114.0 1
169.91888 -288.12344 2127.0 1
193.25629 -289.88443 2140.0 1
216.86449 -291.64542 2153.0 1
242.41093 -295.4383 2181.0 1
268.4192 -299.0957 2208.0 1
295.25412 -303.02405 2237.0 1
333.65884 -317.3828 2343.0 1
353.3352 -313.18356 2312.0 1
379.87506 -315.21545 2327.0 1
-229.42062 -344.13095 2359.0 1
-202.06116 -339.46277 2327.0 1
-177.81381 -339.46277 2327.0 1
-154.62234 -341.79684 2343.0 1
-57.355137 -344.13095 2359.0 1
-31.287756 -328.5218 2252.0 1
-7.721249 -324.29126 2223.0 1
15.150738 -318.1643 2181.0 1
37.633568 -316.12198 2167.0 1
59.824635 -314.07965 2153.0 1
81.26561 -310.28677 2127.0 1
103.42889 -310.28677 2127.0 1
124.82471 -308.39035 2114.0 1
146.85252 -308.39035 2114.0 1
169.91888 -310.28677 2127.0 1
194.43028 -314.07965 2153.0 1
218.27466 -316.12198 2167.0 1
243.85583 -320.06073 2194.0 1
270.2427 -324.29126 2223.0 1
293.40628 -324.29126 2223.0 1
333.65884 -341.79684 2343.0 1
358.07285 -341.79684 2343.0 1
379.87506 -339.46277 2327.0 1
391.09732 -328.5218 2252.0 1
-227.86458 -366.2109 2343.0 1
-203.4505 -366.2109 2343.0 1
-179.03642 -366.2109 2343.0 1
-154.62234 -366.2109 2343.0 1
-56.57711 -363.71008 2327.0 1
-31.482264 -354.17578 2266.0 1
-7.669149 -345.11038 2208.0 1
15.241045 -342.92218 2194.0 1
37.633568 -338.7021 2167.0 1
59.824635 -336.5139 2153.0 1
81.76229 -334.482 2140.0 1
104.061035 -334.482 2140.0 1
126.359924 -334.482 2140.0 1
147.7556 -332.4501 2127.0 1
170.95741 -334.482 2140.0 1
195.69456 -338.7021 2167.0 1
220.99428 -342.92218 2194.0 1
245.4119 -345.11038 2208.0 1
270.2427 -347.4549 2223.0 1
307.1329 -363.71008 2327.0 1
338.35828 -371.3688 2376.0 1
358.07285 -366.2109 2343.0 1
382.487 -366.2109 2343.0 1
-254.00142 -393.29245 2359.0 1
-229.42062 -393.29245 2359.0 1
-202.06116 -387.9574 2327.0 1
-179.03642 -390.62494 2343.0 1
-56.96612 -390.62494 2343.0 1
-31.482264 -377.78748 2266.0 1
-7.669149 -368.11774 2208.0 1
15.241045 -365.78366 2194.0 1
37.633568 -361.28223 2167.0 1
59.824635 -358.94812 2153.0 1
82.25898 -358.94812 2153.0 1
104.693184 -358.94812 2153.0 1
127.127525 -358.94812 2153.0 1
149.56174 -358.94812 2153.0 1
171.99593 -358.94812 2153.0 1
195.69456 -361.28223 2167.0 1
222.40445 -368.11774 2208.0 1
245.4119 -368.11774 2208.0 1
271.94464 -372.9526 2237.0 1
301.06152 -380.2883 2281.0 1
335.93735 -393.29245 2359.0 1
360.51807 -393.29245 2359.0 1
382.487 -390.62494 2343.0 1
-250.55588 -412.2047 2327.0 1
-227.86458 -415.03897 2343.0 1
-202.06116 -412.2047 2327.0 1
-177.81381 -412.2047 2327.0 1
-56.57711 -412.2047 2327.0 1
-31.482264 -401.3992 2266.0 1
-7.721249 -393.78217 2223.0 1
15.338298 -391.12506 2208.0 1
37.876698 -386.3423 2181.0 1
60.21365 -383.86234 2167.0 1
82.79388 -383.86234 2167.0 1
105.373955 -383.86234 2167.0 1
127.127525 -381.3824 2153.0 1
150.53427 -383.86234 2167.0 1
173.11435 -383.86234 2167.0 1
198.13286 -388.6451 2194.0 1
222.40445 -391.12506 2208.0 1
247.0791 -393.78217 2223.0 1
275.47006 -401.3992 2266.0 1
297.23392 -398.91922 2252.0 1
338.35828 -420.88458 2376.0 1
363.11612 -420.88458 2376.0 1
387.87415 -420.88458 2376.0 1
-278.58212 -442.45407 2359.0 1
-250.55588 -436.45215 2327.0 1
-226.30852 -436.45215 2327.0 1
-56.21241 -433.63876 2312.0 1
-31.690662 -427.8244 2281.0 1
-7.821976 -422.38516 2252.0 1
15.442498 -416.94592 2223.0 1
38.102467 -411.50668 2194.0 1
60.60266 -409.0684 2181.0 1
82.79388 -406.44257 2167.0 1
105.373955 -406.44257 2167.0 1
127.954185 -406.44257 2167.0 1
150.53427 -406.44257 2167.0 1
173.11435 -406.44257 2167.0 1
198.13286 -411.50668 2194.0 1
222.40445 -414.1325 2208.0 1
247.0791 -416.94592 2223.0 1
275.47006 -425.011 2266.0 1
307.1329 -436.45215 2327.0 1
340.63678 -448.64355 2392.0 1
365.56134 -448.64355 2392.0 1
387.87415 -445.6426 2376.0 1
-276.69266 -463.86716 2343.0 1
-250.55588 -460.69946 2327.0 1
-226.30852 -460.69946 2327.0 1
-83.08213 -473.56818 2392.0 1
-56.57711 -460.69946 2327.0 1
-31.912956 -454.76007 2297.0 1
-7.870603 -448.62268 2266.0 1
15.539752 -442.8813 2237.0 1
38.3456 -437.13986 2208.0 1
60.963886 -434.36813 2194.0 1
83.328766 -431.7944 2181.0 1
105.373955 -429.02267 2167.0 1
127.954185 -429.02267 2167.0 1
151.50679 -431.7944 2181.0 1
175.27129 -434.36813 2194.0 1
199.39714 -437.13986 2208.0 1
223.91534 -440.10956 2223.0 1
248.63515 -442.8813 2237.0 1
275.47006 -448.62268 2266.0 1
343.05768 -476.93384 2409.0 1
365.56134 -473.56818 2392.0 1
390.48608 -473.56818 2392.0 1
-276.69266 -488.2812 2343.0 1
-250.55588 -484.94678 2327.0 1
-83.08213 -498.4928 2392.0 1
-56.96612 -488.2812 2343.0 1
-32.121357 -481.8208 2312.0 1
-7.9227033 -475.36038 2281.0 1
15.741206 -472.2344 2266.0 1
39.109734 -469.3168 2252.0 1
61.7697 -463.2732 2223.0 1
83.825455 -457.22958 2194.0 1
106.686874 -457.22958 2194.0 1
129.54845 -457.22958 2194.0 1
153.3824 -460.1472 2208.0 1
176.3897 -460.1472 2208.0 1
200.75174 -463.2732 2223.0 1
225.32552 -466.1908 2237.0 1
248.63515 -466.1908 2237.0 1
275.47006 -472.2344 2266.0 1
343.05768 -502.03558 2409.0 1
365.56134 -498.4928 2392.0 1
390.48608 -498.4928 2392.0 1
-299.0505 -509.19412 2327.0 1
-274.80316 -509.19412 2327.0 1
-250.55588 -509.19412 2327.0 1
-83.08213 -523.4174 2392.0 1
-56.96612 -512.69525 2343.0 1
-32.329754 -509.19412 2327.0 1
-7.9782767 -502.62952 2297.0 1
15.845407 -499.1284 2281.0 1
39.352867 -495.8461 2266.0 1
62.158714 -489.5003 2237.0 1
84.93345 -486.43683 2223.0 1
108.097046 -486.43683 2223.0 1
130.37509 -483.15454 2208.0 1
153.3824 -483.15454 2208.0 1
177.588 -486.43683 2223.0 1
200.75174 -486.43683 2223.0 1
225.32552 -489.5003 2237.0 1
250.30235 -492.78262 2252.0 1
275.47006 -495.8461 2266.0 1
345.4786 -530.8573 2426.0 1
368.1594 -527.1373 2409.0 1
387.87415 -519.91626 2376.0 1
-299.0505 -533.4414 2327.0 1
-274.80316 -533.4414 2327.0 1
-248.94077 -530.0028 2312.0 1
-224.84972 -530.0028 2312.0 1
-82.5264 -544.6742 2376.0 1
-56.96612 -537.10925 2343.0 1
-32.329754 -533.4414 2327.0 1
-8.030377 -530.0028 2312.0 1
16.060755 -530.0028 2312.0 1
39.352867 -519.45776 2266.0 1
62.575512 -516.2484 2252.0 1
85.46834 -512.8098 2237.0 1
108.097046 -509.60046 2223.0 1
131.2608 -509.60046 2223.0 1
154.4244 -509.60046 2223.0 1
177.588 -509.60046 2223.0 1
200.75174 -509.60046 2223.0 1
225.32552 -512.8098 2237.0 1
251.8584 -519.45776 2266.0 1
277.29355 -522.89636 2281.0 1
324.68713 -563.93036 2460.0 1
347.8995 -560.03326 2443.0 1
370.75745 -556.13617 2426.0 1
-299.0505 -557.68884 2327.0 1
-276.69266 -561.52344 2343.0 1
-248.94077 -554.09393 2312.0 1
-57.355137 -565.358 2359.0 1
-32.329754 -557.68884 2327.0 1
-8.030377 -554.09393 2312.0 1
15.956553 -550.4991 2297.0 1
39.352867 -543.0696 2266.0 1
62.964527 -543.0696 2266.0 1
86.57633 -543.0696 2266.0 1
108.777824 -536.11945 2237.0 1
132.08745 -536.11945 2237.0 1
154.4244 -532.7642 2223.0 1
178.7064 -536.11945 2237.0 1
202.01604 -536.11945 2237.0 1
225.32552 -536.11945 2237.0 1
251.8584 -543.0696 2266.0 1
277.29355 -546.6645 2281.0 1
324.68713 -589.56366 2460.0 1
347.8995 -585.48944 2443.0 1
373.3555 -585.48944 2443.0 1
-301.10672 -585.93744 2343.0 1
-280.58972 -594.19006 2376.0 1
-250.55588 -581.93616 2327.0 1
-58.157475 -598.19135 2392.0 1
-32.552048 -585.93744 2343.0 1
-8.030377 -578.185 2312.0 1
16.060755 -578.185 2312.0 1
39.613365 -570.4325 2281.0 1
62.964527 -566.6813 2266.0 1
86.57633 -566.6813 2266.0 1
109.507225 -563.1802 2252.0 1
131.2608 -555.92786 2223.0 1
154.4244 -555.92786 2223.0 1
177.588 -555.92786 2223.0 1
202.01604 -559.42896 2237.0 1
225.32552 -559.42896 2237.0 1
250.30235 -563.1802 2252.0 1
277.29355 -570.4325 2281.0 1
324.68713 -615.19684 2460.0 1
350.32043 -615.19684 2460.0 1
375.95355 -615.19684 2460.0 1
-276.69266 -610.3515 2343.0 1
-250.55588 -606.1835 2327.0 1
-86.0692 -645.519 2478.0 1
-58.157475 -623.11597 2392.0 1
-32.77434 -614.5195 2359.0 1
-8.082478 -606.1835 2327.0 1
16.164955 -606.1835 2327.0 1
39.89123 -598.36847 2297.0 1
62.964527 -590.29297 2266.0 1
86.57633 -590.29297 2266.0 1
109.507225 -586.646 2252.0 1
132.08745 -582.73846 2237.0 1
155.39693 -582.73846 2237.0 1
177.588 -579.0915 2223.0 1
202.01604 -582.73846 2237.0 1
223.91534 -579.0915 2223.0 1
250.30235 -586.646 2252.0 1
277.29355 -594.2005 2281.0 1
327.0629 -645.519 2478.0 1
350.32043 -640.83 2460.0 1
-58.157475 -648.0406 2392.0 1
-33.01053 -643.7059 2376.0 1
-8.252671 -643.7059 2376.0 1
16.387249 -639.1002 2359.0 1
40.41223 -630.4308 2327.0 1
63.825912 -622.3032 2297.0 1
86.57633 -613.90466 2266.0 1
109.507225 -610.1118 2252.0 1
131.2608 -602.2551 2223.0 1
154.4244 -602.2551 2223.0 1
177.588 -602.2551 2223.0 1
200.75174 -602.2551 2223.0 1
223.91534 -602.2551 2223.0 1
251.8584 -613.90466 2266.0 1
279.23862 -622.3032 2297.0 1
-59.397457 -687.31354 2443.0 1
-33.469006 -677.748 2409.0 1
-8.308245 -672.9652 2392.0 1
16.734583 -677.748 2409.0 1
41.541065 -672.9652 2392.0 1
66.465645 -672.9652 2392.0 1
87.76074 -646.2379 2297.0 1
110.187996 -637.51636 2266.0 1
132.08745 -629.35754 2237.0 1
154.4244 -625.41876 2223.0 1
177.588 -625.41876 2223.0 1
200.75174 -625.41876 2223.0 1
225.32552 -629.35754 2237.0 1
251.8584 -637.51636 2266.0 1
-60.24842 -722.9813 2478.0 1
-34.177567 -717.7296 2460.0 1
-8.426338 -707.8098 2426.0 1
16.970772 -712.7697 2443.0 1
42.722 -717.7296 2460.0 1
68.35513 -717.7296 2460.0 1
89.51825 -683.5937 2343.0 1
109.507225 -657.0436 2252.0 1
131.2608 -648.5825 2223.0 1
154.4244 -648.5825 2223.0 1
177.588 -648.5825 2223.0 1
200.75174 -648.5825 2223.0 1
226.83643 -657.0436 2252.0 1
248.63515 -652.6672 2237.0 1
-61.123703 -759.68054 2514.0 1
-34.677727 -754.2413 2496.0 1
-8.544433 -743.3628 2460.0 1
17.088865 -743.3628 2460.0 1
43.0346 -748.80206 2478.0 1
69.85561 -759.68054 2514.0 1
88.906944 -703.17285 2327.0 1
110.187996 -684.73987 2266.0 1
132.08745 -675.9767 2237.0 1
154.4244 -671.74615 2223.0 1
177.588 -671.74615 2223.0 1
200.75174 -671.74615 2223.0 1
225.32552 -675.9767 2237.0 1
251.8584 -684.73987 2266.0 1
-34.927807 -785.8764 2514.0 1
-8.669473 -780.2496 2496.0 1
17.463985 -785.8764 2514.0 1
43.9724 -791.5032 2532.0 1
70.88372 -797.44257 2551.0 1
88.906944 -727.42017 2327.0 1
110.9174 -713.0406 2281.0 1
132.08745 -699.2862 2237.0 1
154.4244 -694.9098 2223.0 1
177.588 -694.9098 2223.0 1
200.75174 -694.9098 2223.0 1
228.2466 -708.35156 2266.0 1
251.8584 -708.35156 2266.0 1
-62.023296 -824.024 2551.0 1
-35.177887 -817.8866 2532.0 1
-8.794514 -817.8866 2532.0 1
17.721014 -824.024 2551.0 1
44.9623 -836.29877 2589.0 1
72.495346 -842.75916 2609.0 1
88.906944 -751.6675 2327.0 1
110.9174 -736.8086 2281.0 1
133.7998 -731.96326 2266.0 1
155.39693 -722.5957 2237.0 1
177.588 -718.0734 2223.0 1
202.01604 -722.5957 2237.0 1
228.2466 -731.96326 2266.0 1
-35.705833 -856.94073 2570.0 1
-9.061961 -869.9449 2609.0 1
18.262856 -876.6137 2629.0 1
45.656967 -876.6137 2629.0 1
74.162544 -889.9513 2669.0 1
88.33384 -770.9132 2312.0 1
110.187996 -755.57495 2266.0 1
132.97314 -750.9068 2252.0 1
156.43893 -750.9068 2252.0 1
178.7064 -745.9052 2237.0 1
203.37064 -750.9068 2252.0 1
229.75749 -760.5766 2281.0 1
-9.343302 -924.98346 2690.0 1
18.832485 -932.20447 2711.0 1
47.08103 -932.20447 2711.0 1
75.32958 -932.20447 2711.0 1
88.33384 -795.00433 2312.0 1
110.187996 -779.18677 2266.0 1
133.7998 -779.18677 2266.0 1
156.43893 -774.37274 2252.0 1
178.7064 -769.21484 2237.0 1
204.63493 -779.18677 2266.0 1
231.36913 -789.84644 2297.0 1
19.603567 -999.7782 2822.0 1
47.8278 -975.68713 2754.0 1
76.52441 -975.68713 2754.0 1
88.33384 -819.0954 2312.0 1
110.9174 -808.1127 2281.0 1
133.7998 -802.79846 2266.0 1
157.41147 -802.79846 2266.0 1
179.90471 -797.83856 2252.0 1
204.63493 -802.79846 2266.0 1
-10.218585 -1072.9474 2942.0 1
19.930063 -1046.3243 2869.0 1
48.6093 -1020.7953 2799.0 1
77.7748 -1020.7953 2799.0 1
88.906944 -848.65686 2327.0 1
111.69542 -837.7159 2297.0 1
133.7998 -826.41016 2266.0 1
157.41147 -826.41016 2266.0 1
181.02312 -826.41016 2266.0 1
205.98953 -831.8807 2281.0 1
-10.395726 -1122.7341 2993.0 1
20.096783 -1085.2222 2893.0 1
49.408165 -1067.2163 2845.0 1
79.052986 -1067.2163 2845.0 1
88.33384 -867.2774 2312.0 1
110.9174 -855.6487 2281.0 1
134.6855 -855.6487 2281.0 1
158.45346 -855.6487 2281.0 1
182.22142 -855.6487 2281.0 1
207.43443 -861.6506 2297.0 1
20.096783 -1115.3672 2893.0 1
50.241764 -1115.3672 2893.0 1
66.02106 -916.04297 2376.0 1
88.906944 -897.1515 2327.0 1
110.9174 -879.4167 2281.0 1
134.6855 -879.4167 2281.0 1
158.45346 -879.4167 2281.0 1
182.22142 -879.4167 2281.0 1
207.43443 -885.5853 2297.0 1
20.263504 -1155.0154 2917.0 1
50.241764 -1145.5123 2893.0 1
65.104095 -927.7343 2343.0 1
88.906944 -921.3989 2327.0 1
111.69542 -909.52014 2297.0 1
133.7998 -897.24536 2266.0 1
157.41147 -897.24536 2266.0 1
183.4996 -909.52014 2297.0 1
208.78905 -915.45953 2312.0 1
-10.048391 -1175.6573 2893.0 1
20.096783 -1175.6573 2893.0 1
51.09273 -1195.57 2942.0 1
89.51825 -952.1483 2343.0 1
111.69542 -933.4549 2297.0 1
134.6855 -926.95276 2281.0 1
158.45346 -926.95276 2281.0 1
183.4996 -933.4549 2297.0 1
207.43443 -933.4549 2297.0 1
