ply
format ascii 1.0
comment : created from Kinect user tracker
element vertex 711
property float x
property float y
property float z
property int userId
end_header
323.80838 201.61656 1759.0 1
340.3867 200.58498 1750.0 1
356.77728 199.5534 1741.0 1
303.91666 182.34999 1750.0 1
318.83804 180.4744 1732.0 1
336.88556 180.4744 1732.0 1
353.08862 179.53659 1723.0 1
369.31958 178.703 1715.0 1
393.05975 181.4122 1741.0 1
287.15094 164.95903 1759.0 1
302.35367 163.271 1741.0 1
317.18127 161.58295 1723.0 1
333.57895 160.83272 1715.0 1
349.60486 159.9887 1706.0 1
367.38144 159.9887 1706.0 1
383.3518 159.23845 1698.0 1
401.04492 159.23845 1698.0 1
420.711 159.9887 1706.0 1
445.17017 162.42697 1732.0 1
477.6598 167.49109 1786.0 1
493.76904 166.64708 1777.0 1
271.57297 148.1307 1777.0 1
288.62015 147.38046 1768.0 1
300.79065 144.3795 1732.0 1
317.18127 143.62927 1723.0 1
333.57895 142.96239 1715.0 1
351.44922 142.96239 1715.0 1
365.6587 141.54527 1698.0 1
383.3518 141.54527 1698.0 1
399.15543 140.87839 1690.0 1
418.73813 141.54527 1698.0 1
438.48746 142.21214 1706.0 1
456.26404 142.21214 1706.0 1
481.26505 144.3795 1732.0 1
501.90704 145.12975 1741.0 1
270.1975 128.95793 1768.0 1
284.2125 126.98855 1741.0 1
299.22766 125.67563 1723.0 1
315.7086 125.09211 1715.0 1
330.27234 123.85213 1698.0 1
347.96545 123.85213 1698.0 1
363.9359 123.26861 1690.0 1
381.54565 123.26861 1690.0 1
397.02972 122.612144 1681.0 1
414.5458 122.612144 1681.0 1
438.48746 124.435646 1706.0 1
454.12448 123.85213 1698.0 1
474.04053 124.435646 1706.0 1
504.50162 127.645004 1750.0 1
256.90164 112.78606 1804.0 1
268.82208 109.972664 1759.0 1
284.2125 108.8473 1741.0 1
299.22766 107.72194 1723.0 1
315.7086 107.22178 1715.0 1
330.27234 106.15894 1698.0 1
346.32605 105.65878 1690.0 1
363.9359 105.65878 1690.0 1
383.3518 106.15894 1698.0 1
399.15543 105.65878 1690.0 1
414.5458 105.0961 1681.0 1
438.48746 106.6591 1706.0 1
458.67108 107.22178 1715.0 1
498.77066 112.22338 1795.0 1
255.61998 93.5195 1795.0 1
268.82208 91.6439 1759.0 1
284.2125 90.7061 1741.0 1
299.22766 89.768295 1723.0 1
314.0518 88.8826 1706.0 1
330.27234 88.4658 1698.0 1
347.96545 88.4658 1698.0 1
363.9359 88.048996 1690.0 1
381.54565 88.048996 1690.0 1
401.04492 88.4658 1698.0 1
416.7653 88.048996 1690.0 1
445.17017 90.2372 1732.0 1
468.0317 91.174995 1750.0 1
238.1039 75.190735 1804.0 1
253.05667 74.06538 1777.0 1
267.44662 72.94002 1750.0 1
282.74326 72.18977 1732.0 1
297.83832 71.48122 1715.0 1
315.7086 71.48122 1715.0 1
330.27234 70.77266 1698.0 1
346.32605 70.43922 1690.0 1
361.99777 70.064095 1681.0 1
383.3518 70.77266 1698.0 1
402.9344 71.106094 1706.0 1
420.711 71.106094 1706.0 1
447.4834 72.564896 1741.0 1
470.43872 73.31514 1759.0 1
250.49335 54.986332 1759.0 1
267.44662 54.70499 1750.0 1
282.74326 54.14231 1732.0 1
299.22766 53.86097 1723.0 1
317.18127 53.86097 1723.0 1
333.57895 53.61089 1715.0 1
347.96545 53.07947 1698.0 1
361.99777 52.54805 1681.0 1
383.3518 53.07947 1698.0 1
402.9344 53.32955 1706.0 1
424.9033 53.86097 1723.0 1
449.79663 54.70499 1750.0 1
480.0668 56.11169 1795.0 1
250.49335 36.65757 1759.0 1
266.0712 36.282448 1741.0 1
282.74326 36.094887 1732.0 1
299.22766 35.90733 1723.0 1
314.0518 35.553047 1706.0 1
330.27234 35.38633 1698.0 1
349.60486 35.553047 1706.0 1
363.9359 35.21961 1690.0 1
383.3518 35.38633 1698.0 1
406.9496 35.90733 1723.0 1
429.34222 36.282448 1741.0 1
459.0496 37.22025 1786.0 1
482.47382 37.595367 1804.0 1
498.77066 37.407806 1795.0 1
236.91602 18.703882 1795.0 1
253.05667 18.516321 1777.0 1
268.82208 18.328762 1759.0 1
285.6817 18.234982 1750.0 1
300.79065 18.047422 1732.0 1
317.18127 17.953642 1723.0 1
333.57895 17.870283 1715.0 1
353.08862 17.953642 1723.0 1
369.31958 17.870283 1715.0 1
388.99597 17.953642 1723.0 1
411.20093 18.141203 1741.0 1
436.0006 18.422543 1768.0 1
459.0496 18.610102 1786.0 1
482.47382 18.79766 1804.0 1
251.77501 0.0 1768.0 1
268.82208 0.0 1759.0 1
287.15094 0.0 1759.0 1
300.79065 0.0 1732.0 1
317.18127 0.0 1723.0 1
333.57895 0.0 1715.0 1
353.08862 0.0 1723.0 1
372.98047 0.0 1732.0 1
395.09164 0.0 1750.0 1
417.57797 0.0 1768.0 1
438.22006 0.0 1777.0 1
463.6761 0.0 1804.0 1
230.24727 -19.73546 1894.0 1
248.53084 -19.62084 1883.0 1
259.7498 -19.006062 1824.0 1
275.69928 -18.79766 1804.0 1
288.62015 -18.422543 1768.0 1
302.35367 -18.141203 1741.0 1
317.18127 -17.953642 1723.0 1
336.88556 -18.047422 1732.0 1
364.15466 -18.516321 1777.0 1
382.67108 -18.516321 1777.0 1
401.18735 -18.516321 1777.0 1
421.82935 -18.610102 1786.0 1
442.659 -18.703882 1795.0 1
200.64749 -41.51324 1992.0 1
212.84592 -39.90856 1915.0 1
227.69437 -39.033283 1873.0 1
241.9315 -38.199684 1833.0 1
258.3257 -37.803722 1814.0 1
275.69928 -37.59532 1804.0 1
293.0278 -37.407764 1795.0 1
308.60565 -37.032642 1777.0 1
325.46518 -36.845085 1768.0 1
349.1395 -37.407764 1795.0 1
367.84332 -37.407764 1795.0 1
386.5473 -37.407764 1795.0 1
403.21927 -37.220203 1786.0 1
426.0807 -37.59532 1804.0 1
449.81058 -38.012123 1824.0 1
179.8909 -62.26996 1992.0 1
195.00679 -60.519398 1936.0 1
210.51183 -59.20648 1894.0 1
224.04736 -57.612217 1843.0 1
238.1039 -56.393074 1804.0 1
254.33833 -55.830395 1786.0 1
272.9484 -55.830395 1786.0 1
290.08936 -55.549053 1777.0 1
308.60565 -55.549053 1777.0 1
330.43552 -56.111736 1795.0 1
350.89005 -56.393074 1804.0 1
371.73694 -56.705673 1814.0 1
392.79236 -57.018276 1824.0 1
177.81384 -82.06794 1969.0 1
191.78354 -79.358734 1904.0 1
207.06628 -77.64986 1863.0 1
220.52193 -75.60754 1814.0 1
234.54025 -74.06538 1777.0 1
251.77501 -73.690254 1768.0 1
267.44662 -72.94002 1750.0 1
287.15094 -73.31514 1759.0 1
307.04266 -73.690254 1768.0 1
330.43552 -74.81561 1795.0 1
350.89005 -75.190735 1804.0 1
371.73694 -75.60754 1814.0 1
157.2968 -102.5849 1969.0 1
173.84036 -100.292496 1925.0 1
190.77628 -98.6774 1894.0 1
204.84335 -96.0203 1843.0 1
217.11806 -93.0506 1786.0 1
232.16449 -91.6439 1759.0 1
247.93002 -90.7061 1741.0 1
264.69577 -90.2372 1732.0 1
282.74326 -90.2372 1732.0 1
305.47968 -91.6439 1759.0 1
327.12195 -92.581696 1777.0 1
349.1395 -93.5195 1795.0 1
155.53929 -121.72642 1947.0 1
172.93729 -119.72578 1915.0 1
188.66103 -117.09994 1873.0 1
200.50864 -112.78606 1804.0 1
213.83577 -109.972664 1759.0 1
229.78874 -108.8473 1741.0 1
246.64836 -108.28462 1732.0 1
263.3203 -107.72194 1723.0 1
281.27405 -107.72194 1723.0 1
300.79065 -108.28462 1732.0 1
323.80838 -109.972664 1759.0 1
349.1395 -112.22338 1795.0 1
369.68768 -112.78606 1804.0 1
156.41805 -142.81648 1958.0 1
171.04085 -138.14832 1894.0 1
188.66103 -136.61658 1873.0 1
197.50768 -129.61435 1777.0 1
212.74167 -127.644966 1750.0 1
227.41298 -125.67558 1723.0 1
244.22745 -125.092064 1715.0 1
259.49966 -123.85208 1698.0 1
277.19287 -123.85208 1698.0 1
296.27533 -124.4356 1706.0 1
317.18127 -125.67558 1723.0 1
342.13724 -128.30142 1759.0 1
367.84332 -130.92726 1795.0 1
156.41805 -163.21892 1958.0 1
171.04085 -157.88388 1894.0 1
181.71088 -150.38147 1804.0 1
195.50703 -146.63028 1759.0 1
210.55347 -144.37955 1732.0 1
226.35709 -142.96243 1715.0 1
241.80653 -141.54532 1698.0 1
258.27704 -140.87843 1690.0 1
273.11172 -139.4613 1673.0 1
290.54434 -139.4613 1673.0 1
309.44965 -140.12819 1681.0 1
336.88556 -144.37955 1732.0 1
367.84332 -149.63123 1795.0 1
390.6389 -151.21507 1814.0 1
154.66054 -181.55809 1936.0 1
171.04085 -177.61934 1894.0 1
179.8978 -167.49109 1786.0 1
194.50671 -164.11502 1750.0 1
209.45937 -161.58295 1723.0 1
224.11331 -159.23845 1698.0 1
239.38562 -157.6442 1681.0 1
255.67899 -156.89395 1673.0 1
271.80573 -156.1437 1665.0 1
287.76566 -155.39348 1657.0 1
306.50424 -156.1437 1665.0 1
328.71628 -158.48822 1690.0 1
364.15466 -166.64708 1777.0 1
388.4854 -169.17914 1804.0 1
136.77986 -205.1698 1969.0 1
153.78178 -200.58499 1925.0 1
170.04747 -196.2086 1883.0 1
178.99126 -185.16339 1777.0 1
192.50607 -180.4744 1732.0 1
207.39273 -177.7652 1706.0 1
223.05742 -176.09799 1690.0 1
238.24637 -174.3266 1673.0 1
254.45638 -173.493 1665.0 1
270.49976 -172.6594 1657.0 1
287.76566 -172.6594 1657.0 1
305.03156 -172.6594 1657.0 1
326.96573 -175.1602 1681.0 1
347.96545 -176.9316 1698.0 1
388.4854 -187.97679 1804.0 1
136.77986 -225.68675 1969.0 1
154.66054 -221.9043 1936.0 1
171.94391 -218.23645 1904.0 1
177.17818 -201.61656 1759.0 1
191.50575 -197.49023 1723.0 1
205.44766 -193.70778 1690.0 1
221.86954 -192.6762 1681.0 1
237.10712 -190.84229 1665.0 1
253.23376 -189.92532 1657.0 1
270.49976 -189.92532 1657.0 1
287.76566 -189.92532 1657.0 1
305.03156 -189.92532 1657.0 1
326.96573 -192.6762 1681.0 1
347.96545 -194.62474 1698.0 1
378.79483 -201.61656 1759.0 1
413.8303 -210.09843 1833.0 1
135.2516 -243.45284 1947.0 1
152.98291 -239.45155 1915.0 1
162.91325 -225.57211 1804.0 1
177.17818 -219.94533 1759.0 1
189.61626 -213.3182 1706.0 1
205.44766 -211.31757 1690.0 1
219.75775 -208.19156 1665.0 1
237.10712 -208.19156 1665.0 1
253.23376 -207.19124 1657.0 1
269.1938 -206.19092 1649.0 1
287.76566 -207.19124 1657.0 1
305.03156 -207.19124 1657.0 1
326.96573 -210.1922 1681.0 1
351.44922 -214.44356 1715.0 1
380.73294 -221.07068 1768.0 1
407.28305 -225.57211 1804.0 1
152.10416 -257.91586 1904.0 1
162.91325 -244.36987 1804.0 1
177.17818 -238.27417 1759.0 1
190.61658 -232.31393 1715.0 1
205.44766 -228.92743 1690.0 1
220.81364 -226.6246 1673.0 1
235.96786 -224.45724 1657.0 1
252.01115 -223.37357 1649.0 1
269.1938 -223.37357 1649.0 1
287.76566 -224.45724 1657.0 1
306.50424 -225.54092 1665.0 1
326.96573 -227.70828 1681.0 1
353.08862 -233.39761 1723.0 1
378.79483 -238.27417 1759.0 1
407.28305 -244.36987 1804.0 1
428.44257 -245.72447 1814.0 1
150.42654 -274.69205 1883.0 1
162.1005 -261.8546 1795.0 1
177.17818 -256.60294 1759.0 1
191.50575 -251.35126 1723.0 1
204.35356 -245.22429 1681.0 1
220.81364 -244.05725 1673.0 1
237.10712 -242.89021 1665.0 1
252.01115 -240.55614 1649.0 1
270.49976 -241.72318 1657.0 1
289.155 -242.89021 1665.0 1
306.50424 -242.89021 1665.0 1
328.71628 -246.53722 1690.0 1
353.08862 -251.35126 1723.0 1
378.79483 -256.60294 1759.0 1
409.54074 -264.62634 1814.0 1
437.65384 -270.31564 1853.0 1
133.02867 -299.31448 1915.0 1
149.62767 -292.7499 1873.0 1
162.1005 -280.5585 1795.0 1
178.08472 -276.3384 1768.0 1
190.61658 -268.0545 1715.0 1
204.35356 -262.7403 1681.0 1
219.75775 -260.2395 1665.0 1
237.10712 -260.2395 1665.0 1
253.23376 -258.9891 1657.0 1
271.80573 -260.2395 1665.0 1
289.155 -260.2395 1665.0 1
306.50424 -260.2395 1665.0 1
333.57895 -268.0545 1715.0 1
358.62164 -273.525 1750.0 1
380.73294 -276.3384 1768.0 1
409.54074 -283.5282 1814.0 1
435.29196 -288.06088 1843.0 1
131.56987 -315.76767 1894.0 1
147.23108 -307.26492 1843.0 1
162.1005 -299.2624 1795.0 1
178.99126 -296.2614 1777.0 1
189.61626 -284.4243 1706.0 1
203.38103 -278.92255 1673.0 1
219.75775 -277.58878 1665.0 1
237.10712 -277.58878 1665.0 1
254.45638 -277.58878 1665.0 1
271.80573 -277.58878 1665.0 1
289.155 -277.58878 1665.0 1
307.97693 -278.92255 1673.0 1
336.88556 -288.759 1732.0 1
362.3103 -294.76093 1768.0 1
384.6092 -297.7619 1786.0 1
409.54074 -302.43005 1814.0 1
131.56987 -335.5031 1894.0 1
147.23108 -326.46896 1843.0 1
162.91325 -319.56052 1804.0 1
179.8978 -316.372 1786.0 1
187.8379 -299.36655 1690.0 1
203.38103 -296.3552 1673.0 1
219.75775 -294.93805 1665.0 1
237.10712 -294.93805 1665.0 1
253.23376 -293.52094 1657.0 1
271.80573 -294.93805 1665.0 1
289.155 -294.93805 1665.0 1
309.44965 -297.7723 1681.0 1
343.88782 -313.18347 1768.0 1
365.999 -316.372 1786.0 1
388.4854 -319.56052 1804.0 1
130.80573 -353.1755 1883.0 1
146.4322 -343.79752 1833.0 1
163.81631 -340.23386 1814.0 1
181.71088 -338.35828 1804.0 1
187.8379 -316.97644 1690.0 1
203.38103 -313.7879 1673.0 1
219.75775 -312.2874 1665.0 1
237.10712 -312.2874 1665.0 1
253.23376 -310.78696 1657.0 1
271.80573 -312.2874 1665.0 1
289.155 -312.2874 1665.0 1
306.50424 -312.2874 1665.0 1
347.38892 -334.98218 1786.0 1
369.68768 -338.35828 1804.0 1
394.73047 -343.79752 1833.0 1
111.834435 -374.97412 1894.0 1
130.80573 -372.79636 1883.0 1
147.23108 -364.87717 1843.0 1
164.71938 -361.11554 1824.0 1
182.71814 -359.13574 1814.0 1
187.8379 -334.5862 1690.0 1
203.38103 -331.22055 1673.0 1
219.75775 -329.63672 1665.0 1
235.96786 -328.05286 1657.0 1
253.23376 -328.05286 1657.0 1
270.49976 -328.05286 1657.0 1
289.155 -329.63672 1665.0 1
307.97693 -331.22055 1673.0 1
350.89005 -357.15594 1804.0 1
377.6798 -364.87717 1843.0 1
403.34436 -370.81656 1873.0 1
130.11107 -390.3332 1873.0 1
148.02994 -386.1652 1853.0 1
165.53214 -381.9972 1833.0 1
184.63196 -381.9972 1833.0 1
187.8379 -352.19598 1690.0 1
203.38103 -348.6532 1673.0 1
220.81364 -348.6532 1673.0 1
237.10712 -346.986 1665.0 1
255.67899 -348.6532 1673.0 1
273.11172 -348.6532 1673.0 1
287.76566 -345.3188 1657.0 1
333.93317 -378.0376 1814.0 1
356.53073 -381.9972 1833.0 1
379.7291 -386.1652 1853.0 1
405.4978 -392.4172 1883.0 1
113.07442 -419.04028 1915.0 1
130.80573 -412.03802 1883.0 1
149.62767 -409.84982 1873.0 1
166.43521 -403.28525 1843.0 1
184.63196 -401.09705 1833.0 1
186.83759 -367.8364 1681.0 1
203.38103 -366.08585 1673.0 1
220.81364 -366.08585 1673.0 1
238.24637 -366.08585 1673.0 1
256.9016 -367.8364 1681.0 1
277.19287 -371.55634 1698.0 1
315.03134 -396.93945 1814.0 1
333.93317 -396.93945 1814.0 1
356.53073 -401.09705 1833.0 1
381.77835 -407.66162 1863.0 1
405.4978 -412.03802 1883.0 1
121.10477 -470.1712 2051.0 1
137.54399 -453.89514 1980.0 1
152.10416 -436.4729 1904.0 1
169.14441 -429.3665 1873.0 1
168.51569 -383.5185 1673.0 1
186.83759 -385.3524 1681.0 1
203.38103 -383.5185 1673.0 1
220.81364 -383.5185 1673.0 1
238.24637 -383.5185 1673.0 1
256.9016 -385.3524 1681.0 1
274.4177 -385.3524 1681.0 1
316.768 -418.13373 1824.0 1
337.43082 -420.19687 1833.0 1
362.36594 -427.07407 1863.0 1
388.13107 -434.1805 1894.0 1
407.86664 -434.1805 1894.0 1
99.14974 -488.66678 2039.0 1
118.97909 -482.91492 2015.0 1
136.01573 -469.2543 1958.0 1
152.98291 -458.94894 1915.0 1
169.14441 -448.8832 1873.0 1
188.66103 -448.8832 1873.0 1
187.8379 -405.02542 1690.0 1
203.38103 -400.9512 1673.0 1
220.81364 -400.9512 1673.0 1
239.38562 -402.8685 1681.0 1
256.9016 -402.8685 1681.0 1
294.49704 -432.34668 1804.0 1
318.331 -439.2968 1833.0 1
339.27167 -441.69342 1843.0 1
364.311 -448.8832 1873.0 1
390.18033 -456.31268 1904.0 1
414.5424 -461.34552 1925.0 1
96.28077 -495.15842 1980.0 1
116.91245 -495.15842 1980.0 1
133.72333 -481.40402 1925.0 1
151.3053 -473.65152 1894.0 1
169.14441 -468.39984 1873.0 1
170.22804 -422.63522 1690.0 1
186.83759 -420.3845 1681.0 1
204.35356 -420.3845 1681.0 1
220.81364 -418.38385 1673.0 1
239.38562 -420.3845 1681.0 1
258.27704 -422.63522 1690.0 1
297.76196 -456.14594 1824.0 1
318.331 -458.39664 1833.0 1
341.11255 -463.39825 1853.0 1
364.311 -468.39984 1873.0 1
388.13107 -473.65152 1894.0 1
416.9112 -484.15488 1936.0 1
94.676094 -507.19348 1947.0 1
114.31439 -504.328 1936.0 1
133.02867 -498.85748 1915.0 1
150.42654 -490.52148 1883.0 1
169.14441 -487.9165 1873.0 1
170.22804 -440.245 1690.0 1
186.83759 -437.90048 1681.0 1
204.35356 -437.90048 1681.0 1
220.81364 -435.8165 1673.0 1
238.24637 -435.8165 1673.0 1
281.65952 -480.1015 1843.0 1
299.23117 -477.4965 1833.0 1
320.06766 -480.1015 1843.0 1
342.9534 -485.3115 1863.0 1
364.311 -487.9165 1873.0 1
390.18033 -495.992 1904.0 1
95.21098 -530.4613 1958.0 1
113.66488 -521.521 1925.0 1
131.56987 -513.12244 1894.0 1
150.42654 -510.14233 1883.0 1
168.24135 -504.72394 1863.0 1
169.3215 -455.4165 1681.0 1
186.83759 -455.4165 1681.0 1
203.38103 -453.24915 1673.0 1
219.75775 -451.0818 1665.0 1
237.10712 -451.0818 1665.0 1
281.65952 -499.30554 1843.0 1
300.86365 -499.30554 1843.0 1
321.80432 -502.01474 1853.0 1
344.79428 -507.43314 1873.0 1
368.39563 -513.12244 1894.0 1
97.399185 -563.524 2003.0 1
113.66488 -541.57947 1925.0 1
130.80573 -529.7632 1883.0 1
149.62767 -526.94977 1873.0 1
168.24135 -524.13635 1863.0 1
169.3215 -472.9325 1681.0 1
187.8379 -475.46457 1690.0 1
203.38103 -470.6818 1673.0 1
219.75775 -468.43106 1665.0 1
238.24637 -470.6818 1673.0 1
281.65952 -518.5096 1843.0 1
300.86365 -518.5096 1843.0 1
325.27765 -526.94977 1873.0 1
346.63513 -529.7632 1883.0 1
370.3407 -535.6713 1904.0 1
96.28077 -577.6848 1980.0 1
113.66488 -561.638 1925.0 1
130.80573 -549.3841 1883.0 1
149.62767 -546.4665 1873.0 1
168.24135 -543.5489 1863.0 1
170.22804 -493.07443 1690.0 1
187.8379 -493.07443 1690.0 1
203.38103 -488.1145 1673.0 1
219.75775 -485.78043 1665.0 1
237.10712 -485.78043 1665.0 1
254.45638 -485.78043 1665.0 1
305.76105 -546.4665 1873.0 1
327.0143 -549.3841 1883.0 1
348.6601 -552.59344 1894.0 1
380.8441 -571.2661 1958.0 1
95.21098 -591.66846 1958.0 1
113.66488 -581.69653 1925.0 1
133.02867 -578.6747 1915.0 1
150.42654 -569.00494 1883.0 1
169.14441 -565.98315 1873.0 1
186.64648 -559.9396 1853.0 1
186.83759 -507.9646 1681.0 1
202.4085 -503.1297 1665.0 1
219.75775 -503.1297 1665.0 1
237.10712 -503.1297 1665.0 1
254.45638 -503.1297 1665.0 1
305.76105 -565.98315 1873.0 1
327.0143 -569.00494 1883.0 1
352.5259 -578.6747 1915.0 1
95.21098 -612.0708 1958.0 1
114.31439 -605.1936 1936.0 1
133.02867 -598.62897 1915.0 1
150.42654 -588.6258 1883.0 1
169.14441 -585.4998 1873.0 1
188.66103 -585.4998 1873.0 1
186.83759 -525.4806 1681.0 1
203.38103 -522.9798 1673.0 1
219.75775 -520.479 1665.0 1
237.10712 -520.479 1665.0 1
254.45638 -520.479 1665.0 1
307.39352 -588.6258 1883.0 1
332.57166 -598.62897 1915.0 1
94.676094 -628.9199 1947.0 1
113.66488 -621.8135 1925.0 1
132.26453 -615.03 1904.0 1
150.42654 -608.24664 1883.0 1
170.04747 -608.24664 1883.0 1
189.66829 -608.24664 1883.0 1
186.83759 -542.9966 1681.0 1
203.38103 -540.4124 1673.0 1
219.75775 -537.82825 1665.0 1
237.10712 -537.82825 1665.0 1
255.67899 -540.4124 1673.0 1
312.6174 -618.58325 1915.0 1
336.21866 -625.3667 1936.0 1
375.35266 -658.63776 2039.0 1
94.676094 -649.20764 1947.0 1
113.66488 -641.87195 1925.0 1
132.26453 -634.8697 1904.0 1
150.42654 -627.8675 1883.0 1
170.04747 -627.8675 1883.0 1
188.66103 -624.5331 1873.0 1
209.28922 -627.8675 1883.0 1
204.35356 -560.5126 1681.0 1
220.81364 -557.8451 1673.0 1
237.10712 -555.17755 1665.0 1
254.45638 -555.17755 1665.0 1
275.8869 -563.51355 1690.0 1
341.94965 -656.54333 1969.0 1
417.14032 -755.57495 2266.0 1
96.28077 -680.84283 1980.0 1
113.66488 -661.93054 1925.0 1
133.02867 -658.49194 1915.0 1
150.42654 -647.4884 1883.0 1
170.04747 -647.4884 1883.0 1
188.66103 -644.0498 1873.0 1
209.28922 -647.4884 1883.0 1
204.35356 -578.0287 1681.0 1
220.81364 -575.27783 1673.0 1
238.24637 -575.27783 1673.0 1
255.67899 -575.27783 1673.0 1
273.11172 -575.27783 1673.0 1
386.061 -764.4008 2223.0 1
95.21098 -693.68024 1958.0 1
114.31439 -685.8861 1936.0 1
133.02867 -678.4462 1915.0 1
151.3053 -671.00635 1894.0 1
170.04747 -667.10925 1883.0 1
188.66103 -663.56647 1873.0 1
208.17775 -663.56647 1873.0 1
202.4085 -589.8762 1665.0 1
221.86954 -595.5447 1681.0 1
237.10712 -589.8762 1665.0 1
255.67899 -592.71045 1673.0 1
275.8869 -598.7332 1690.0 1
386.061 -787.56445 2223.0 1
96.86429 -726.48236 1992.0 1
114.31439 -706.0592 1936.0 1
133.02867 -698.4005 1915.0 1
151.3053 -690.74176 1894.0 1
170.04747 -686.7301 1883.0 1
188.66103 -683.08307 1873.0 1
208.17775 -683.08307 1873.0 1
227.69437 -683.08307 1873.0 1
220.81364 -610.14307 1673.0 1
238.24637 -610.14307 1673.0 1
255.67899 -610.14307 1673.0 1
275.8869 -616.343 1690.0 1
294.886 -619.26056 1698.0 1
97.399185 -751.36536 2003.0 1
114.96391 -730.3586 1947.0 1
133.02867 -718.3548 1915.0 1
152.10416 -714.22845 1904.0 1
169.14441 -702.59973 1873.0 1
188.66103 -702.59973 1873.0 1
208.17775 -702.59973 1873.0 1
227.69437 -702.59973 1873.0 1
221.86954 -630.5767 1681.0 1
238.24637 -627.57574 1673.0 1
255.67899 -627.57574 1673.0 1
275.8869 -633.95276 1690.0 1
294.886 -636.95374 1698.0 1
97.399185 -772.2366 2003.0 1
114.96391 -750.6463 1947.0 1
133.02867 -738.309 1915.0 1
152.10416 -734.0681 1904.0 1
170.04747 -725.97174 1883.0 1
189.66829 -725.97174 1883.0 1
209.28922 -725.97174 1883.0 1
228.91003 -725.97174 1883.0 1
248.53084 -725.97174 1883.0 1
239.38562 -648.0927 1681.0 1
258.27704 -651.56256 1690.0 1
274.4177 -648.0927 1681.0 1
294.886 -654.64685 1698.0 1
96.28077 -784.00085 1980.0 1
114.96391 -770.93414 1947.0 1
133.72333 -762.223 1925.0 1
152.10416 -753.90784 1904.0 1
170.04747 -745.5927 1883.0 1
189.66829 -745.5927 1883.0 1
210.51183 -749.94824 1894.0 1
228.91003 -745.5927 1883.0 1
249.9827 -749.94824 1894.0 1
239.38562 -665.60876 1681.0 1
258.27704 -669.1724 1690.0 1
274.4177 -665.60876 1681.0 1
291.93365 -665.60876 1681.0 1
312.5791 -672.3401 1698.0 1
95.21098 -795.692 1958.0 1
115.61343 -795.692 1958.0 1
133.72333 -782.2815 1925.0 1
152.10416 -773.7475 1904.0 1
171.04085 -769.6837 1894.0 1
190.77628 -769.6837 1894.0 1
210.51183 -769.6837 1894.0 1
228.91003 -765.21356 1883.0 1
249.9827 -769.6837 1894.0 1
271.1423 -773.7475 1904.0 1
255.67899 -679.8737 1673.0 1
275.8869 -686.7822 1690.0 1
293.49667 -686.7822 1690.0 1
311.1064 -686.7822 1690.0 1
328.71628 -686.7822 1690.0 1
