ply
format ascii 1.0
comment : created from Kinect user tracker
element vertex 677
property float x
property float y
property float z
property int userId
end_header
615.5303 468.14975 2496.0 1
536.4216 420.88464 2376.0 1
557.16425 417.87326 2359.0 1
598.2678 429.74164 2426.0 1
497.15204 404.46268 2426.0 1
511.66373 396.12668 2376.0 1
525.359 387.9574 2327.0 1
594.0755 401.62845 2409.0 1
606.32587 393.29245 2359.0 1
635.4533 396.12668 2376.0 1
468.5666 376.5267 2409.0 1
493.6683 376.5267 2409.0 1
508.00284 368.7117 2359.0 1
528.9713 366.2109 2343.0 1
553.3853 366.2109 2343.0 1
581.7451 368.7117 2359.0 1
602.21344 366.2109 2343.0 1
626.62756 366.2109 2343.0 1
655.4874 368.7117 2359.0 1
468.5666 351.42493 2409.0 1
493.6683 351.42493 2409.0 1
511.66373 346.6109 2376.0 1
528.9713 341.79684 2343.0 1
553.3853 341.79684 2343.0 1
581.7451 344.13095 2359.0 1
606.32587 344.13095 2359.0 1
630.90674 344.13095 2359.0 1
651.04156 341.79684 2343.0 1
478.48642 333.23157 2460.0 1
497.15204 328.62595 2426.0 1
511.66373 321.85294 2376.0 1
528.9713 317.38275 2343.0 1
553.3853 317.38275 2343.0 1
577.79944 317.38275 2343.0 1
602.21344 317.38275 2343.0 1
626.62756 317.38275 2343.0 1
655.4874 319.5501 2359.0 1
684.96906 321.85294 2376.0 1
481.98755 309.84912 2478.0 1
500.6358 305.47272 2443.0 1
515.10925 299.09567 2392.0 1
532.58356 294.96936 2359.0 1
557.16425 294.96936 2359.0 1
581.7451 294.96936 2359.0 1
606.32587 294.96936 2359.0 1
635.4533 297.09503 2376.0 1
660.2112 297.09503 2376.0 1
694.4825 301.22137 2409.0 1
485.48868 286.0915 2496.0 1
504.11957 281.96518 2460.0 1
518.7702 276.11954 2409.0 1
540.0339 274.17102 2392.0 1
557.16425 270.38855 2359.0 1
589.8832 274.17102 2392.0 1
614.80774 274.17102 2392.0 1
648.8257 278.06808 2426.0 1
674.1045 278.06808 2426.0 1
699.38336 278.06808 2426.0 1
511.49692 260.0832 2496.0 1
518.7702 251.01779 2409.0 1
540.0339 249.2464 2392.0 1
561.17944 247.5792 2376.0 1
594.0755 251.01779 2409.0 1
619.1772 251.01779 2409.0 1
648.8257 252.7892 2426.0 1
674.1045 252.7892 2426.0 1
694.4825 251.01779 2409.0 1
529.75287 230.69882 2460.0 1
543.8719 225.91605 2409.0 1
564.95844 224.32178 2392.0 1
589.8832 224.32178 2392.0 1
619.1772 225.91605 2409.0 1
662.7329 232.38686 2478.0 1
683.552 230.69882 2460.0 1
704.28424 229.10455 2443.0 1
734.8184 230.69882 2460.0 1
527.3076 225.98894 2711.0 1
551.2527 224.23839 2690.0 1
561.83954 217.48622 2609.0 1
543.8719 200.81422 2409.0 1
572.9888 202.23134 2426.0 1
594.0755 200.81422 2409.0 1
641.5385 208.06654 2496.0 1
667.54694 208.06654 2496.0 1
688.5536 206.56607 2478.0 1
523.22296 196.2086 2690.0 1
542.8507 193.21806 2649.0 1
561.83954 190.30048 2609.0 1
543.8719 175.71246 2409.0 1
585.2705 180.74533 2478.0 1
611.0914 180.74533 2478.0 1
641.5385 182.05824 2496.0 1
667.54694 182.05824 2496.0 1
693.5552 182.05824 2496.0 1
714.37427 180.74533 2478.0 1
523.22296 168.17877 2690.0 1
534.6536 163.11465 2609.0 1
553.441 160.67638 2570.0 1
571.6412 158.30061 2532.0 1
598.02454 158.30061 2532.0 1
619.9692 157.17525 2514.0 1
641.5385 156.0499 2496.0 1
667.54694 156.0499 2496.0 1
683.552 153.79918 2460.0 1
709.1851 153.79918 2460.0 1
740.1951 154.92453 2478.0 1
499.05887 141.2431 2711.0 1
515.24817 138.0129 2649.0 1
534.6536 135.9289 2609.0 1
549.3494 132.9071 2551.0 1
571.6412 131.91719 2532.0 1
593.7732 130.9794 2514.0 1
615.5303 130.0416 2496.0 1
636.91205 129.10379 2478.0 1
662.7329 129.10379 2478.0 1
683.552 128.166 2460.0 1
704.28424 127.2803 2443.0 1
724.6624 126.3946 2426.0 1
749.9412 126.3946 2426.0 1
495.19305 112.119225 2690.0 1
511.35806 109.576744 2629.0 1
526.6615 107.11762 2570.0 1
545.2578 105.53378 2532.0 1
567.5774 104.78355 2514.0 1
589.52185 104.0333 2496.0 1
615.5303 104.0333 2496.0 1
636.91205 103.283066 2478.0 1
657.9188 102.53282 2460.0 1
678.82825 101.824265 2443.0 1
699.38336 101.1157 2426.0 1
719.58435 100.40714 2409.0 1
744.6861 100.40714 2409.0 1
775.2203 101.1157 2426.0 1
487.6455 82.807724 2649.0 1
507.46793 81.55733 2609.0 1
526.6615 80.33819 2570.0 1
549.3494 79.74425 2551.0 1
563.5136 78.02495 2496.0 1
589.52185 78.02495 2496.0 1
611.0914 77.462265 2478.0 1
636.91205 77.462265 2478.0 1
653.37225 76.368164 2443.0 1
678.82825 76.368164 2443.0 1
699.38336 75.83675 2426.0 1
719.58435 75.30533 2409.0 1
744.6861 75.30533 2409.0 1
769.78796 75.30533 2409.0 1
817.6574 77.462265 2478.0 1
467.16333 56.059612 2690.0 1
487.6455 55.205173 2649.0 1
503.5778 53.954773 2589.0 1
522.7679 53.162853 2551.0 1
545.2578 52.76689 2532.0 1
567.5774 52.391773 2514.0 1
589.52185 52.01665 2496.0 1
611.0914 51.641533 2478.0 1
632.2856 51.26641 2460.0 1
648.8257 50.55785 2426.0 1
674.1045 50.55785 2426.0 1
694.4825 50.20357 2409.0 1
719.58435 50.20357 2409.0 1
744.6861 50.20357 2409.0 1
775.2203 50.55785 2426.0 1
806.1086 50.912132 2443.0 1
483.96378 27.394154 2629.0 1
499.88217 26.779373 2570.0 1
522.7679 26.581394 2551.0 1
545.2578 26.383415 2532.0 1
563.5136 26.008295 2496.0 1
589.52185 26.008295 2496.0 1
611.0914 25.820734 2478.0 1
632.2856 25.633175 2460.0 1
653.37225 25.456036 2443.0 1
674.1045 25.278896 2426.0 1
694.4825 25.101755 2409.0 1
719.58435 25.101755 2409.0 1
744.6861 25.101755 2409.0 1
775.2203 25.278896 2426.0 1
794.8897 25.101755 2409.0 1
483.96378 0.0 2629.0 1
499.88217 0.0 2570.0 1
518.87427 0.0 2532.0 1
541.3816 0.0 2514.0 1
559.44977 0.0 2478.0 1
589.52185 0.0 2496.0 1
611.0914 0.0 2478.0 1
636.91205 0.0 2478.0 1
648.8257 0.0 2426.0 1
674.1045 0.0 2426.0 1
699.38336 0.0 2426.0 1
719.58435 0.0 2409.0 1
749.9412 0.0 2426.0 1
769.78796 0.0 2409.0 1
794.8897 0.0 2409.0 1
487.6455 -27.602552 2649.0 1
507.46793 -27.185753 2609.0 1
522.7679 -26.581394 2551.0 1
541.3816 -26.195854 2514.0 1
559.44977 -25.820734 2478.0 1
585.2705 -25.820734 2478.0 1
611.0914 -25.820734 2478.0 1
632.2856 -25.633175 2460.0 1
657.9188 -25.633175 2460.0 1
674.1045 -25.278896 2426.0 1
704.28424 -25.456036 2443.0 1
719.58435 -25.101755 2409.0 1
744.6861 -25.101755 2409.0 1
775.2203 -25.278896 2426.0 1
800.49915 -25.278896 2426.0 1
483.96378 -54.788307 2629.0 1
503.5778 -53.95471 2589.0 1
522.7679 -53.16279 2551.0 1
541.3816 -52.39171 2514.0 1
559.44977 -51.641468 2478.0 1
585.2705 -51.641468 2478.0 1
611.0914 -51.641468 2478.0 1
636.91205 -51.641468 2478.0 1
662.7329 -51.641468 2478.0 1
683.552 -51.26635 2460.0 1
704.28424 -50.91207 2443.0 1
719.58435 -50.20351 2409.0 1
749.9412 -50.557793 2426.0 1
780.6525 -50.91207 2443.0 1
800.49915 -50.557793 2426.0 1
483.96378 -82.182594 2629.0 1
503.5778 -80.93219 2589.0 1
522.7679 -79.74431 2551.0 1
545.2578 -79.15037 2532.0 1
567.5774 -78.58769 2514.0 1
593.7732 -78.58769 2514.0 1
615.5303 -78.02501 2496.0 1
641.5385 -78.02501 2496.0 1
667.54694 -78.02501 2496.0 1
693.5552 -78.02501 2496.0 1
704.28424 -76.368225 2443.0 1
719.58435 -75.30539 2409.0 1
744.6861 -75.30539 2409.0 1
775.2203 -75.83681 2426.0 1
800.49915 -75.83681 2426.0 1
483.96378 -109.576744 2629.0 1
503.5778 -107.909546 2589.0 1
522.7679 -106.32571 2551.0 1
549.3494 -106.32571 2551.0 1
571.6412 -105.53378 2532.0 1
598.02454 -105.53378 2532.0 1
615.5303 -104.0333 2496.0 1
641.5385 -104.0333 2496.0 1
672.36096 -104.78355 2514.0 1
703.5584 -105.53378 2532.0 1
714.37427 -103.283066 2478.0 1
729.7404 -101.824265 2443.0 1
755.1964 -101.824265 2443.0 1
780.6525 -101.824265 2443.0 1
497.24942 -158.6966 3046.0 1
460.043 -138.0129 2649.0 1
480.28204 -135.9289 2609.0 1
503.5778 -134.8869 2589.0 1
522.7679 -132.9071 2551.0 1
549.3494 -132.9071 2551.0 1
571.6412 -131.91719 2532.0 1
602.5121 -132.9071 2551.0 1
624.4081 -131.91719 2532.0 1
650.7915 -131.91719 2532.0 1
677.175 -131.91719 2532.0 1
708.8378 -132.9071 2551.0 1
719.5634 -130.0416 2496.0 1
734.8184 -128.166 2460.0 1
755.1964 -127.2803 2443.0 1
780.6525 -127.2803 2443.0 1
800.49915 -126.3946 2426.0 1
492.84177 -188.74785 3019.0 1
463.51633 -166.86584 2669.0 1
483.96378 -164.36505 2629.0 1
503.5778 -161.86426 2589.0 1
526.6615 -160.67638 2570.0 1
545.2578 -158.30061 2532.0 1
571.6412 -158.30061 2532.0 1
602.5121 -159.4885 2551.0 1
629.0936 -159.4885 2551.0 1
655.675 -159.4885 2551.0 1
682.25653 -159.4885 2551.0 1
708.8378 -159.4885 2551.0 1
729.9418 -158.30061 2532.0 1
734.8184 -153.79918 2460.0 1
760.45154 -153.79918 2460.0 1
780.6525 -152.73633 2443.0 1
806.1086 -152.73633 2443.0 1
461.38367 -220.2058 3019.0 1
488.59735 -218.30936 2993.0 1
470.81033 -197.74028 2711.0 1
487.6455 -193.218 2649.0 1
507.46793 -190.3004 2609.0 1
530.5551 -188.8416 2589.0 1
553.441 -187.45575 2570.0 1
575.9308 -186.06989 2551.0 1
602.5121 -186.06989 2551.0 1
624.4081 -184.68402 2532.0 1
655.675 -186.06989 2551.0 1
682.25653 -186.06989 2551.0 1
708.8378 -186.06989 2551.0 1
735.4192 -186.06989 2551.0 1
740.1951 -180.74527 2478.0 1
760.45154 -179.43234 2460.0 1
786.08484 -179.43234 2460.0 1
800.49915 -176.9524 2426.0 1
469.6363 -256.16534 3073.0 1
488.59735 -249.49654 2993.0 1
470.81033 -225.98901 2711.0 1
491.32724 -222.48788 2669.0 1
507.46793 -217.48628 2609.0 1
530.5551 -215.81909 2589.0 1
553.441 -214.23524 2570.0 1
580.22034 -214.23524 2570.0 1
606.99963 -214.23524 2570.0 1
633.7792 -214.23524 2570.0 1
660.5585 -214.23524 2570.0 1
687.338 -214.23524 2570.0 1
719.3968 -215.81909 2589.0 1
740.89667 -214.23524 2570.0 1
740.1951 -206.56613 2478.0 1
760.45154 -205.06564 2460.0 1
791.8367 -206.56613 2478.0 1
441.60312 -290.8118 3101.0 1
465.50998 -285.6539 3046.0 1
492.84177 -283.12186 3019.0 1
474.63098 -256.30075 2733.0 1
491.32724 -250.29884 2669.0 1
511.35806 -246.54764 2629.0 1
534.6536 -244.67204 2609.0 1
553.441 -241.01462 2570.0 1
575.9308 -239.2328 2551.0 1
606.99963 -241.01462 2570.0 1
633.7792 -241.01462 2570.0 1
660.5585 -241.01462 2570.0 1
687.338 -241.01462 2570.0 1
719.3968 -242.79645 2589.0 1
740.89667 -241.01462 2570.0 1
740.1951 -232.38686 2478.0 1
760.45154 -230.69882 2460.0 1
786.08484 -230.69882 2460.0 1
433.77075 -317.3932 3046.0 1
461.38367 -314.5798 3019.0 1
472.27267 -301.4506 2893.0 1
486.093 -291.6558 2799.0 1
495.19305 -280.298 2690.0 1
511.35806 -273.9418 2629.0 1
538.75214 -273.9418 2629.0 1
557.5326 -269.7738 2589.0 1
575.9308 -265.8142 2551.0 1
611.4872 -269.7738 2589.0 1
638.46466 -269.7738 2589.0 1
660.5585 -267.794 2570.0 1
687.338 -267.794 2570.0 1
719.3968 -269.7738 2589.0 1
729.9418 -263.83438 2532.0 1
740.1951 -258.20758 2478.0 1
760.45154 -256.332 2460.0 1
786.08484 -256.332 2460.0 1
800.49915 -252.7892 2426.0 1
405.59494 -352.22723 3073.0 1
437.61572 -352.22723 3073.0 1
457.41016 -343.05762 2993.0 1
468.35477 -328.84476 2869.0 1
478.27798 -315.66345 2754.0 1
499.05887 -310.7348 2711.0 1
511.35806 -301.33594 2629.0 1
538.75214 -301.33594 2629.0 1
561.83954 -299.04355 2609.0 1
580.22034 -294.57336 2570.0 1
611.4872 -296.75116 2589.0 1
638.46466 -296.75116 2589.0 1
670.5825 -299.04355 2609.0 1
692.4195 -296.75116 2589.0 1
724.9541 -299.04355 2609.0 1
719.5634 -286.0915 2496.0 1
734.8184 -281.96518 2460.0 1
766.0158 -284.02832 2478.0 1
791.8367 -284.02832 2478.0 1
409.29056 -387.74896 3101.0 1
433.77075 -380.87177 3046.0 1
445.79535 -364.7416 2917.0 1
464.43683 -355.73874 2845.0 1
482.27234 -347.23602 2777.0 1
503.10876 -341.73425 2733.0 1
515.24817 -331.2309 2649.0 1
538.75214 -328.7301 2629.0 1
561.83954 -326.2293 2609.0 1
584.5099 -323.72852 2589.0 1
616.21094 -326.2293 2609.0 1
643.3968 -326.2293 2609.0 1
675.7231 -328.7301 2629.0 1
692.4195 -323.72852 2589.0 1
724.9541 -326.2293 2609.0 1
719.5634 -312.0998 2496.0 1
740.1951 -309.84906 2478.0 1
760.45154 -307.59836 2460.0 1
791.8367 -309.84906 2478.0 1
415.40027 -395.13687 2917.0 1
434.7918 -385.38376 2845.0 1
456.9275 -379.1526 2799.0 1
482.27234 -376.17245 2777.0 1
503.10876 -370.21222 2733.0 1
523.22296 -364.38745 2690.0 1
538.75214 -356.1244 2629.0 1
566.1464 -356.1244 2629.0 1
589.0252 -353.4152 2609.0 1
616.21094 -353.4152 2609.0 1
643.3968 -353.4152 2609.0 1
670.5825 -353.4152 2609.0 1
687.338 -348.13223 2570.0 1
724.9541 -353.4152 2609.0 1
719.5634 -338.10822 2496.0 1
740.1951 -335.66992 2478.0 1
760.45154 -333.23163 2460.0 1
411.9825 -422.03085 2893.0 1
438.45966 -418.52975 2869.0 1
460.68216 -411.67337 2822.0 1
478.27798 -401.75354 2754.0 1
495.19305 -392.4172 2690.0 1
519.1383 -389.35373 2669.0 1
542.8507 -386.43613 2649.0 1
566.1464 -383.51852 2629.0 1
589.0252 -380.60095 2609.0 1
616.21094 -380.60095 2609.0 1
648.329 -383.51852 2629.0 1
670.5825 -380.60095 2609.0 1
697.76843 -380.60095 2609.0 1
714.1173 -374.91162 2570.0 1
719.5634 -364.1165 2496.0 1
729.7404 -356.38486 2443.0 1
391.60434 -463.7421 2967.0 1
415.40027 -455.9271 2917.0 1
434.7918 -444.6735 2845.0 1
460.68216 -441.07858 2822.0 1
482.27234 -434.0451 2777.0 1
503.10876 -427.16788 2733.0 1
523.22296 -420.447 2690.0 1
542.8507 -414.0387 2649.0 1
566.1464 -410.9127 2629.0 1
593.5405 -410.9127 2629.0 1
620.9347 -410.9127 2629.0 1
648.329 -410.9127 2629.0 1
675.7231 -410.9127 2629.0 1
703.1174 -410.9127 2629.0 1
708.8378 -398.72128 2551.0 1
714.37427 -387.3114 2478.0 1
740.1951 -387.3114 2478.0 1
385.00504 -486.3222 2917.0 1
411.9825 -482.32092 2893.0 1
438.45966 -478.31964 2869.0 1
464.43683 -474.31836 2845.0 1
486.093 -466.64923 2799.0 1
506.9746 -459.14685 2754.0 1
523.22296 -448.47678 2690.0 1
542.8507 -441.64124 2649.0 1
566.1464 -438.30685 2629.0 1
593.5405 -438.30685 2629.0 1
620.9347 -438.30685 2629.0 1
648.329 -438.30685 2629.0 1
675.7231 -438.30685 2629.0 1
703.1174 -438.30685 2629.0 1
698.55676 -419.13403 2514.0 1
719.5634 -416.1331 2496.0 1
745.57184 -416.1331 2496.0 1
381.83734 -512.46594 2893.0 1
411.9825 -512.46594 2893.0 1
438.45966 -508.2146 2869.0 1
468.35477 -508.2146 2869.0 1
490.0873 -499.889 2822.0 1
511.2086 -491.91772 2777.0 1
523.22296 -476.50653 2690.0 1
542.8507 -469.2438 2649.0 1
566.1464 -465.701 2629.0 1
593.5405 -465.701 2629.0 1
625.6584 -469.2438 2649.0 1
648.329 -465.701 2629.0 1
675.7231 -465.701 2629.0 1
692.4195 -458.6154 2589.0 1
693.5552 -442.1414 2496.0 1
719.5634 -442.1414 2496.0 1
745.57184 -442.1414 2496.0 1
385.00504 -547.11255 2917.0 1
411.9825 -542.61115 2893.0 1
438.45966 -538.1097 2869.0 1
468.35477 -538.1097 2869.0 1
494.08167 -533.6083 2845.0 1
515.2585 -524.98047 2799.0 1
523.22296 -504.53644 2690.0 1
546.9492 -500.5977 2669.0 1
570.45337 -496.8465 2649.0 1
589.0252 -489.3441 2609.0 1
625.6584 -496.8465 2649.0 1
658.19324 -500.5977 2669.0 1
680.8636 -496.8465 2649.0 1
672.36096 -471.52588 2514.0 1
693.5552 -468.1498 2496.0 1
719.5634 -468.1498 2496.0 1
750.9486 -471.52588 2514.0 1
354.60995 -577.5077 2917.0 1
381.83734 -572.75616 2893.0 1
411.9825 -572.75616 2893.0 1
438.45966 -568.00464 2869.0 1
468.35477 -568.00464 2869.0 1
498.24966 -568.00464 2869.0 1
523.7265 -563.2531 2845.0 1
531.58673 -541.07935 2733.0 1
546.9492 -528.4086 2669.0 1
566.1464 -520.48944 2629.0 1
593.5405 -520.48944 2629.0 1
630.38214 -528.4086 2669.0 1
658.19324 -528.4086 2669.0 1
680.8636 -524.44904 2649.0 1
677.175 -501.28537 2532.0 1
698.55676 -497.72174 2514.0 1
714.37427 -490.59445 2478.0 1
363.84903 -623.7412 2993.0 1
388.3047 -613.1128 2942.0 1
411.9825 -602.9012 2893.0 1
438.45966 -597.8996 2869.0 1
468.35477 -597.8996 2869.0 1
498.24966 -597.8996 2869.0 1
523.7265 -592.898 2845.0 1
527.3076 -564.9724 2711.0 1
551.2527 -560.596 2690.0 1
579.2826 -560.596 2690.0 1
598.0559 -552.0516 2649.0 1
635.34204 -560.596 2690.0 1
663.37195 -560.596 2690.0 1
660.5585 -535.588 2570.0 1
672.36096 -523.9176 2514.0 1
698.55676 -523.9176 2514.0 1
719.5634 -520.1664 2496.0 1
360.6883 -649.2389 2967.0 1
385.00504 -638.2979 2917.0 1
415.40027 -638.2979 2917.0 1
438.45966 -627.79456 2869.0 1
468.35477 -627.79456 2869.0 1
498.24966 -627.79456 2869.0 1
528.14453 -627.79456 2869.0 1
531.58673 -598.03503 2733.0 1
551.2527 -588.62573 2690.0 1
579.2826 -588.62573 2690.0 1
598.0559 -579.6541 2649.0 1
640.30194 -593.221 2711.0 1
668.5507 -593.221 2711.0 1
655.675 -558.2098 2551.0 1
672.36096 -550.11346 2514.0 1
693.5552 -546.1747 2496.0 1
719.5634 -546.1747 2496.0 1
360.6883 -680.155 2967.0 1
388.3047 -674.424 2942.0 1
415.40027 -668.693 2917.0 1
442.1275 -663.1912 2893.0 1
472.27267 -663.1912 2893.0 1
506.58566 -668.693 2917.0 1
546.18506 -680.155 2967.0 1
535.6714 -631.3269 2754.0 1
555.55615 -621.4696 2711.0 1
579.2826 -616.6555 2690.0 1
607.3123 -616.6555 2690.0 1
645.49805 -626.5129 2733.0 1
658.19324 -611.8415 2669.0 1
655.675 -584.7912 2551.0 1
682.25653 -584.7912 2551.0 1
698.55676 -576.3093 2514.0 1
724.7526 -576.3093 2514.0 1
357.64914 -705.0798 2942.0 1
391.60434 -711.0713 2967.0 1
415.40027 -699.08826 2917.0 1
445.79535 -699.08826 2917.0 1
476.19058 -699.08826 2917.0 1
510.92734 -705.0798 2942.0 1
546.18506 -711.0713 2967.0 1
540.145 -665.5359 2777.0 1
555.55615 -649.7183 2711.0 1
583.8049 -649.7183 2711.0 1
612.0534 -649.7183 2711.0 1
655.89026 -665.5359 2777.0 1
668.5507 -649.7183 2711.0 1
660.5585 -615.9263 2570.0 1
682.25653 -611.3727 2551.0 1
703.5584 -606.81915 2532.0 1
422.5206 -741.98737 2967.0 1
449.616 -735.73535 2942.0 1
484.35294 -741.98737 2967.0 1
515.269 -741.98737 2967.0 1
546.18506 -741.98737 2967.0 1
544.4242 -699.97394 2799.0 1
560.0645 -683.4686 2733.0 1
583.8049 -677.9669 2711.0 1
612.0534 -677.9669 2711.0 1
661.08636 -699.97394 2799.0 1
665.442 -647.45715 2589.0 1
453.43668 -772.9035 2967.0 1
484.35294 -772.9035 2967.0 1
515.269 -772.9035 2967.0 1
546.18506 -772.9035 2967.0 1
544.4242 -729.13947 2799.0 1
564.368 -717.417 2754.0 1
588.5425 -711.9465 2733.0 1
621.7614 -717.417 2754.0 1
661.08636 -729.13947 2799.0 1
515.269 -803.8196 2967.0 1
546.18506 -803.8196 2967.0 1
544.4242 -758.30505 2799.0 1
569.0813 -752.3448 2777.0 1
598.01776 -752.3448 2777.0 1
626.95404 -752.3448 2777.0 1
671.951 -770.76733 2845.0 1
546.18506 -834.7357 2967.0 1
544.4242 -787.4706 2799.0 1
573.5897 -787.4706 2799.0 1
598.01776 -781.2811 2777.0 1
631.9209 -787.4706 2799.0 1
671.951 -800.41223 2845.0 1
553.3715 -830.05725 2845.0 1
573.5897 -816.6363 2799.0 1
602.7554 -816.6363 2799.0 1
631.9209 -816.6363 2799.0 1
677.61945 -837.0595 2869.0 1
751.16394 -888.701 3046.0 1
576.0071 -945.52124 3129.0 1
577.1013 -896.56805 2967.0 1
583.0163 -859.7021 2845.0 1
612.6613 -859.7021 2845.0 1
637.1135 -852.75195 2822.0 1
694.8611 -889.01355 2942.0 1
757.8223 -928.5992 3073.0 1
789.8429 -928.5992 3073.0 1
582.1585 -935.61176 2993.0 1
592.8528 -904.3518 2893.0 1
617.82965 -896.84937 2869.0 1
642.30615 -889.347 2845.0 1
688.9564 -911.8542 2917.0 1
764.7273 -969.37256 3101.0 1
797.0396 -969.37256 3101.0 1
592.8528 -934.4968 2893.0 1
622.998 -934.4968 2893.0 1
647.72455 -926.7443 2869.0 1
694.8611 -950.32477 2942.0 1
764.7273 -1001.685 3101.0 1
797.0396 -1001.685 3101.0 1
603.1652 -1033.9973 3101.0 1
602.8942 -980.9804 2942.0 1
622.998 -964.64185 2893.0 1
653.14294 -964.64185 2893.0 1
706.9066 -997.98584 2993.0 1
778.5373 -1052.67 3157.0 1
581.1615 -1085.566 3157.0 1
597.719 -1056.6818 3073.0 1
608.0174 -1020.23267 2967.0 1
628.1663 -1003.0397 2917.0 1
664.2055 -1011.63617 2942.0 1
688.9564 -1003.0397 2917.0 1
587.21564 -1069.5713 3019.0 1
608.0174 -1051.1488 2967.0 1
633.55 -1042.2917 2942.0 1
675.7196 -1060.3601 2993.0 1
706.9066 -1060.3601 2993.0 1
570.85266 -1130.9347 3101.0 1
582.1585 -1091.5471 2993.0 1
613.34546 -1091.5471 2993.0 1
644.53265 -1091.5471 2993.0 1
675.7196 -1091.5471 2993.0 1
719.4245 -1110.8762 3046.0 1
533.6777 -1152.7437 3073.0 1
560.7279 -1142.6155 3046.0 1
582.1585 -1122.7341 2993.0 1
613.34546 -1122.7341 2993.0 1
644.53265 -1122.7341 2993.0 1
528.98865 -1174.3547 3046.0 1
560.7279 -1174.3547 3046.0 1
587.21564 -1163.9452 3019.0 1
613.34546 -1153.9211 2993.0 1
644.53265 -1153.9211 2993.0 1
613.34546 -1185.1083 2993.0 1
644.53265 -1185.1083 2993.0 1
