ply
format ascii 1.0
comment : created from Kinect user tracker
element vertex 765
property float x
property float y
property float z
property int userId
end_header
307.1329 387.9574 2327.0 1
331.38034 387.9574 2327.0 1
353.3352 385.4566 2312.0 1
255.30396 359.0211 2297.0 1
282.88562 363.71008 2327.0 1
305.1531 361.3656 2312.0 1
324.82962 356.5203 2281.0 1
346.30518 354.17578 2266.0 1
369.917 354.17578 2266.0 1
398.91232 359.0211 2297.0 1
422.84702 359.0211 2297.0 1
255.30396 335.08636 2297.0 1
281.06213 337.27457 2312.0 1
303.1733 335.08636 2297.0 1
322.69354 330.5641 2266.0 1
346.30518 330.5641 2266.0 1
369.917 330.5641 2266.0 1
393.52866 330.5641 2266.0 1
422.84702 335.08636 2297.0 1
239.32652 321.85294 2376.0 1
258.63834 315.2154 2327.0 1
279.23862 311.1516 2297.0 1
303.1733 311.1516 2297.0 1
322.69354 306.95233 2266.0 1
346.30518 306.95233 2266.0 1
369.917 306.95233 2266.0 1
393.52866 306.95233 2266.0 1
417.14032 306.95233 2266.0 1
443.66974 308.98425 2281.0 1
458.42093 303.02402 2237.0 1
216.01358 299.09567 2392.0 1
237.61417 294.96936 2359.0 1
260.4167 292.96872 2343.0 1
284.8307 292.96872 2343.0 1
303.1733 287.2169 2297.0 1
322.69354 283.34064 2266.0 1
346.30518 283.34064 2266.0 1
369.917 283.34064 2266.0 1
393.52866 283.34064 2266.0 1
419.9016 285.21625 2281.0 1
452.61703 290.96808 2327.0 1
476.86432 290.96808 2327.0 1
236.00255 268.55463 2343.0 1
260.4167 268.55463 2343.0 1
284.8307 268.55463 2343.0 1
305.1531 265.0014 2312.0 1
324.82962 261.44818 2281.0 1
346.30518 259.72888 2266.0 1
369.917 259.72888 2266.0 1
396.13367 261.44818 2281.0 1
425.6083 265.0014 2312.0 1
455.72916 268.55463 2343.0 1
486.90573 272.3371 2376.0 1
265.86288 249.2464 2392.0 1
282.88562 242.47339 2327.0 1
305.1531 240.9104 2312.0 1
327.10812 239.3474 2297.0 1
348.5976 237.68019 2281.0 1
372.3657 237.68019 2281.0 1
401.51733 240.9104 2312.0 1
431.315 244.1406 2343.0 1
455.72916 244.1406 2343.0 1
486.90573 247.5792 2376.0 1
269.64188 227.5103 2426.0 1
284.8307 219.72656 2343.0 1
307.1329 218.22607 2327.0 1
327.10812 215.41267 2297.0 1
348.5976 213.9122 2281.0 1
377.42636 216.81938 2312.0 1
401.51733 216.81938 2312.0 1
434.26038 221.22704 2359.0 1
465.25998 224.32178 2392.0 1
288.8424 198.06334 2376.0 1
307.1329 193.9787 2327.0 1
327.10812 191.4779 2297.0 1
351.04282 191.4779 2297.0 1
374.97766 191.4779 2297.0 1
404.1223 193.9787 2327.0 1
440.33524 199.39711 2392.0 1
465.25998 199.39711 2392.0 1
260.7813 188.84167 2589.0 1
289.98172 190.30048 2609.0 1
310.11655 186.06995 2551.0 1
311.35648 172.06548 2359.0 1
331.38034 169.73138 2327.0 1
353.3352 168.63728 2312.0 1
379.87506 169.73138 2327.0 1
415.41064 174.47249 2392.0 1
446.59418 176.95245 2426.0 1
475.1798 178.19243 2443.0 1
235.61012 163.11465 2609.0 1
260.7813 161.86426 2589.0 1
285.647 160.67638 2570.0 1
305.6186 157.17525 2514.0 1
324.68713 153.79918 2460.0 1
333.65884 146.48433 2343.0 1
358.07285 146.48433 2343.0 1
390.48608 149.54782 2392.0 1
418.363 150.61066 2409.0 1
446.59418 151.6735 2426.0 1
471.8732 151.6735 2426.0 1
493.6683 150.61066 2409.0 1
235.61012 135.9289 2609.0 1
258.8675 133.897 2570.0 1
281.42343 131.91719 2532.0 1
303.4304 130.0416 2496.0 1
327.0629 129.10379 2478.0 1
350.32043 128.166 2460.0 1
370.75745 126.3946 2426.0 1
393.2613 125.508896 2409.0 1
418.363 125.508896 2409.0 1
443.46472 125.508896 2409.0 1
468.5666 125.508896 2409.0 1
490.18454 124.6232 2392.0 1
515.10925 124.6232 2392.0 1
208.42424 108.74314 2609.0 1
235.61012 108.74314 2609.0 1
256.95367 106.32571 2551.0 1
281.42343 105.53378 2532.0 1
301.2422 103.283066 2478.0 1
324.68713 102.53282 2460.0 1
347.8995 101.824265 2443.0 1
370.75745 101.1157 2426.0 1
393.2613 100.40714 2409.0 1
418.363 100.40714 2409.0 1
440.33524 99.698586 2392.0 1
465.25998 99.698586 2392.0 1
486.90573 99.0317 2376.0 1
511.66373 99.0317 2376.0 1
536.4216 99.0317 2376.0 1
210.02197 82.182526 2629.0 1
232.08817 80.33819 2570.0 1
255.03989 79.15031 2532.0 1
279.4228 78.58762 2514.0 1
301.2422 77.462265 2478.0 1
322.44336 76.368164 2443.0 1
345.4786 75.83675 2426.0 1
368.1594 75.30533 2409.0 1
393.2613 75.30533 2409.0 1
418.363 75.30533 2409.0 1
440.33524 74.77391 2392.0 1
462.14786 74.27375 2376.0 1
483.42197 73.742325 2359.0 1
504.55728 73.242165 2343.0 1
528.9713 73.242165 2343.0 1
557.16425 73.742325 2359.0 1
210.02197 54.788372 2629.0 1
230.37233 53.162853 2551.0 1
253.2268 52.391773 2514.0 1
275.4215 51.641533 2478.0 1
299.054 51.26641 2460.0 1
320.1996 50.55785 2426.0 1
343.05768 50.20357 2409.0 1
365.56134 49.849293 2392.0 1
393.2613 50.20357 2409.0 1
415.41064 49.849293 2392.0 1
440.33524 49.849293 2392.0 1
462.14786 49.51585 2376.0 1
480.14313 48.828133 2343.0 1
504.55728 48.828133 2343.0 1
528.9713 48.828133 2343.0 1
557.16425 49.16157 2359.0 1
214.89507 28.029772 2690.0 1
230.37233 26.581394 2551.0 1
253.2268 26.195854 2514.0 1
275.4215 25.820734 2478.0 1
296.98737 25.456036 2443.0 1
320.1996 25.278896 2426.0 1
340.63678 24.924616 2392.0 1
368.1594 25.101755 2409.0 1
390.48608 24.924616 2392.0 1
415.41064 24.924616 2392.0 1
437.38986 24.757896 2376.0 1
458.84125 24.580755 2359.0 1
480.14313 24.414036 2343.0 1
504.55728 24.414036 2343.0 1
528.9713 24.414036 2343.0 1
561.17944 24.757896 2376.0 1
589.8832 24.924616 2392.0 1
211.6197 0.0 2649.0 1
228.65651 0.0 2532.0 1
251.41373 0.0 2496.0 1
275.4215 0.0 2478.0 1
296.98737 0.0 2443.0 1
317.9558 0.0 2409.0 1
340.63678 0.0 2392.0 1
365.56134 0.0 2392.0 1
390.48608 0.0 2392.0 1
412.632 0.0 2376.0 1
434.26038 0.0 2359.0 1
455.72916 0.0 2343.0 1
480.14313 0.0 2343.0 1
504.55728 0.0 2343.0 1
528.9713 0.0 2343.0 1
557.16425 0.0 2359.0 1
581.7451 0.0 2359.0 1
203.79082 -26.581394 2551.0 1
228.65651 -26.383415 2532.0 1
251.41373 -26.008295 2496.0 1
275.4215 -25.820734 2478.0 1
296.98737 -25.456036 2443.0 1
317.9558 -25.101755 2409.0 1
343.05768 -25.101755 2409.0 1
365.56134 -24.924616 2392.0 1
390.48608 -24.924616 2392.0 1
409.67966 -24.580755 2359.0 1
437.38986 -24.757896 2376.0 1
462.14786 -24.757896 2376.0 1
483.42197 -24.580755 2359.0 1
504.55728 -24.414036 2343.0 1
528.9713 -24.414036 2343.0 1
553.3853 -24.414036 2343.0 1
581.7451 -24.580755 2359.0 1
230.37233 -53.16279 2551.0 1
251.41373 -52.01659 2496.0 1
273.42087 -51.26635 2460.0 1
296.98737 -50.91207 2443.0 1
317.9558 -50.20351 2409.0 1
343.05768 -50.20351 2409.0 1
365.56134 -49.84923 2392.0 1
387.87415 -49.515793 2376.0 1
412.632 -49.515793 2376.0 1
437.38986 -49.515793 2376.0 1
462.14786 -49.515793 2376.0 1
483.42197 -49.16151 2359.0 1
504.55728 -48.82807 2343.0 1
528.9713 -48.82807 2343.0 1
557.16425 -49.16151 2359.0 1
581.7451 -49.16151 2359.0 1
225.4401 -88.215775 2822.0 1
230.37233 -79.74431 2551.0 1
253.2268 -78.58769 2514.0 1
275.4215 -77.462326 2478.0 1
296.98737 -76.368225 2443.0 1
317.9558 -75.30539 2409.0 1
343.05768 -75.30539 2409.0 1
365.56134 -74.773964 2392.0 1
387.87415 -74.2738 2376.0 1
415.41064 -74.773964 2392.0 1
440.33524 -74.773964 2392.0 1
462.14786 -74.2738 2376.0 1
490.18454 -74.773964 2392.0 1
508.00284 -73.742386 2359.0 1
528.9713 -73.242226 2343.0 1
557.16425 -73.742386 2359.0 1
581.7451 -73.742386 2359.0 1
602.21344 -73.242226 2343.0 1
223.6027 -116.662346 2799.0 1
230.37233 -106.32571 2551.0 1
253.2268 -104.78355 2514.0 1
275.4215 -103.283066 2478.0 1
299.054 -102.53282 2460.0 1
320.1996 -101.1157 2426.0 1
343.05768 -100.40714 2409.0 1
368.1594 -100.40714 2409.0 1
390.48608 -99.698586 2392.0 1
415.41064 -99.698586 2392.0 1
440.33524 -99.698586 2392.0 1
468.5666 -100.40714 2409.0 1
493.6683 -100.40714 2409.0 1
508.00284 -98.32314 2359.0 1
528.9713 -97.656265 2343.0 1
557.16425 -98.32314 2359.0 1
585.93744 -99.0317 2376.0 1
196.03493 -147.0262 2822.0 1
225.4401 -147.0262 2822.0 1
230.37233 -132.9071 2551.0 1
253.2268 -130.9794 2514.0 1
275.4215 -129.10379 2478.0 1
299.054 -128.166 2460.0 1
320.1996 -126.3946 2426.0 1
343.05768 -125.508896 2409.0 1
368.1594 -125.508896 2409.0 1
393.2613 -125.508896 2409.0 1
415.41064 -124.6232 2392.0 1
443.46472 -125.508896 2409.0 1
475.1798 -127.2803 2443.0 1
493.6683 -125.508896 2409.0 1
511.66373 -123.7896 2376.0 1
532.58356 -122.9039 2359.0 1
561.17944 -123.7896 2376.0 1
589.8832 -124.6232 2392.0 1
169.40495 -179.36984 2869.0 1
197.63266 -177.86937 2845.0 1
225.4401 -176.43141 2822.0 1
232.08817 -160.67638 2570.0 1
253.2268 -157.17525 2514.0 1
275.4215 -154.92453 2478.0 1
301.2422 -154.92453 2478.0 1
322.44336 -152.73633 2443.0 1
347.8995 -152.73633 2443.0 1
370.75745 -151.6735 2426.0 1
396.03647 -151.6735 2426.0 1
421.31534 -151.6735 2426.0 1
449.72366 -152.73633 2443.0 1
478.48642 -153.79918 2460.0 1
500.6358 -152.73633 2443.0 1
515.10925 -149.54782 2392.0 1
532.58356 -147.48465 2359.0 1
561.17944 -148.5475 2376.0 1
598.2678 -151.6735 2426.0 1
170.82208 -211.01537 2893.0 1
197.63266 -207.51424 2845.0 1
223.6027 -204.159 2799.0 1
230.37233 -186.06989 2551.0 1
253.2268 -183.37111 2514.0 1
275.4215 -180.74527 2478.0 1
301.2422 -180.74527 2478.0 1
324.68713 -179.43234 2460.0 1
350.32043 -179.43234 2460.0 1
375.95355 -179.43234 2460.0 1
398.81168 -178.19237 2443.0 1
424.26767 -178.19237 2443.0 1
452.85312 -179.43234 2460.0 1
481.98755 -180.74527 2478.0 1
504.11957 -179.43234 2460.0 1
515.10925 -174.47243 2392.0 1
536.4216 -173.30539 2376.0 1
564.95844 -174.47243 2392.0 1
589.8832 -174.47243 2392.0 1
170.82208 -241.16054 2893.0 1
199.29987 -239.1599 2869.0 1
225.4401 -235.24197 2822.0 1
230.37233 -212.65141 2551.0 1
253.2268 -209.5671 2514.0 1
275.4215 -206.56613 2478.0 1
301.2422 -206.56613 2478.0 1
324.68713 -205.06564 2460.0 1
350.32043 -205.06564 2460.0 1
375.95355 -205.06564 2460.0 1
401.58685 -205.06564 2460.0 1
427.22 -205.06564 2460.0 1
456.1667 -206.56613 2478.0 1
485.48868 -208.0666 2496.0 1
507.80823 -206.56613 2478.0 1
515.10925 -199.39717 2392.0 1
536.4216 -198.0634 2376.0 1
561.17944 -198.0634 2376.0 1
589.8832 -199.39717 2392.0 1
139.50987 -269.05484 2869.0 1
170.82208 -271.30557 2893.0 1
199.29987 -269.05484 2869.0 1
211.6197 -248.42325 2649.0 1
232.08817 -241.01462 2570.0 1
255.03989 -237.45097 2532.0 1
277.42215 -234.0749 2496.0 1
303.4304 -234.0749 2496.0 1
327.0629 -232.38686 2478.0 1
352.88376 -232.38686 2478.0 1
378.70444 -232.38686 2478.0 1
401.58685 -230.69882 2460.0 1
430.34598 -232.38686 2478.0 1
456.1667 -232.38686 2478.0 1
488.98978 -235.76294 2514.0 1
511.49692 -234.0749 2496.0 1
522.4311 -227.5103 2426.0 1
540.0339 -224.32178 2392.0 1
564.95844 -224.32178 2392.0 1
594.0755 -225.91605 2409.0 1
140.67691 -301.4506 2893.0 1
169.40495 -298.9498 2869.0 1
199.29987 -298.9498 2869.0 1
214.89507 -280.298 2690.0 1
233.80399 -269.7738 2589.0 1
255.03989 -263.83438 2532.0 1
279.4228 -261.9588 2514.0 1
305.6186 -261.9588 2514.0 1
329.43866 -260.0832 2496.0 1
352.88376 -258.20758 2478.0 1
378.70444 -258.20758 2478.0 1
404.5253 -258.20758 2478.0 1
430.34598 -258.20758 2478.0 1
459.48026 -260.0832 2496.0 1
488.98978 -261.9588 2514.0 1
518.87427 -263.83438 2532.0 1
522.4311 -252.7892 2426.0 1
540.0339 -249.2464 2392.0 1
564.95844 -249.2464 2392.0 1
589.8832 -249.2464 2392.0 1
109.61496 -328.84476 2869.0 1
140.67691 -331.5956 2893.0 1
169.40495 -328.84476 2869.0 1
216.57268 -310.7348 2711.0 1
235.61012 -299.04355 2609.0 1
256.95367 -292.3956 2551.0 1
281.42343 -290.2178 2532.0 1
303.4304 -286.0915 2496.0 1
331.8144 -288.15466 2514.0 1
355.44705 -286.0915 2496.0 1
381.45532 -286.0915 2496.0 1
407.46375 -286.0915 2496.0 1
433.472 -286.0915 2496.0 1
462.7938 -288.15466 2514.0 1
492.4909 -290.2178 2532.0 1
518.87427 -290.2178 2532.0 1
515.10925 -274.17102 2392.0 1
536.4216 -272.3371 2376.0 1
564.95844 -274.17102 2392.0 1
589.8832 -274.17102 2392.0 1
111.44888 -364.7416 2917.0 1
140.67691 -361.74066 2893.0 1
169.40495 -358.7397 2869.0 1
192.90894 -347.23602 2777.0 1
216.57268 -338.98337 2711.0 1
239.2224 -331.2309 2649.0 1
256.95367 -318.977 2551.0 1
283.53522 -318.977 2551.0 1
307.8068 -316.60123 2532.0 1
331.8144 -314.3505 2514.0 1
358.01038 -314.3505 2514.0 1
381.45532 -312.0998 2496.0 1
410.4022 -314.3505 2514.0 1
439.724 -316.60123 2532.0 1
466.10736 -316.60123 2532.0 1
496.18652 -318.977 2551.0 1
504.11957 -307.59836 2460.0 1
511.66373 -297.095 2376.0 1
532.58356 -294.9693 2359.0 1
561.17944 -297.095 2376.0 1
594.0755 -301.2213 2409.0 1
111.44888 -395.13687 2917.0 1
139.50987 -388.6348 2869.0 1
169.40495 -388.6348 2869.0 1
189.8524 -370.21222 2733.0 1
216.57268 -367.23212 2711.0 1
241.02852 -361.5428 2669.0 1
262.79584 -353.4152 2609.0 1
285.647 -348.13223 2570.0 1
310.11655 -345.5585 2551.0 1
334.19016 -342.98477 2532.0 1
358.01038 -340.54648 2514.0 1
381.45532 -338.10822 2496.0 1
410.4022 -340.54648 2514.0 1
439.724 -342.98477 2532.0 1
466.10736 -342.98477 2532.0 1
492.4909 -342.98477 2532.0 1
486.90573 -321.853 2376.0 1
504.55728 -317.3828 2343.0 1
528.9713 -317.3828 2343.0 1
561.17944 -321.853 2376.0 1
79.71987 -418.52975 2869.0 1
111.44888 -425.53198 2917.0 1
140.67691 -422.03085 2893.0 1
166.62976 -411.67337 2822.0 1
188.32413 -395.4807 2711.0 1
216.57268 -395.4807 2711.0 1
242.92496 -392.4172 2690.0 1
264.81036 -383.51852 2629.0 1
287.7588 -377.68335 2589.0 1
310.11655 -372.1399 2551.0 1
334.19016 -369.36816 2532.0 1
360.5737 -369.36816 2532.0 1
386.9571 -369.36816 2532.0 1
413.3406 -369.36816 2532.0 1
439.724 -369.36816 2532.0 1
466.10736 -369.36816 2532.0 1
478.48642 -358.8648 2460.0 1
483.42197 -344.13095 2359.0 1
508.00284 -344.13095 2359.0 1
528.9713 -341.79684 2343.0 1
111.44888 -455.9271 2917.0 1
140.67691 -452.1759 2893.0 1
166.62976 -441.07858 2822.0 1
188.32413 -423.72928 2711.0 1
216.57268 -423.72928 2711.0 1
242.92496 -420.447 2690.0 1
264.81036 -410.9127 2629.0 1
289.98172 -407.78668 2609.0 1
317.16742 -407.78668 2609.0 1
339.20566 -401.69098 2570.0 1
363.27942 -398.72128 2551.0 1
386.9571 -395.7516 2532.0 1
413.3406 -395.7516 2532.0 1
443.02365 -398.72128 2551.0 1
466.10736 -395.7516 2532.0 1
462.14786 -371.3688 2376.0 1
480.14313 -366.2109 2343.0 1
504.55728 -366.2109 2343.0 1
528.9713 -366.2109 2343.0 1
140.67691 -482.32092 2893.0 1
163.97267 -462.9814 2777.0 1
188.32413 -451.97787 2711.0 1
216.57268 -451.97787 2711.0 1
242.92496 -448.47678 2690.0 1
264.81036 -438.30685 2629.0 1
289.98172 -434.97244 2609.0 1
317.16742 -434.97244 2609.0 1
341.7134 -431.63806 2589.0 1
363.27942 -425.30267 2551.0 1
389.86078 -425.30267 2551.0 1
416.44232 -425.30267 2551.0 1
443.02365 -425.30267 2551.0 1
462.7938 -419.13403 2514.0 1
455.72916 -390.62494 2343.0 1
480.14313 -390.62494 2343.0 1
504.55728 -390.62494 2343.0 1
135.03621 -491.91772 2777.0 1
162.6146 -487.8435 2754.0 1
188.32413 -480.22647 2711.0 1
216.57268 -480.22647 2711.0 1
242.92496 -476.50653 2690.0 1
266.8249 -469.2438 2649.0 1
292.20465 -465.701 2629.0 1
317.16742 -462.1582 2609.0 1
341.7134 -458.6154 2589.0 1
365.98517 -455.24973 2570.0 1
392.7645 -455.24973 2570.0 1
416.44232 -451.8841 2551.0 1
443.02365 -451.8841 2551.0 1
434.26038 -417.8732 2359.0 1
455.72916 -415.03897 2343.0 1
480.14313 -415.03897 2343.0 1
135.03621 -520.8542 2777.0 1
162.6146 -516.5403 2754.0 1
188.32413 -508.47522 2711.0 1
216.57268 -508.47522 2711.0 1
244.82141 -508.47522 2711.0 1
270.95468 -504.53644 2690.0 1
296.6505 -500.5977 2669.0 1
319.59875 -493.09528 2629.0 1
344.35315 -489.3441 2609.0 1
368.6909 -485.5929 2589.0 1
392.7645 -482.02924 2570.0 1
413.3406 -474.90195 2532.0 1
406.901 -439.45312 2343.0 1
431.315 -439.45312 2343.0 1
452.61703 -436.45215 2327.0 1
136.106 -554.14606 2799.0 1
162.6146 -545.23694 2754.0 1
189.8524 -541.07935 2733.0 1
216.57268 -536.7238 2711.0 1
246.80815 -541.07935 2733.0 1
273.06995 -536.7238 2711.0 1
301.31866 -536.7238 2711.0 1
322.0301 -524.44904 2649.0 1
344.35315 -516.52985 2609.0 1
368.6909 -512.57025 2589.0 1
392.7645 -508.80862 2570.0 1
385.09894 -467.03482 2359.0 1
404.1223 -460.69946 2327.0 1
431.315 -463.86716 2343.0 1
449.69943 -457.72977 2312.0 1
136.106 -583.3116 2799.0 1
162.6146 -573.9336 2754.0 1
189.8524 -569.5572 2733.0 1
218.33018 -569.5572 2733.0 1
250.78165 -578.7268 2777.0 1
277.40118 -573.9336 2754.0 1
308.65436 -578.7268 2777.0 1
327.0143 -560.596 2690.0 1
349.6326 -552.0516 2649.0 1
368.6909 -539.5476 2589.0 1
358.07285 -488.2812 2343.0 1
379.87506 -484.94678 2327.0 1
404.1223 -484.94678 2327.0 1
431.315 -488.2812 2343.0 1
511.35806 -547.8836 2629.0 1
135.03621 -607.6631 2777.0 1
162.6146 -602.63025 2754.0 1
191.3112 -602.63025 2754.0 1
218.33018 -598.03503 2733.0 1
248.70459 -602.63025 2754.0 1
279.71793 -607.6631 2777.0 1
308.65436 -607.6631 2777.0 1
332.2417 -598.03503 2733.0 1
355.04407 -588.62573 2690.0 1
331.38034 -509.19412 2327.0 1
353.3352 -505.9118 2312.0 1
377.42636 -505.9118 2312.0 1
401.51733 -505.9118 2312.0 1
491.32724 -584.0305 2669.0 1
515.24817 -579.6541 2649.0 1
106.9405 -641.6427 2799.0 1
136.106 -641.6427 2799.0 1
163.97267 -636.5994 2777.0 1
192.90894 -636.5994 2777.0 1
220.0078 -631.3269 2754.0 1
250.78165 -636.5994 2777.0 1
279.71793 -636.5994 2777.0 1
309.2447 -537.10925 2343.0 1
331.38034 -533.4414 2327.0 1
353.3352 -530.0028 2312.0 1
379.87506 -533.4414 2327.0 1
404.1223 -533.4414 2327.0 1
491.32724 -611.8415 2669.0 1
523.22296 -616.6555 2690.0 1
107.81925 -676.32056 2822.0 1
136.106 -670.8084 2799.0 1
165.2717 -670.8084 2799.0 1
194.4372 -670.8084 2799.0 1
221.8452 -665.5359 2777.0 1
250.78165 -665.5359 2777.0 1
279.71793 -665.5359 2777.0 1
309.2447 -561.52344 2343.0 1
329.24423 -554.09393 2312.0 1
353.3352 -554.09393 2312.0 1
377.42636 -554.09393 2312.0 1
474.63098 -654.99084 2733.0 1
495.19305 -644.6854 2690.0 1
523.22296 -644.6854 2690.0 1
108.698006 -711.4776 2845.0 1
136.106 -699.97394 2799.0 1
165.2717 -699.97394 2799.0 1
194.4372 -699.97394 2799.0 1
223.6027 -699.97394 2799.0 1
252.76839 -699.97394 2799.0 1
298.856 -741.98737 2967.0 1
327.10812 -574.4338 2297.0 1
351.04282 -574.4338 2297.0 1
377.42636 -578.185 2312.0 1
463.51633 -667.46356 2669.0 1
495.19305 -672.7152 2690.0 1
109.61496 -747.3745 2869.0 1
136.106 -729.13947 2799.0 1
165.2717 -729.13947 2799.0 1
194.4372 -729.13947 2799.0 1
223.6027 -729.13947 2799.0 1
254.84544 -735.131 2822.0 1
386.0645 -706.2155 2711.0 1
411.1037 -700.745 2690.0 1
439.1336 -700.745 2690.0 1
467.16333 -700.745 2690.0 1
503.10876 -711.9465 2733.0 1
544.4242 -729.13947 2799.0 1
107.81925 -764.5362 2822.0 1
137.22441 -764.5362 2822.0 1
166.62976 -764.5362 2822.0 1
196.03493 -764.5362 2822.0 1
225.4401 -764.5362 2822.0 1
389.19745 -740.4243 2733.0 1
414.31305 -734.46405 2711.0 1
442.56177 -734.46405 2711.0 1
470.81033 -734.46405 2711.0 1
499.05887 -734.46405 2711.0 1
540.145 -752.3448 2777.0 1
109.61496 -807.16437 2869.0 1
138.34282 -800.41223 2845.0 1
166.62976 -793.9414 2822.0 1
197.63266 -800.41223 2845.0 1
227.27748 -800.41223 2845.0 1
398.59628 -787.4706 2799.0 1
417.67523 -768.90216 2733.0 1
446.1532 -768.90216 2733.0 1
474.63098 -768.90216 2733.0 1
511.2086 -781.2811 2777.0 1
540.145 -781.2811 2777.0 1
560.0645 -768.90216 2733.0 1
110.53192 -844.0617 2893.0 1
139.50987 -837.0595 2869.0 1
167.98784 -830.05725 2845.0 1
199.29987 -837.0595 2869.0 1
229.19476 -837.0595 2869.0 1
420.88458 -803.5071 2754.0 1
449.5814 -803.5071 2754.0 1
482.27234 -810.2176 2777.0 1
511.2086 -810.2176 2777.0 1
540.145 -810.2176 2777.0 1
569.0813 -810.2176 2777.0 1
111.44888 -881.45905 2917.0 1
139.50987 -866.9544 2869.0 1
169.40495 -866.9544 2869.0 1
199.29987 -866.9544 2869.0 1
227.27748 -859.7021 2845.0 1
456.9275 -845.8018 2799.0 1
486.093 -845.8018 2799.0 1
511.2086 -839.1539 2777.0 1
544.4242 -845.8018 2799.0 1
578.303 -852.75195 2822.0 1
612.6613 -859.7021 2845.0 1
647.72455 -866.9544 2869.0 1
111.44888 -911.8542 2917.0 1
140.67691 -904.3518 2893.0 1
169.40495 -896.84937 2869.0 1
199.29987 -896.84937 2869.0 1
229.19476 -896.84937 2869.0 1
456.9275 -874.9674 2799.0 1
490.0873 -882.15717 2822.0 1
519.4925 -882.15717 2822.0 1
548.8978 -882.15717 2822.0 1
583.0163 -889.347 2845.0 1
617.82965 -896.84937 2869.0 1
82.44296 -958.40027 2967.0 1
111.44888 -942.24927 2917.0 1
140.67691 -934.4968 2893.0 1
169.40495 -926.7443 2869.0 1
200.96706 -934.4968 2893.0 1
498.24966 -926.7443 2869.0 1
528.14453 -926.7443 2869.0 1
553.3715 -918.9919 2845.0 1
587.9346 -926.7443 2869.0 1
622.998 -934.4968 2893.0 1
82.44296 -989.3164 2967.0 1
111.44888 -972.6444 2917.0 1
140.67691 -964.64185 2893.0 1
170.82208 -964.64185 2893.0 1
200.96706 -964.64185 2893.0 1
532.5626 -964.64185 2893.0 1
562.7078 -964.64185 2893.0 1
592.8528 -964.64185 2893.0 1
628.1663 -972.6444 2917.0 1
53.367767 -1056.6818 3073.0 1
82.44296 -1020.23267 2967.0 1
112.40405 -1011.63617 2942.0 1
141.84395 -1003.0397 2917.0 1
172.2392 -1003.0397 2917.0 1
202.63426 -1003.0397 2917.0 1
550.9713 -1029.173 2993.0 1
567.376 -1003.0397 2917.0 1
597.77106 -1003.0397 2917.0 1
633.55 -1011.63617 2942.0 1
664.2055 -1011.63617 2942.0 1
52.429966 -1069.5713 3019.0 1
82.44296 -1051.1488 2967.0 1
113.359215 -1051.1488 2967.0 1
143.05962 -1042.2917 2942.0 1
173.71536 -1042.2917 2942.0 1
555.75757 -1069.5713 3019.0 1
577.1013 -1051.1488 2967.0 1
602.8942 -1042.2917 2942.0 1
644.53265 -1060.3601 2993.0 1
51.526897 -1082.0648 2967.0 1
81.74829 -1072.9474 2942.0 1
113.359215 -1082.0648 2967.0 1
144.27528 -1082.0648 2967.0 1
565.69824 -1120.723 3073.0 1
582.1585 -1091.5471 2993.0 1
608.0174 -1082.0648 2967.0 1
644.53265 -1091.5471 2993.0 1
681.58954 -1101.0293 3019.0 1
51.526897 -1112.981 2967.0 1
81.74829 -1103.603 2942.0 1
112.40405 -1103.603 2942.0 1
144.27528 -1112.981 2967.0 1
181.45049 -1152.7437 3073.0 1
533.6777 -1152.7437 3073.0 1
555.75757 -1132.4872 3019.0 1
582.1585 -1122.7341 2993.0 1
613.34546 -1122.7341 2993.0 1
650.13165 -1132.4872 3019.0 1
681.58954 -1132.4872 3019.0 1
20.972067 -1163.9452 3019.0 1
51.526897 -1143.8971 2967.0 1
81.74829 -1134.2585 2942.0 1
112.40405 -1134.2585 2942.0 1
144.27528 -1143.8971 2967.0 1
176.72675 -1153.9211 2993.0 1
528.98865 -1174.3547 3046.0 1
550.9713 -1153.9211 2993.0 1
577.1013 -1143.8971 2967.0 1
608.0174 -1143.8971 2967.0 1
644.53265 -1153.9211 2993.0 1
693.78094 -1184.7643 3073.0 1
-10.218585 -1164.9143 2942.0 1
20.610838 -1174.8134 2967.0 1
51.526897 -1174.8134 2967.0 1
81.74829 -1164.9143 2942.0 1
113.359215 -1174.8134 2967.0 1
144.27528 -1174.8134 2967.0 1
577.1013 -1174.8134 2967.0 1
-9.965032 -1165.9042 2869.0 1
20.43717 -1195.57 2942.0 1
51.09273 -1195.57 2942.0 1
81.05363 -1185.4105 2917.0 1
113.359215 -1205.7295 2967.0 1
577.1013 -1205.7295 2967.0 1
