ply
format ascii 1.0
comment : created from Kinect user tracker
element vertex 242
property float x
property float y
property float z
property int userId
end_header
1373.3733 -26.581394 2551.0 1
1356.823 -53.558746 2570.0 1
1383.6023 -53.558746 2570.0 1
1339.8765 -80.93219 2589.0 1
1356.823 -80.33825 2570.0 1
1373.3733 -79.74431 2551.0 1
1323.0413 -108.74314 2609.0 1
1339.8765 -107.909546 2589.0 1
1356.823 -107.11762 2570.0 1
1363.1444 -105.53378 2532.0 1
1303.2642 -133.897 2570.0 1
1330.0435 -133.897 2570.0 1
1356.823 -133.897 2570.0 1
1373.3733 -132.9071 2551.0 1
1312.8992 -161.86426 2589.0 1
1339.8765 -161.86426 2589.0 1
1356.823 -160.67638 2570.0 1
1415.366 -164.36505 2629.0 1
1312.8992 -188.8416 2589.0 1
1330.0435 -187.45575 2570.0 1
1356.823 -187.45575 2570.0 1
1426.1333 -193.218 2649.0 1
1315.7229 -220.8207 2649.0 1
1312.8992 -215.81909 2589.0 1
1330.0435 -214.23524 2570.0 1
1377.4128 -217.48628 2609.0 1
1404.5986 -217.48628 2609.0 1
1285.9216 -242.79645 2589.0 1
1312.8992 -242.79645 2589.0 1
1350.227 -244.67204 2609.0 1
1398.5308 -248.42325 2649.0 1
1415.366 -246.54764 2629.0 1
1268.6697 -271.8578 2609.0 1
1276.4846 -267.794 2570.0 1
1303.2642 -267.794 2570.0 1
1381.2786 -278.1098 2669.0 1
1398.5308 -276.0258 2649.0 1
1415.366 -273.9418 2629.0 1
1268.6697 -299.04355 2609.0 1
1276.4846 -294.57336 2570.0 1
1312.8992 -296.75116 2589.0 1
1381.2786 -305.92075 2669.0 1
1398.5308 -303.62836 2649.0 1
1426.1333 -303.62836 2649.0 1
1241.484 -326.2293 2609.0 1
1258.9443 -323.72852 2589.0 1
1276.4846 -321.35275 2570.0 1
1312.8992 -323.72852 2589.0 1
1381.2786 -333.7317 2669.0 1
1398.5308 -331.2309 2649.0 1
1415.366 -328.7301 2629.0 1
1231.967 -350.706 2589.0 1
1258.9443 -350.706 2589.0 1
1276.4846 -348.13223 2570.0 1
1312.8992 -350.706 2589.0 1
1370.9281 -358.8336 2649.0 1
1387.9718 -356.1244 2629.0 1
1426.1333 -358.8336 2649.0 1
1232.9152 -386.43613 2649.0 1
1251.001 -383.51852 2629.0 1
1268.6697 -380.60095 2609.0 1
1276.4846 -374.91162 2570.0 1
1323.0413 -380.60095 2609.0 1
1370.9281 -386.43613 2649.0 1
1387.9718 -383.51852 2629.0 1
1426.1333 -386.43613 2649.0 1
1241.484 -407.78668 2609.0 1
1268.6697 -407.78668 2609.0 1
1285.9216 -404.6607 2589.0 1
1333.1835 -410.9127 2629.0 1
1370.9281 -414.0387 2649.0 1
1398.5308 -414.0387 2649.0 1
1404.5986 -407.78668 2609.0 1
1260.5178 -441.64124 2649.0 1
1268.6697 -434.97244 2609.0 1
1285.9216 -431.63806 2589.0 1
1353.4677 -444.97565 2669.0 1
1381.2786 -444.97565 2669.0 1
1398.5308 -441.64124 2649.0 1
1415.366 -438.30685 2629.0 1
1310.4818 -487.8435 2754.0 1
1328.9668 -484.12357 2733.0 1
1346.5175 -480.22647 2711.0 1
1364.117 -476.50653 2690.0 1
1381.2786 -472.7866 2669.0 1
1409.0897 -472.7866 2669.0 1
1426.1333 -469.2438 2649.0 1
1300.489 -512.6015 2733.0 1
1328.9668 -512.6015 2733.0 1
1336.087 -504.53644 2690.0 1
1353.4677 -500.5977 2669.0 1
1370.9281 -496.8465 2649.0 1
1398.5308 -496.8465 2649.0 1
1426.1333 -496.8465 2649.0 1
1292.4897 -549.79047 2777.0 1
1310.4818 -545.23694 2754.0 1
1328.9668 -541.07935 2733.0 1
1325.6566 -528.4086 2669.0 1
1353.4677 -528.4086 2669.0 1
1370.9281 -524.44904 2649.0 1
1398.5308 -524.44904 2649.0 1
1448.2063 -532.5662 2690.0 1
1302.7291 -583.3116 2799.0 1
1310.4818 -573.9336 2754.0 1
1339.1783 -573.9336 2754.0 1
1336.087 -560.596 2690.0 1
1364.117 -560.596 2690.0 1
1381.2786 -556.2196 2669.0 1
1409.0897 -556.2196 2669.0 1
1482.6617 -573.9336 2754.0 1
1284.0288 -617.51 2822.0 1
1292.4897 -607.6631 2777.0 1
1300.489 -598.03503 2733.0 1
1328.9668 -598.03503 2733.0 1
1357.4446 -598.03503 2733.0 1
1374.7662 -593.221 2711.0 1
1370.9281 -579.6541 2649.0 1
1284.0288 -646.9152 2822.0 1
1292.4897 -636.5994 2777.0 1
1300.489 -626.5129 2733.0 1
1328.9668 -626.5129 2733.0 1
1357.4446 -626.5129 2733.0 1
1374.7662 -621.4696 2711.0 1
1381.2786 -611.8415 2669.0 1
1284.0288 -676.32056 2822.0 1
1302.7291 -670.8084 2799.0 1
1300.489 -654.99084 2733.0 1
1328.9668 -654.99084 2733.0 1
1357.4446 -654.99084 2733.0 1
1385.9225 -654.99084 2733.0 1
1286.1891 -723.48145 2893.0 1
1273.5637 -699.97394 2799.0 1
1292.4897 -694.47217 2777.0 1
1300.489 -683.4686 2733.0 1
1328.9668 -683.4686 2733.0 1
1346.5175 -677.9669 2711.0 1
1385.9225 -683.4686 2733.0 1
1256.0442 -753.62646 2893.0 1
1286.1891 -753.62646 2893.0 1
1273.5637 -729.13947 2799.0 1
1292.4897 -723.4085 2777.0 1
1300.489 -711.9465 2733.0 1
1339.1783 -717.417 2754.0 1
1367.875 -717.417 2754.0 1
1256.0442 -783.77155 2893.0 1
1275.519 -777.2694 2869.0 1
1284.0288 -764.5362 2822.0 1
1292.4897 -752.3448 2777.0 1
1310.4818 -746.11365 2754.0 1
1339.1783 -746.11365 2754.0 1
1257.2565 -834.7357 2967.0 1
1266.4641 -820.6687 2917.0 1
1275.519 -807.16437 2869.0 1
1284.0288 -793.9414 2822.0 1
1302.7291 -787.4706 2799.0 1
1321.4263 -781.2811 2777.0 1
1236.0691 -851.06396 2917.0 1
1256.0442 -844.0617 2893.0 1
1275.519 -837.0595 2869.0 1
1294.494 -830.05725 2845.0 1
1335.3091 -837.0595 2869.0 1
1353.7838 -830.05725 2845.0 1
1502.0083 -830.05725 2845.0 1
1519.2708 -823.34674 2822.0 1
1236.0691 -881.45905 2917.0 1
1266.4641 -881.45905 2917.0 1
1286.1891 -874.2067 2893.0 1
1294.494 -859.7021 2845.0 1
1335.3091 -866.9544 2869.0 1
1514.6791 -866.9544 2869.0 1
1519.2708 -852.75195 2822.0 1
1247.8331 -943.7394 3019.0 1
1257.2565 -927.4842 2967.0 1
1256.0442 -904.3518 2893.0 1
1286.1891 -904.3518 2893.0 1
1294.494 -889.347 2845.0 1
1335.3091 -896.84937 2869.0 1
1514.6791 -896.84937 2869.0 1
1519.2708 -882.15717 2822.0 1
1237.0867 -966.7988 2993.0 1
1246.6627 -950.32477 2942.0 1
1266.4641 -942.24927 2917.0 1
1296.8593 -942.24927 2917.0 1
1316.3344 -934.4968 2893.0 1
1514.6791 -926.7443 2869.0 1
1519.2708 -911.5624 2822.0 1
1237.0867 -997.98584 2993.0 1
1246.6627 -980.9804 2942.0 1
1277.3184 -980.9804 2942.0 1
1296.8593 -972.6444 2917.0 1
1509.6252 -972.6444 2917.0 1
1502.0083 -948.6367 2845.0 1
1531.6532 -948.6367 2845.0 1
1216.3752 -1038.1134 3019.0 1
1237.0867 -1029.173 2993.0 1
1246.6627 -1011.63617 2942.0 1
1277.3184 -1011.63617 2942.0 1
1296.8593 -1003.0397 2917.0 1
1504.5854 -1020.23267 2967.0 1
1509.6252 -1003.0397 2917.0 1
1502.0083 -978.28174 2845.0 1
1544.574 -986.53436 2869.0 1
1205.8997 -1060.3601 2993.0 1
1226.3402 -1051.1488 2967.0 1
1246.6627 -1042.2917 2942.0 1
1288.1725 -1051.1488 2967.0 1
1307.9739 -1042.2917 2942.0 1
1491.9078 -1042.2917 2942.0 1
1509.6252 -1033.4348 2917.0 1
1540.0205 -1033.4348 2917.0 1
1570.4155 -1033.4348 2917.0 1
1216.3752 -1101.0293 3019.0 1
1226.3402 -1082.0648 2967.0 1
1236.0691 -1063.8298 2917.0 1
1299.4608 -1091.5471 2993.0 1
1491.9078 -1072.9474 2942.0 1
1509.6252 -1063.8298 2917.0 1
1540.0205 -1063.8298 2917.0 1
1583.8748 -1072.9474 2942.0 1
1195.5143 -1142.6155 3046.0 1
1195.4241 -1112.981 2967.0 1
1216.007 -1103.603 2942.0 1
1257.2565 -1112.981 2967.0 1
1346.3508 -1163.2471 3101.0 1
1504.5854 -1112.981 2967.0 1
1522.5634 -1103.603 2942.0 1
1540.0205 -1094.225 2917.0 1
1570.4155 -1094.225 2917.0 1
1184.9171 -1163.9452 3019.0 1
1195.4241 -1143.8971 2967.0 1
1216.007 -1134.2585 2942.0 1
1479.2301 -1124.6201 2917.0 1
1522.5634 -1134.2585 2942.0 1
1540.0205 -1124.6201 2917.0 1
1570.4155 -1124.6201 2917.0 1
1174.7125 -1185.1083 2993.0 1
1522.5634 -1164.9143 2942.0 1
1540.0205 -1155.0154 2917.0 1
1583.8748 -1164.9143 2942.0 1
1522.5634 -1195.57 2942.0 1
1553.2191 -1195.57 2942.0 1
1597.3339 -1205.7295 2967.0 1
