ply
format ascii 1.0
comment : created from Kinect user tracker
element vertex 509
property float x
property float y
property float z
property int userId
end_header
1276.4846 187.45581 2570.0 1
1312.8992 188.84167 2589.0 1
1339.8765 188.84167 2589.0 1
1356.823 187.45581 2570.0 1
1383.6023 187.45581 2570.0 1
1222.926 160.67638 2570.0 1
1258.9443 161.86426 2589.0 1
1276.4846 160.67638 2570.0 1
1293.6292 159.4885 2551.0 1
1320.2104 159.4885 2551.0 1
1346.792 159.4885 2551.0 1
1363.1444 158.30061 2532.0 1
1204.9896 134.8869 2589.0 1
1222.926 133.897 2570.0 1
1249.7053 133.897 2570.0 1
1267.0476 132.9071 2551.0 1
1293.6292 132.9071 2551.0 1
1320.2104 132.9071 2551.0 1
1336.761 131.91719 2532.0 1
1343.7632 130.0416 2496.0 1
1196.2125 109.576744 2629.0 1
1214.2981 108.74314 2609.0 1
1222.926 107.11762 2570.0 1
1249.7053 107.11762 2570.0 1
1267.0476 106.32571 2551.0 1
1293.6292 106.32571 2551.0 1
1301.062 104.78355 2514.0 1
1336.761 105.53378 2532.0 1
1353.4537 104.78355 2514.0 1
1195.938 84.089386 2690.0 1
1196.2125 82.182526 2629.0 1
1204.9896 80.93213 2589.0 1
1222.926 80.33819 2570.0 1
1249.7053 80.33819 2570.0 1
1267.0476 79.74425 2551.0 1
1293.6292 79.74425 2551.0 1
1310.3774 79.15031 2532.0 1
1327.2579 78.58762 2514.0 1
1353.4537 78.58762 2514.0 1
1167.9083 56.059612 2690.0 1
1177.71 55.205173 2649.0 1
1196.2125 54.788372 2629.0 1
1204.9896 53.954773 2589.0 1
1222.926 53.55881 2570.0 1
1249.7053 53.55881 2570.0 1
1276.4846 53.55881 2570.0 1
1293.6292 53.162853 2551.0 1
1310.3774 52.76689 2532.0 1
1327.2579 52.391773 2514.0 1
1343.7632 52.01665 2496.0 1
1150.1074 27.602552 2649.0 1
1177.71 27.602552 2649.0 1
1196.2125 27.394154 2629.0 1
1214.2981 27.185753 2609.0 1
1231.967 26.977354 2589.0 1
1258.9443 26.977354 2589.0 1
1276.4846 26.779373 2570.0 1
1293.6292 26.581394 2551.0 1
1310.3774 26.383415 2532.0 1
1327.2579 26.195854 2514.0 1
1343.7632 26.008295 2496.0 1
1177.0258 0.0 2711.0 1
1186.6017 0.0 2669.0 1
1205.3126 0.0 2649.0 1
1223.6067 0.0 2629.0 1
1241.484 0.0 2609.0 1
1258.9443 0.0 2589.0 1
1276.4846 0.0 2570.0 1
1283.9941 0.0 2532.0 1
1310.3774 0.0 2532.0 1
1327.2579 0.0 2514.0 1
1343.7632 0.0 2496.0 1
1147.8081 -28.936312 2777.0 1
1158.0997 -28.477833 2733.0 1
1177.0258 -28.248592 2711.0 1
1195.938 -28.029772 2690.0 1
1223.9679 -28.029772 2690.0 1
1242.2238 -27.810953 2669.0 1
1251.001 -27.394154 2629.0 1
1268.6697 -27.185753 2609.0 1
1276.4846 -26.779373 2570.0 1
1283.9941 -26.383415 2532.0 1
1301.062 -26.195854 2514.0 1
1327.2579 -26.195854 2514.0 1
1353.4537 -26.195854 2514.0 1
1147.8081 -57.872623 2777.0 1
1166.9984 -57.393303 2754.0 1
1177.0258 -56.497185 2711.0 1
1205.2744 -56.497185 2711.0 1
1233.5231 -56.497185 2711.0 1
1251.9977 -56.059544 2690.0 1
1260.5178 -55.205105 2649.0 1
1268.6697 -54.371506 2609.0 1
1285.9216 -53.95471 2589.0 1
1303.2642 -53.558746 2570.0 1
1310.3774 -52.76683 2532.0 1
1327.2579 -52.39171 2514.0 1
1353.4537 -52.39171 2514.0 1
1137.0027 -88.215775 2822.0 1
1156.9012 -87.496796 2799.0 1
1158.0997 -85.43363 2733.0 1
1186.5775 -85.43363 2733.0 1
1195.938 -84.089455 2690.0 1
1243.5332 -85.43363 2733.0 1
1261.7716 -84.74591 2711.0 1
1260.5178 -82.80779 2649.0 1
1278.395 -82.182594 2629.0 1
1285.9216 -80.93219 2589.0 1
1303.2642 -80.33825 2570.0 1
1310.3774 -79.15037 2532.0 1
1336.761 -79.15037 2532.0 1
1353.4537 -78.58769 2514.0 1
1127.7357 -116.662346 2799.0 1
1138.3016 -114.78674 2754.0 1
1158.0997 -113.91147 2733.0 1
1195.695 -114.78674 2754.0 1
1244.398 -116.662346 2799.0 1
1243.5332 -113.91147 2733.0 1
1261.7716 -112.99451 2711.0 1
1260.5178 -110.41035 2649.0 1
1278.395 -109.576744 2629.0 1
1295.8555 -108.74314 2609.0 1
1303.2642 -107.11762 2570.0 1
1320.2104 -106.32571 2551.0 1
1336.761 -105.53378 2532.0 1
1353.4537 -104.78355 2514.0 1
1127.7357 -145.8279 2799.0 1
1138.3016 -143.4834 2754.0 1
1158.0997 -142.3893 2733.0 1
1195.695 -143.4834 2754.0 1
1234.6171 -144.6817 2777.0 1
1243.5332 -142.3893 2733.0 1
1242.2238 -139.0549 2669.0 1
1260.5178 -138.0129 2649.0 1
1288.1204 -138.0129 2649.0 1
1305.7892 -136.9709 2629.0 1
1312.8992 -134.8869 2589.0 1
1330.0435 -133.897 2570.0 1
1346.792 -132.9071 2551.0 1
1353.4537 -130.9794 2514.0 1
1107.5973 -176.43141 2822.0 1
1127.7357 -174.99345 2799.0 1
1138.3016 -172.18005 2754.0 1
1158.0997 -170.86713 2733.0 1
1215.2324 -174.99345 2799.0 1
1234.6171 -173.61801 2777.0 1
1243.5332 -170.86713 2733.0 1
1261.7716 -169.49168 2711.0 1
1270.0348 -166.86584 2669.0 1
1297.8457 -166.86584 2669.0 1
1305.7892 -164.36505 2629.0 1
1312.8992 -161.86426 2589.0 1
1339.8765 -161.86426 2589.0 1
1356.823 -160.67638 2570.0 1
1363.1444 -158.30061 2532.0 1
1127.7357 -204.159 2799.0 1
1138.3016 -200.87671 2754.0 1
1186.067 -204.159 2799.0 1
1215.2324 -204.159 2799.0 1
1224.3916 -200.87671 2754.0 1
1233.5231 -197.74028 2711.0 1
1251.9977 -196.20854 2690.0 1
1260.5178 -193.218 2649.0 1
1297.8457 -194.6768 2669.0 1
1315.7229 -193.218 2649.0 1
1323.0413 -190.3004 2609.0 1
1339.8765 -188.8416 2589.0 1
1356.823 -187.45575 2570.0 1
1373.3733 -186.06989 2551.0 1
1098.5701 -233.32469 2799.0 1
1109.605 -229.57349 2754.0 1
1147.8081 -231.49077 2777.0 1
1186.067 -233.32469 2799.0 1
1215.2324 -233.32469 2799.0 1
1224.3916 -229.57349 2754.0 1
1243.5332 -227.82294 2733.0 1
1261.7716 -225.98901 2711.0 1
1270.0348 -222.48788 2669.0 1
1297.8457 -222.48788 2669.0 1
1305.7892 -219.15349 2629.0 1
1323.0413 -217.48628 2609.0 1
1339.8765 -215.81909 2589.0 1
1356.823 -214.23524 2570.0 1
1383.6023 -214.23524 2570.0 1
1089.9354 -260.4271 2777.0 1
1109.605 -258.27014 2754.0 1
1138.3016 -258.27014 2754.0 1
1186.067 -262.49023 2799.0 1
1215.2324 -262.49023 2799.0 1
1224.3916 -258.27014 2754.0 1
1243.5332 -256.30075 2733.0 1
1251.9977 -252.26822 2690.0 1
1260.5178 -248.42325 2649.0 1
1297.8457 -250.29884 2669.0 1
1315.7229 -248.42325 2649.0 1
1333.1835 -246.54764 2629.0 1
1339.8765 -242.79645 2589.0 1
1356.823 -241.01462 2570.0 1
1393.8313 -242.79645 2589.0 1
1080.9082 -286.9668 2754.0 1
1101.1439 -284.7786 2733.0 1
1138.3016 -286.9668 2754.0 1
1195.8131 -294.0524 2822.0 1
1215.2324 -291.6558 2799.0 1
1224.3916 -286.9668 2754.0 1
1243.5332 -284.7786 2733.0 1
1251.9977 -280.298 2690.0 1
1270.0348 -278.1098 2669.0 1
1297.8457 -278.1098 2669.0 1
1315.7229 -276.0258 2649.0 1
1343.3256 -276.0258 2649.0 1
1350.227 -271.8578 2609.0 1
1366.854 -269.7738 2589.0 1
1393.8313 -269.7738 2589.0 1
1089.9354 -318.2997 2777.0 1
1109.605 -315.66345 2754.0 1
1147.8081 -318.2997 2777.0 1
1195.8131 -323.4576 2822.0 1
1215.2324 -320.82135 2799.0 1
1224.3916 -315.66345 2754.0 1
1243.5332 -313.25644 2733.0 1
1261.7716 -310.7348 2711.0 1
1280.0276 -308.32776 2690.0 1
1297.8457 -305.92075 2669.0 1
1315.7229 -303.62836 2649.0 1
1343.3256 -303.62836 2649.0 1
1360.5775 -301.33594 2629.0 1
1377.4128 -299.04355 2609.0 1
1404.5986 -299.04355 2609.0 1
1080.9082 -344.3601 2754.0 1
1101.1439 -341.73425 2733.0 1
1156.9012 -349.9869 2799.0 1
1195.8131 -352.86282 2822.0 1
1215.2324 -349.9869 2799.0 1
1234.6171 -347.23602 2777.0 1
1253.0884 -344.3601 2754.0 1
1272.011 -341.73425 2733.0 1
1280.0276 -336.35754 2690.0 1
1318.2689 -338.98337 2711.0 1
1325.6566 -333.7317 2669.0 1
1343.3256 -331.2309 2649.0 1
1370.9281 -331.2309 2649.0 1
1387.9718 -328.7301 2629.0 1
1404.5986 -326.2293 2609.0 1
1078.1921 -382.26816 2822.0 1
1080.9082 -373.0569 2754.0 1
1101.1439 -370.21222 2733.0 1
1138.3016 -373.0569 2754.0 1
1186.067 -379.1526 2799.0 1
1205.6808 -376.17245 2777.0 1
1234.6171 -376.17245 2777.0 1
1243.5332 -370.21222 2733.0 1
1272.011 -370.21222 2733.0 1
1290.0204 -367.23212 2711.0 1
1318.2689 -367.23212 2711.0 1
1336.087 -364.38745 2690.0 1
1353.4677 -361.5428 2669.0 1
1381.2786 -361.5428 2669.0 1
1398.5308 -358.8336 2649.0 1
1426.1333 -358.8336 2649.0 1
1096.1493 -418.52975 2869.0 1
1089.9354 -405.1088 2777.0 1
1109.605 -401.75354 2754.0 1
1138.3016 -401.75354 2754.0 1
1186.067 -408.31815 2799.0 1
1205.6808 -405.1088 2777.0 1
1215.0553 -398.69006 2733.0 1
1243.5332 -398.69006 2733.0 1
1281.785 -401.75354 2754.0 1
1300.489 -398.69006 2733.0 1
1328.9668 -398.69006 2733.0 1
1346.5175 -395.4807 2711.0 1
1353.4677 -389.35373 2669.0 1
1381.2786 -389.35373 2669.0 1
1409.0897 -389.35373 2669.0 1
1436.9006 -389.35373 2669.0 1
1089.9354 -434.0451 2777.0 1
1101.1439 -427.16788 2733.0 1
1147.8081 -434.0451 2777.0 1
1186.067 -437.4837 2799.0 1
1215.2324 -437.4837 2799.0 1
1234.6171 -434.0451 2777.0 1
1263.5535 -434.0451 2777.0 1
1272.011 -427.16788 2733.0 1
1310.4818 -430.4502 2754.0 1
1339.1783 -430.4502 2754.0 1
1346.5175 -423.72928 2711.0 1
1364.117 -420.447 2690.0 1
1403.0148 -423.72928 2711.0 1
1420.1766 -420.447 2690.0 1
1436.9006 -417.1647 2669.0 1
1107.5973 -470.4838 2822.0 1
1101.1439 -455.64572 2733.0 1
1147.8081 -462.9814 2777.0 1
1186.067 -466.64923 2799.0 1
1215.2324 -466.64923 2799.0 1
1244.398 -466.64923 2799.0 1
1263.5535 -462.9814 2777.0 1
1281.785 -459.14685 2754.0 1
1300.489 -455.64572 2733.0 1
1339.1783 -459.14685 2754.0 1
1357.4446 -455.64572 2733.0 1
1385.9225 -455.64572 2733.0 1
1414.4003 -455.64572 2733.0 1
1420.1766 -448.47678 2690.0 1
1436.9006 -444.97565 2669.0 1
1105.3188 -512.46594 2893.0 1
1135.4639 -512.46594 2893.0 1
1137.0027 -499.889 2822.0 1
1156.9012 -495.8148 2799.0 1
1186.067 -495.8148 2799.0 1
1225.2183 -499.889 2822.0 1
1244.398 -495.8148 2799.0 1
1273.5637 -495.8148 2799.0 1
1292.4897 -491.91772 2777.0 1
1300.489 -484.12357 2733.0 1
1339.1783 -487.8435 2754.0 1
1357.4446 -484.12357 2733.0 1
1385.9225 -484.12357 2733.0 1
1414.4003 -484.12357 2733.0 1
1409.0897 -472.7866 2669.0 1
1448.2063 -476.50653 2690.0 1
1135.4639 -542.61115 2893.0 1
1155.9392 -538.1097 2869.0 1
1166.4078 -529.2944 2822.0 1
1195.8131 -529.2944 2822.0 1
1225.2183 -529.2944 2822.0 1
1254.6235 -529.2944 2822.0 1
1273.5637 -524.98047 2799.0 1
1292.4897 -520.8542 2777.0 1
1321.4263 -520.8542 2777.0 1
1339.1783 -516.5403 2754.0 1
1357.4446 -512.6015 2733.0 1
1385.9225 -512.6015 2733.0 1
1414.4003 -512.6015 2733.0 1
1431.2634 -508.47522 2711.0 1
1448.2063 -504.53644 2690.0 1
1133.5918 -587.4067 2967.0 1
1144.8835 -577.5077 2917.0 1
1165.609 -572.75616 2893.0 1
1185.8341 -568.00464 2869.0 1
1205.5593 -563.2531 2845.0 1
1225.2183 -558.6996 2822.0 1
1254.6235 -558.6996 2822.0 1
1284.0288 -558.6996 2822.0 1
1313.434 -558.6996 2822.0 1
1372.2445 -558.6996 2822.0 1
1367.875 -545.23694 2754.0 1
1385.9225 -541.07935 2733.0 1
1403.0148 -536.7238 2711.0 1
1431.2634 -536.7238 2711.0 1
1459.512 -536.7238 2711.0 1
1143.5255 -623.7412 2993.0 1
1144.8835 -607.9028 2917.0 1
1165.609 -602.9012 2893.0 1
1195.754 -602.9012 2893.0 1
1205.5593 -592.898 2845.0 1
1245.6241 -597.8996 2869.0 1
1275.519 -597.8996 2869.0 1
1383.4286 -592.898 2845.0 1
1379.2988 -578.7268 2777.0 1
1396.5718 -573.9336 2754.0 1
1414.4003 -569.5572 2733.0 1
1431.2634 -564.9724 2711.0 1
1459.512 -564.9724 2711.0 1
1133.5918 -649.2389 2967.0 1
1144.8835 -638.2979 2917.0 1
1175.2788 -638.2979 2917.0 1
1195.754 -633.0462 2893.0 1
1215.7292 -627.79456 2869.0 1
1245.6241 -627.79456 2869.0 1
1401.6497 -617.51 2822.0 1
1396.5718 -602.63025 2754.0 1
1414.4003 -598.03503 2733.0 1
1442.8783 -598.03503 2733.0 1
1448.2063 -588.62573 2690.0 1
1133.5918 -680.155 2967.0 1
1144.8835 -668.693 2917.0 1
1175.2788 -668.693 2917.0 1
1195.754 -663.1912 2893.0 1
1225.8992 -663.1912 2893.0 1
1256.0442 -663.1912 2893.0 1
1401.6497 -646.9152 2822.0 1
1408.2352 -636.5994 2777.0 1
1425.2684 -631.3269 2754.0 1
1442.8783 -626.5129 2733.0 1
1459.512 -621.4696 2711.0 1
1122.0013 -723.53357 3019.0 1
1133.5918 -711.0713 2967.0 1
1144.8835 -699.08826 2917.0 1
1175.2788 -699.08826 2917.0 1
1205.6738 -699.08826 2917.0 1
1236.0691 -699.08826 2917.0 1
1266.4641 -699.08826 2917.0 1
1401.6497 -676.32056 2822.0 1
1408.2352 -665.5359 2777.0 1
1425.2684 -660.0237 2754.0 1
1442.8783 -654.99084 2733.0 1
1459.512 -649.7183 2711.0 1
1110.0494 -768.49585 3073.0 1
1132.0358 -761.7437 3046.0 1
1143.5255 -748.48944 2993.0 1
1164.5078 -741.98737 2967.0 1
1195.4241 -741.98737 2967.0 1
1216.007 -735.73535 2942.0 1
1236.0691 -729.4834 2917.0 1
1413.0735 -711.4776 2845.0 1
1419.3916 -699.97394 2799.0 1
1425.2684 -688.72034 2754.0 1
1453.9652 -688.72034 2754.0 1
1471.3561 -683.4686 2733.0 1
1130.2782 -815.1045 3129.0 1
1152.4763 -807.8105 3101.0 1
1153.4592 -786.44946 3019.0 1
1174.7125 -779.6765 2993.0 1
1205.8997 -779.6765 2993.0 1
1448.835 -759.8785 2917.0 1
1431.055 -735.131 2822.0 1
1448.5571 -729.13947 2799.0 1
1453.9652 -717.417 2754.0 1
1471.3561 -711.9465 2733.0 1
1130.2782 -847.7086 3129.0 1
1152.4763 -840.12286 3101.0 1
1174.0908 -832.5371 3073.0 1
1195.5143 -825.2223 3046.0 1
1216.3752 -817.9074 3019.0 1
1442.7185 -770.76733 2845.0 1
1448.5571 -758.30505 2799.0 1
1453.9652 -746.11365 2754.0 1
1471.3561 -740.4243 2733.0 1
1152.4763 -872.43524 3101.0 1
1184.7887 -872.43524 3101.0 1
1217.1011 -872.43524 3101.0 1
1216.3752 -849.36536 3019.0 1
1442.7185 -800.41223 2845.0 1
1448.5571 -787.4706 2799.0 1
1466.1079 -781.2811 2777.0 1
1482.6617 -774.8103 2754.0 1
1140.3926 -921.08636 3157.0 1
1162.8824 -912.9171 3129.0 1
1184.7887 -904.7478 3101.0 1
1228.0907 -912.9171 3129.0 1
1249.4136 -904.7478 3101.0 1
1454.889 -837.0595 2869.0 1
1460.4602 -823.34674 2822.0 1
1477.7228 -816.6363 2799.0 1
1495.0442 -810.2176 2777.0 1
1160.8193 -999.91364 3309.0 1
1150.868 -962.7455 3186.0 1
1173.2886 -953.9823 3157.0 1
1206.1844 -953.9823 3157.0 1
1228.0907 -945.52124 3129.0 1
1454.889 -866.9544 2869.0 1
1460.4602 -852.75195 2822.0 1
1489.8656 -852.75195 2822.0 1
1519.2708 -852.75195 2822.0 1
1138.7185 -1014.6996 3246.0 1
1161.705 -1005.3216 3216.0 1
1184.0663 -995.9436 3186.0 1
1206.1844 -986.8782 3157.0 1
1217.1011 -969.37256 3101.0 1
1442.7185 -889.347 2845.0 1
1460.4602 -882.15717 2822.0 1
1502.0083 -889.347 2845.0 1
1519.2708 -882.15717 2822.0 1
1128.1942 -1038.8323 3216.0 1
1161.705 -1038.8323 3216.0 1
1184.0663 -1029.1417 3186.0 1
1206.1844 -1019.7741 3157.0 1
1262.237 -1038.8323 3216.0 1
1479.2301 -942.24927 2917.0 1
1472.3633 -918.9919 2845.0 1
1502.0083 -918.9919 2845.0 1
1519.2708 -911.5624 2822.0 1
1161.705 -1072.3429 3216.0 1
1195.2157 -1072.3429 3216.0 1
1228.7263 -1072.3429 3216.0 1
1467.0596 -964.64185 2893.0 1
1472.3633 -948.6367 2845.0 1
1502.0083 -948.6367 2845.0 1
1531.6532 -948.6367 2845.0 1
1479.2301 -1003.0397 2917.0 1
1484.7839 -986.53436 2869.0 1
1514.6791 -986.53436 2869.0 1
1531.6532 -978.28174 2845.0 1
1499.497 -1069.5713 3019.0 1
1467.0596 -1024.932 2893.0 1
1497.2046 -1024.932 2893.0 1
1514.6791 -1016.4293 2869.0 1
1570.4155 -1033.4348 2917.0 1
1479.2301 -1063.8298 2917.0 1
1509.6252 -1063.8298 2917.0 1
1527.3497 -1055.077 2893.0 1
1583.8748 -1072.9474 2942.0 1
1491.9078 -1103.603 2942.0 1
1509.6252 -1094.225 2917.0 1
1540.0205 -1094.225 2917.0 1
1583.8748 -1103.603 2942.0 1
1491.9078 -1134.2585 2942.0 1
1509.6252 -1124.6201 2917.0 1
1540.0205 -1124.6201 2917.0 1
1570.4155 -1124.6201 2917.0 1
1491.9078 -1164.9143 2942.0 1
1522.5634 -1164.9143 2942.0 1
1540.0205 -1155.0154 2917.0 1
1570.4155 -1155.0154 2917.0 1
1522.5634 -1195.57 2942.0 1
1540.0205 -1185.4105 2917.0 1
1583.8748 -1195.57 2942.0 1
