ply
format ascii 1.0
comment : created from Kinect user tracker
element vertex 776
property float x
property float y
property float z
property int userId
end_header
447.3375 256.56122 1894.0 1
427.60205 236.82576 1894.0 1
442.37756 234.19992 1873.0 1
464.36038 235.45033 1883.0 1
486.80847 236.82576 1894.0 1
539.9609 234.19992 1873.0 1
568.7375 238.07617 1904.0 1
407.86664 217.09026 1894.0 1
425.11862 215.82944 1883.0 1
442.37756 214.68324 1873.0 1
456.96216 212.39084 1853.0 1
490.22977 210.09843 1833.0 1
509.3296 210.09843 1833.0 1
531.31226 211.24464 1843.0 1
550.5164 211.24464 1843.0 1
572.8117 212.39084 1853.0 1
601.7064 215.82944 1883.0 1
385.8769 196.2086 1883.0 1
407.86664 197.3548 1894.0 1
422.86096 195.1666 1873.0 1
442.37756 195.1666 1873.0 1
456.96216 193.0826 1853.0 1
476.2704 193.0826 1853.0 1
492.90424 192.0406 1843.0 1
506.8288 190.06079 1824.0 1
525.83484 190.06079 1824.0 1
553.5035 193.0826 1853.0 1
566.62915 190.9986 1833.0 1
588.92456 192.0406 1843.0 1
635.18585 200.58499 1925.0 1
380.8441 183.62126 1958.0 1
388.13107 177.61934 1894.0 1
403.34436 175.64995 1873.0 1
422.86096 175.64995 1873.0 1
440.01572 174.71216 1863.0 1
454.4961 172.83655 1843.0 1
473.7001 172.83655 1843.0 1
490.22977 171.89876 1833.0 1
512.1083 172.83655 1843.0 1
531.31226 172.83655 1843.0 1
544.841 171.05473 1824.0 1
563.847 171.05473 1824.0 1
595.3155 174.71216 1863.0 1
635.18585 180.52652 1925.0 1
376.5649 161.38495 1936.0 1
385.8769 156.96687 1883.0 1
403.34436 156.13327 1873.0 1
422.86096 156.13327 1873.0 1
437.65384 154.46606 1853.0 1
454.4961 153.63246 1843.0 1
473.7001 153.63246 1843.0 1
490.22977 152.79887 1833.0 1
514.8869 154.46606 1853.0 1
525.83484 152.04863 1824.0 1
550.5164 153.63246 1843.0 1
582.08545 156.96687 1883.0 1
372.4803 139.6801 1915.0 1
385.8769 137.34602 1883.0 1
401.1909 135.88722 1863.0 1
422.86096 136.61662 1873.0 1
435.29196 134.42842 1843.0 1
456.96216 135.15782 1853.0 1
473.7001 134.42842 1843.0 1
485.1483 132.31317 1814.0 1
509.3296 133.69902 1833.0 1
528.4294 133.69902 1833.0 1
556.49054 135.88722 1863.0 1
582.08545 137.34602 1883.0 1
360.44162 122.41414 1958.0 1
374.42535 120.350975 1925.0 1
385.8769 117.725136 1883.0 1
401.1909 116.47474 1863.0 1
420.6033 116.47474 1863.0 1
440.01572 116.47474 1863.0 1
456.96216 115.84954 1853.0 1
471.12985 114.59914 1833.0 1
490.22977 114.59914 1833.0 1
506.8288 114.03646 1824.0 1
528.4294 114.59914 1833.0 1
559.4776 117.09994 1873.0 1
585.4859 118.41286 1894.0 1
354.3668 100.292496 1925.0 1
372.4803 99.7715 1915.0 1
390.18033 99.198395 1904.0 1
403.34436 97.5833 1873.0 1
422.86096 97.5833 1873.0 1
440.01572 97.0623 1863.0 1
456.96216 96.5413 1853.0 1
473.7001 96.0203 1843.0 1
490.22977 95.4993 1833.0 1
512.1083 96.0203 1843.0 1
537.078 97.0623 1863.0 1
568.7375 99.198395 1904.0 1
598.4692 100.8656 1936.0 1
615.1274 100.292496 1925.0 1
356.39172 80.6925 1936.0 1
374.42535 80.23402 1925.0 1
390.18033 79.358734 1904.0 1
403.34436 78.06666 1873.0 1
422.86096 78.06666 1873.0 1
437.65384 77.233055 1853.0 1
456.96216 77.233055 1853.0 1
481.41092 78.06666 1873.0 1
495.5787 77.233055 1853.0 1
514.8869 77.233055 1853.0 1
542.84375 78.48346 1883.0 1
578.29614 80.6925 1936.0 1
601.86957 81.15098 1947.0 1
354.3668 60.175488 1925.0 1
374.42535 60.175488 1925.0 1
390.18033 59.519028 1904.0 1
410.0201 59.519028 1904.0 1
425.11862 58.862568 1883.0 1
442.37756 58.54997 1873.0 1
456.96216 57.92477 1853.0 1
481.41092 58.54997 1873.0 1
503.6021 58.862568 1883.0 1
526.2795 59.20643 1894.0 1
548.89777 59.519028 1904.0 1
578.29614 60.51935 1936.0 1
338.90012 43.26385 2076.0 1
354.10632 42.49277 2039.0 1
368.72552 41.74253 2003.0 1
380.8441 40.80473 1958.0 1
394.4838 40.11701 1925.0 1
412.38892 39.908607 1915.0 1
425.11862 39.24173 1883.0 1
444.73944 39.24173 1883.0 1
464.36038 39.24173 1883.0 1
486.80847 39.47097 1894.0 1
512.1604 39.908607 1915.0 1
529.0581 39.679367 1904.0 1
554.9518 40.11701 1925.0 1
584.8677 40.80473 1958.0 1
301.04773 22.027859 2114.0 1
317.26813 21.631899 2076.0 1
332.86002 21.246359 2039.0 1
349.93832 20.996279 2015.0 1
364.49155 20.63158 1980.0 1
382.98364 20.51696 1969.0 1
396.738 20.1731 1936.0 1
414.5424 20.058481 1925.0 1
432.34317 19.95428 1915.0 1
447.3375 19.73546 1894.0 1
477.4305 20.1731 1936.0 1
497.60358 20.1731 1936.0 1
517.7768 20.1731 1936.0 1
537.9498 20.1731 1936.0 1
561.29407 20.28772 1947.0 1
280.73557 0.0 2127.0 1
295.63626 0.0 2076.0 1
311.61353 0.0 2039.0 1
328.94208 0.0 2015.0 1
345.944 0.0 1992.0 1
360.44162 0.0 1958.0 1
376.5649 0.0 1936.0 1
392.43454 0.0 1915.0 1
410.0201 0.0 1904.0 1
434.60083 0.0 1925.0 1
454.65927 0.0 1925.0 1
477.4305 0.0 1936.0 1
497.60358 0.0 1936.0 1
280.73557 -22.163319 2127.0 1
293.78497 -21.496439 2063.0 1
307.9457 -20.996279 2015.0 1
326.98312 -20.87124 2003.0 1
341.94965 -20.51696 1969.0 1
354.3668 -20.058481 1925.0 1
374.42535 -20.058481 1925.0 1
392.43454 -19.95428 1915.0 1
407.86664 -19.73546 1894.0 1
429.8597 -19.83966 1904.0 1
452.2974 -19.95428 1915.0 1
474.71786 -20.058481 1925.0 1
261.73303 -44.868477 2153.0 1
277.30392 -43.784798 2101.0 1
292.07608 -42.742798 2051.0 1
307.9457 -41.992558 2015.0 1
326.98312 -41.74248 2003.0 1
338.129 -40.57544 1947.0 1
354.3668 -40.116962 1925.0 1
370.3407 -39.67932 1904.0 1
385.8769 -39.24168 1883.0 1
403.34436 -39.033283 1873.0 1
422.86096 -39.033283 1873.0 1
444.73944 -39.24168 1883.0 1
474.71786 -40.116962 1925.0 1
261.73303 -67.30282 2153.0 1
272.28842 -64.48942 2063.0 1
290.36722 -63.739178 2039.0 1
306.1118 -62.61382 2003.0 1
323.22845 -61.894836 1980.0 1
336.21866 -60.519398 1936.0 1
350.50095 -59.519077 1904.0 1
366.25607 -58.862617 1883.0 1
381.77835 -58.237415 1863.0 1
399.0374 -57.924816 1853.0 1
418.3456 -57.924816 1853.0 1
440.01572 -58.237415 1863.0 1
464.36038 -58.862617 1883.0 1
494.7763 -60.175537 1925.0 1
258.5723 -88.65338 2127.0 1
272.28842 -85.985855 2063.0 1
286.94946 -83.98522 2015.0 1
306.1118 -83.48506 2003.0 1
321.43274 -82.06794 1969.0 1
334.30832 -80.23402 1925.0 1
348.6601 -78.94194 1894.0 1
364.311 -78.06666 1873.0 1
377.6798 -76.81625 1843.0 1
396.88394 -76.81625 1843.0 1
416.08795 -76.81625 1843.0 1
432.9301 -76.39946 1833.0 1
452.03003 -76.39946 1833.0 1
473.7001 -76.81625 1843.0 1
258.5723 -110.816696 2127.0 1
272.28842 -107.4823 2063.0 1
286.94946 -104.9815 2015.0 1
304.4307 -103.783195 1992.0 1
319.63702 -102.011795 1958.0 1
332.57166 -99.7715 1915.0 1
344.79428 -97.5833 1873.0 1
360.42087 -96.5413 1853.0 1
377.6798 -96.0203 1843.0 1
394.73047 -95.4993 1833.0 1
413.8303 -95.4993 1833.0 1
428.44257 -94.5094 1814.0 1
447.3445 -94.5094 1814.0 1
466.24634 -94.5094 1814.0 1
490.22977 -95.4993 1833.0 1
242.41093 -136.3561 2181.0 1
260.15265 -133.79277 2140.0 1
272.28842 -128.97874 2063.0 1
286.94946 -125.977776 2015.0 1
304.4307 -124.53982 1992.0 1
316.0456 -121.0387 1936.0 1
330.66132 -119.038055 1904.0 1
344.79428 -117.09994 1873.0 1
360.42087 -115.84954 1853.0 1
375.63055 -114.59914 1833.0 1
392.79236 -114.03646 1824.0 1
409.54074 -113.41126 1814.0 1
426.0807 -112.78606 1804.0 1
442.659 -112.22338 1795.0 1
463.6761 -112.78606 1804.0 1
485.1483 -113.41126 1814.0 1
504.0501 -113.41126 1814.0 1
245.4119 -161.05147 2208.0 1
256.99194 -154.19511 2114.0 1
272.28842 -150.47517 2063.0 1
286.94946 -146.97406 2015.0 1
304.4307 -145.29643 1992.0 1
314.24988 -140.40945 1925.0 1
327.0143 -137.34598 1883.0 1
342.9534 -135.88718 1863.0 1
358.4758 -134.42838 1843.0 1
373.7862 -133.04253 1824.0 1
388.4854 -131.58372 1804.0 1
409.54074 -132.31313 1814.0 1
426.0807 -131.58372 1804.0 1
442.659 -130.92726 1795.0 1
461.36282 -130.92726 1795.0 1
482.47382 -131.58372 1804.0 1
504.0501 -132.31313 1814.0 1
248.63515 -186.47636 2237.0 1
256.99194 -176.22308 2114.0 1
272.28842 -171.97171 2063.0 1
286.94946 -167.97044 2015.0 1
302.59677 -165.05284 1980.0 1
314.24988 -160.46803 1925.0 1
327.0143 -156.96692 1883.0 1
342.9534 -155.29971 1863.0 1
358.4758 -153.6325 1843.0 1
373.7862 -152.04868 1824.0 1
388.4854 -150.38147 1804.0 1
409.54074 -151.21507 1814.0 1
423.95502 -149.63123 1795.0 1
442.659 -149.63123 1795.0 1
461.36282 -149.63123 1795.0 1
482.47382 -150.38147 1804.0 1
506.8288 -152.04868 1824.0 1
248.63515 -209.78587 2237.0 1
258.5723 -199.47008 2127.0 1
274.00427 -194.6873 2076.0 1
286.94946 -188.96672 2015.0 1
302.59677 -185.68442 1980.0 1
312.6174 -179.58871 1915.0 1
327.0143 -176.58775 1883.0 1
342.9534 -174.71216 1863.0 1
358.4758 -172.83655 1843.0 1
371.73694 -170.11693 1814.0 1
388.4854 -169.17914 1804.0 1
409.54074 -170.11693 1814.0 1
426.0807 -169.17914 1804.0 1
442.659 -168.33511 1795.0 1
461.36282 -168.33511 1795.0 1
485.1483 -170.11693 1814.0 1
517.6656 -174.71216 1863.0 1
539.9609 -175.64995 1873.0 1
250.30235 -234.6584 2252.0 1
258.5723 -221.63339 2127.0 1
274.00427 -216.3192 2076.0 1
286.94946 -209.963 2015.0 1
302.59677 -206.316 1980.0 1
314.24988 -200.58499 1925.0 1
327.0143 -196.2086 1883.0 1
342.9534 -194.1246 1863.0 1
358.4758 -192.0406 1843.0 1
369.68768 -187.97679 1804.0 1
388.4854 -187.97679 1804.0 1
407.28305 -187.97679 1804.0 1
423.95502 -187.039 1795.0 1
442.659 -187.039 1795.0 1
463.6761 -187.97679 1804.0 1
485.1483 -189.0188 1814.0 1
523.2229 -196.2086 1883.0 1
542.84375 -196.2086 1883.0 1
231.36913 -263.2821 2297.0 1
251.8584 -259.72888 2266.0 1
256.99194 -242.30666 2114.0 1
272.28842 -236.46103 2063.0 1
286.94946 -230.95927 2015.0 1
300.91568 -225.68675 1969.0 1
314.24988 -220.64348 1925.0 1
328.92465 -217.09026 1894.0 1
342.9534 -213.53703 1863.0 1
356.53073 -210.09843 1833.0 1
369.68768 -206.77446 1804.0 1
386.5473 -205.74287 1795.0 1
407.28305 -206.77446 1804.0 1
426.0807 -206.77446 1804.0 1
444.87845 -206.77446 1804.0 1
463.6761 -206.77446 1804.0 1
487.82275 -209.06686 1824.0 1
529.0581 -218.23645 1904.0 1
232.88002 -289.09244 2312.0 1
251.8584 -283.34058 2266.0 1
258.5723 -265.96002 2127.0 1
274.00427 -259.583 2076.0 1
286.94946 -251.95555 2015.0 1
300.91568 -246.20372 1969.0 1
314.24988 -240.70195 1925.0 1
328.92465 -236.82571 1894.0 1
344.79428 -234.19987 1873.0 1
360.42087 -231.69908 1853.0 1
371.73694 -226.82253 1814.0 1
386.5473 -224.44676 1795.0 1
407.28305 -225.57211 1804.0 1
426.0807 -225.57211 1804.0 1
444.87845 -225.57211 1804.0 1
466.24634 -226.82253 1814.0 1
487.82275 -228.07292 1824.0 1
544.0629 -244.82828 1958.0 1
251.8584 -306.9524 2266.0 1
260.15265 -289.88443 2140.0 1
274.00427 -281.215 2076.0 1
285.24057 -271.32642 2003.0 1
300.91568 -266.72076 1969.0 1
314.24988 -260.76053 1925.0 1
328.92465 -256.56128 1894.0 1
346.63513 -255.07121 1883.0 1
360.42087 -251.00742 1853.0 1
371.73694 -245.72447 1814.0 1
386.5473 -243.15073 1795.0 1
407.28305 -244.36987 1804.0 1
426.0807 -244.36987 1804.0 1
444.87845 -244.36987 1804.0 1
466.24634 -245.72447 1814.0 1
487.82275 -247.07907 1824.0 1
234.39091 -339.46277 2327.0 1
255.30396 -335.08636 2297.0 1
260.15265 -312.18323 2140.0 1
275.5881 -304.59744 2088.0 1
285.24057 -292.19766 2003.0 1
300.91568 -287.23773 1969.0 1
314.24988 -280.819 1925.0 1
332.57166 -279.3602 1915.0 1
348.6601 -276.29672 1894.0 1
358.4758 -268.85684 1843.0 1
369.68768 -263.16754 1804.0 1
388.4854 -263.16754 1804.0 1
409.54074 -264.62634 1814.0 1
426.0807 -263.16754 1804.0 1
444.87845 -263.16754 1804.0 1
466.24634 -264.62634 1814.0 1
485.1483 -264.62634 1814.0 1
256.97116 -361.3656 2312.0 1
260.15265 -334.482 2140.0 1
277.30392 -328.3863 2101.0 1
286.94946 -314.9445 2015.0 1
302.59677 -309.474 1980.0 1
314.24988 -300.8775 1925.0 1
332.57166 -299.31448 1915.0 1
350.50095 -297.59518 1904.0 1
362.36594 -291.1869 1863.0 1
373.7862 -285.0912 1824.0 1
388.4854 -281.9652 1804.0 1
407.28305 -281.9652 1804.0 1
426.0807 -281.9652 1804.0 1
444.87845 -281.9652 1804.0 1
463.6761 -281.9652 1804.0 1
485.1483 -283.5282 1814.0 1
262.19504 -393.29245 2359.0 1
256.99194 -352.44604 2114.0 1
274.00427 -346.1107 2076.0 1
286.94946 -335.94077 2015.0 1
300.91568 -328.27167 1969.0 1
317.8413 -324.60382 1947.0 1
332.57166 -319.26877 1915.0 1
352.5259 -319.26877 1915.0 1
364.311 -312.26654 1873.0 1
371.73694 -302.43005 1814.0 1
388.4854 -300.76285 1804.0 1
409.54074 -302.43005 1814.0 1
428.44257 -302.43005 1814.0 1
447.3445 -302.43005 1814.0 1
508.91275 -330.10556 1980.0 1
256.99194 -374.4739 2114.0 1
272.28842 -365.43976 2063.0 1
286.94946 -356.93704 2015.0 1
300.91568 -348.7886 1969.0 1
317.8413 -344.89154 1947.0 1
336.21866 -342.943 1936.0 1
354.3668 -340.99445 1925.0 1
362.36594 -330.01178 1863.0 1
373.7862 -323.10333 1824.0 1
388.4854 -319.56052 1804.0 1
407.28305 -319.56052 1804.0 1
428.44257 -321.3319 1814.0 1
447.3445 -321.3319 1814.0 1
511.99707 -352.86282 1992.0 1
242.41093 -409.0684 2181.0 1
256.99194 -396.50186 2114.0 1
272.28842 -386.9363 2063.0 1
286.94946 -377.93344 2015.0 1
300.91568 -369.30566 1969.0 1
319.63702 -367.24252 1958.0 1
336.21866 -363.11618 1936.0 1
356.39172 -363.11618 1936.0 1
366.25607 -353.1755 1883.0 1
371.73694 -340.23386 1814.0 1
388.4854 -338.35828 1804.0 1
409.54074 -340.23386 1814.0 1
428.44257 -340.23386 1814.0 1
449.81058 -342.10947 1824.0 1
520.99304 -380.18414 2027.0 1
545.3238 -382.43488 2039.0 1
240.85487 -429.02267 2167.0 1
256.99194 -418.52972 2114.0 1
272.28842 -408.43274 2063.0 1
286.94946 -398.92972 2015.0 1
304.4307 -394.37616 1992.0 1
321.43274 -389.82263 1969.0 1
340.03934 -387.64487 1958.0 1
356.39172 -383.2893 1936.0 1
360.42087 -366.85696 1853.0 1
373.7862 -361.11554 1824.0 1
390.6389 -359.13574 1814.0 1
409.54074 -359.13574 1814.0 1
428.44257 -359.13574 1814.0 1
499.87173 -401.30548 2027.0 1
520.99304 -401.30548 2027.0 1
239.29883 -448.68518 2153.0 1
255.41156 -437.8484 2101.0 1
272.28842 -429.9292 2063.0 1
290.36722 -424.92758 2039.0 1
304.4307 -415.13278 1992.0 1
321.43274 -410.3396 1969.0 1
340.03934 -408.04718 1958.0 1
356.39172 -403.4624 1936.0 1
370.3407 -396.79358 1904.0 1
373.7862 -380.12158 1824.0 1
390.6389 -378.0376 1814.0 1
411.7984 -380.12158 1824.0 1
430.8044 -380.12158 1824.0 1
496.91245 -419.926 2015.0 1
524.07733 -424.92758 2039.0 1
236.40901 -465.4301 2127.0 1
255.41156 -459.74078 2101.0 1
270.7046 -448.7998 2051.0 1
286.94946 -440.92227 2015.0 1
304.4307 -435.8894 1992.0 1
321.43274 -430.85657 1969.0 1
340.03934 -428.44952 1958.0 1
356.39172 -423.6355 1936.0 1
360.42087 -405.47342 1853.0 1
371.73694 -396.93945 1814.0 1
388.4854 -394.75125 1804.0 1
411.7984 -399.12766 1824.0 1
430.8044 -399.12766 1824.0 1
499.87173 -443.54813 2027.0 1
527.1617 -448.7998 2051.0 1
216.86449 -493.55368 2153.0 1
237.85391 -490.57355 2140.0 1
252.37239 -475.9022 2076.0 1
270.7046 -470.1712 2051.0 1
285.24057 -459.16766 2003.0 1
304.4307 -456.64603 1992.0 1
321.43274 -451.3735 1969.0 1
338.129 -446.33023 1947.0 1
356.39172 -443.8086 1936.0 1
372.4803 -438.99457 1915.0 1
375.63055 -420.19687 1833.0 1
388.4854 -413.54892 1804.0 1
411.7984 -418.13373 1824.0 1
428.44257 -415.8413 1814.0 1
505.79028 -470.1712 2051.0 1
524.07733 -467.42032 2039.0 1
216.86449 -515.98804 2153.0 1
234.96411 -506.64127 2114.0 1
250.79202 -494.4186 2063.0 1
267.53693 -485.79086 2027.0 1
285.24057 -480.039 2003.0 1
304.4307 -477.40274 1992.0 1
319.63702 -469.2543 1958.0 1
338.129 -466.61804 1947.0 1
358.4167 -466.61804 1947.0 1
376.5649 -463.98178 1936.0 1
377.6798 -441.69342 1843.0 1
390.6389 -434.74326 1814.0 1
411.7984 -437.13986 1824.0 1
430.8044 -437.13986 1824.0 1
449.81058 -437.13986 1824.0 1
218.27466 -541.9234 2167.0 1
236.40901 -531.92017 2127.0 1
252.37239 -519.1661 2076.0 1
267.53693 -506.91217 2027.0 1
285.24057 -500.91025 2003.0 1
300.91568 -492.40753 1969.0 1
319.63702 -489.65665 1958.0 1
340.03934 -489.65665 1958.0 1
358.4167 -486.90576 1947.0 1
378.7045 -486.90576 1947.0 1
377.6798 -460.89746 1843.0 1
390.6389 -453.64514 1814.0 1
411.7984 -456.14594 1824.0 1
428.44257 -453.64514 1814.0 1
449.81058 -456.14594 1824.0 1
473.7001 -460.89746 1843.0 1
237.85391 -557.47 2140.0 1
252.37239 -540.798 2076.0 1
267.53693 -528.0335 2027.0 1
285.24057 -521.7815 2003.0 1
300.91568 -512.9245 1969.0 1
319.63702 -510.059 1958.0 1
340.03934 -510.059 1958.0 1
360.44162 -510.059 1958.0 1
378.7045 -507.19348 1947.0 1
394.4838 -501.4625 1925.0 1
392.79236 -475.15198 1824.0 1
411.7984 -475.15198 1824.0 1
430.8044 -475.15198 1824.0 1
452.03003 -477.4965 1833.0 1
471.12985 -477.4965 1833.0 1
236.40901 -576.2468 2127.0 1
252.37239 -562.4299 2076.0 1
269.12076 -552.4058 2039.0 1
286.94946 -545.90375 2015.0 1
306.1118 -542.6527 2003.0 1
321.43274 -533.44147 1969.0 1
340.03934 -530.4613 1958.0 1
358.4167 -527.4812 1947.0 1
378.7045 -527.4812 1947.0 1
398.9922 -527.4812 1947.0 1
396.88394 -499.30554 1843.0 1
413.8303 -496.59634 1833.0 1
430.8044 -494.15805 1824.0 1
449.81058 -494.15805 1824.0 1
473.7001 -499.30554 1843.0 1
240.85487 -609.6637 2167.0 1
253.83119 -587.43787 2088.0 1
269.12076 -573.6522 2039.0 1
286.94946 -566.9 2015.0 1
306.1118 -563.524 2003.0 1
323.22845 -557.05316 1980.0 1
341.94965 -553.95844 1969.0 1
362.46658 -553.95844 1969.0 1
380.8441 -550.86365 1958.0 1
398.9922 -547.7689 1947.0 1
399.0374 -521.323 1853.0 1
416.08795 -518.5096 1843.0 1
430.8044 -513.1641 1824.0 1
452.03003 -515.69617 1833.0 1
473.7001 -518.5096 1843.0 1
243.85583 -640.12146 2194.0 1
253.83119 -609.1949 2088.0 1
269.12076 -594.8987 2039.0 1
286.94946 -587.8964 2015.0 1
306.1118 -584.3953 2003.0 1
323.22845 -577.6848 1980.0 1
341.94965 -574.47546 1969.0 1
362.46658 -574.47546 1969.0 1
382.98364 -574.47546 1969.0 1
403.50058 -574.47546 1969.0 1
421.6488 -571.2661 1958.0 1
418.3456 -540.6313 1853.0 1
432.9301 -534.7961 1833.0 1
452.03003 -534.7961 1833.0 1
473.7001 -537.7137 1843.0 1
495.5787 -540.6313 1853.0 1
260.15265 -646.6652 2140.0 1
270.7046 -619.7712 2051.0 1
286.94946 -608.8927 2015.0 1
306.1118 -605.26654 2003.0 1
325.1874 -601.94257 1992.0 1
343.86 -598.3164 1980.0 1
362.46658 -594.99243 1969.0 1
382.98364 -594.99243 1969.0 1
403.50058 -594.99243 1969.0 1
424.01764 -594.99243 1969.0 1
420.6033 -562.96136 1863.0 1
435.29196 -556.9177 1843.0 1
454.4961 -556.9177 1843.0 1
473.7001 -556.9177 1843.0 1
492.90424 -556.9177 1843.0 1
261.73303 -673.0278 2153.0 1
274.00427 -648.9576 2076.0 1
288.65833 -633.6402 2027.0 1
306.1118 -626.1378 2003.0 1
326.98312 -626.1378 2003.0 1
343.86 -618.948 1980.0 1
362.46658 -615.5094 1969.0 1
382.98364 -615.5094 1969.0 1
403.50058 -615.5094 1969.0 1
424.01764 -615.5094 1969.0 1
447.018 -618.948 1980.0 1
435.29196 -576.12177 1843.0 1
454.4961 -576.12177 1843.0 1
473.7001 -576.12177 1843.0 1
495.5787 -579.2478 1853.0 1
261.73303 -695.46204 2153.0 1
277.30392 -678.665 2101.0 1
292.07608 -662.514 2051.0 1
307.9457 -650.88525 2015.0 1
326.98312 -647.00903 2003.0 1
343.86 -639.5796 1980.0 1
362.46658 -636.02637 1969.0 1
382.98364 -636.02637 1969.0 1
403.50058 -636.02637 1969.0 1
424.01764 -636.02637 1969.0 1
449.7272 -643.4558 1992.0 1
437.65384 -598.556 1853.0 1
456.96216 -598.556 1853.0 1
476.2704 -598.556 1853.0 1
495.5787 -598.556 1853.0 1
523.2229 -608.24664 1883.0 1
279.01974 -704.8921 2114.0 1
293.78497 -687.88666 2063.0 1
309.77963 -675.8828 2027.0 1
326.98312 -667.88025 2003.0 1
343.86 -660.2111 1980.0 1
366.7006 -664.2124 1992.0 1
382.98364 -656.54333 1969.0 1
403.50058 -656.54333 1969.0 1
424.01764 -656.54333 1969.0 1
447.018 -660.2111 1980.0 1
467.64954 -660.2111 1980.0 1
456.96216 -617.86426 1853.0 1
478.84064 -621.19867 1863.0 1
498.25317 -621.19867 1863.0 1
523.2229 -627.8675 1883.0 1
552.0689 -638.53754 1915.0 1
279.01974 -726.92004 2114.0 1
299.19644 -722.4499 2101.0 1
311.61353 -701.13055 2039.0 1
328.94208 -692.8779 2015.0 1
347.85434 -688.7516 2003.0 1
368.72552 -688.7516 2003.0 1
382.98364 -677.06036 1969.0 1
405.75476 -680.84283 1980.0 1
426.38644 -680.84283 1980.0 1
449.7272 -684.9692 1992.0 1
473.08182 -688.7516 2003.0 1
454.4961 -633.734 1843.0 1
478.84064 -640.6112 1863.0 1
500.92764 -644.0498 1873.0 1
517.6656 -640.6112 1863.0 1
542.84375 -647.4884 1883.0 1
297.34515 -739.73663 2088.0 1
315.28137 -730.87964 2063.0 1
330.90103 -718.12555 2027.0 1
349.93832 -713.8742 2015.0 1
368.72552 -709.62286 2003.0 1
385.12323 -701.4744 1980.0 1
408.2139 -705.72577 1992.0 1
428.9706 -705.72577 1992.0 1
452.21063 -709.62286 2003.0 1
478.7503 -718.12555 2027.0 1
499.87173 -718.12555 2027.0 1
476.2704 -656.48083 1853.0 1
500.92764 -663.56647 1873.0 1
520.4443 -663.56647 1873.0 1
542.84375 -667.10925 1883.0 1
307.1329 -848.65686 2327.0 1
329.24423 -843.1864 2312.0 1
319.10205 -761.4936 2088.0 1
334.81897 -747.9997 2051.0 1
349.93832 -734.8705 2015.0 1
368.72552 -730.4941 2003.0 1
389.59686 -730.4941 2003.0 1
410.46808 -730.4941 2003.0 1
428.9706 -726.48236 1992.0 1
452.21063 -730.4941 2003.0 1
475.91608 -734.8705 2015.0 1
496.91245 -734.8705 2015.0 1
483.98117 -686.7301 1883.0 1
500.92764 -683.08307 1873.0 1
523.2229 -686.7301 1883.0 1
546.0149 -690.74176 1894.0 1
568.7375 -694.3888 1904.0 1
309.2447 -878.9061 2343.0 1
331.38034 -872.9042 2327.0 1
355.62762 -872.9042 2327.0 1
334.81897 -769.3711 2051.0 1
352.02234 -760.3682 2027.0 1
370.93457 -755.86676 2015.0 1
389.59686 -751.36536 2003.0 1
410.46808 -751.36536 2003.0 1
428.9706 -747.239 1992.0 1
452.21063 -751.36536 2003.0 1
475.91608 -755.86676 2015.0 1
499.87173 -760.3682 2027.0 1
486.80847 -710.47723 1894.0 1
503.6021 -706.35095 1883.0 1
523.2229 -706.35095 1883.0 1
546.0149 -710.47723 1894.0 1
572.02325 -718.3548 1915.0 1
288.8424 -916.04297 2376.0 1
311.35648 -909.4888 2359.0 1
331.38034 -897.1515 2327.0 1
353.3352 -891.3684 2312.0 1
334.81897 -790.7425 2051.0 1
354.10632 -786.116 2039.0 1
370.93457 -776.86304 2015.0 1
391.93094 -776.86304 2015.0 1
410.46808 -772.2366 2003.0 1
431.33942 -772.2366 2003.0 1
454.91983 -776.86304 2015.0 1
475.91608 -776.86304 2015.0 1
496.91245 -776.86304 2015.0 1
494.7763 -742.1644 1925.0 1
503.6021 -725.97174 1883.0 1
523.2229 -725.97174 1883.0 1
548.89777 -734.0681 1904.0 1
311.35648 -934.06964 2359.0 1
331.38034 -921.3989 2327.0 1
353.3352 -915.45953 2312.0 1
334.81897 -812.114 2051.0 1
356.19034 -812.114 2051.0 1
373.14362 -802.61096 2027.0 1
391.93094 -797.85944 2015.0 1
410.46808 -793.1079 2003.0 1
431.33942 -793.1079 2003.0 1
454.91983 -797.85944 2015.0 1
475.91608 -797.85944 2015.0 1
493.95316 -793.1079 2003.0 1
494.7763 -762.223 1925.0 1
509.2185 -753.90784 1904.0 1
529.0581 -753.90784 1904.0 1
548.89777 -753.90784 1904.0 1
290.78748 -972.061 2392.0 1
311.35648 -958.65045 2359.0 1
333.65884 -952.1483 2343.0 1
358.07285 -952.1483 2343.0 1
382.487 -952.1483 2343.0 1
356.19034 -833.4854 2051.0 1
373.14362 -823.73224 2027.0 1
391.93094 -818.8557 2015.0 1
412.9272 -818.8557 2015.0 1
431.33942 -813.9791 2003.0 1
457.62903 -823.73224 2027.0 1
478.7503 -823.73224 2027.0 1
499.87173 -823.73224 2027.0 1
492.20602 -778.2177 1915.0 1
509.2185 -773.7475 1904.0 1
532.1147 -778.2177 1915.0 1
