ply
format ascii 1.0
comment : created from Kinect user tracker
element vertex 903
property float x
property float y
property float z
property int userId
end_header
879.6981 281.21494 2076.0 1
901.32996 281.21494 2076.0 1
836.43427 259.58304 2076.0 1
852.6929 257.95752 2063.0 1
874.1894 257.95752 2063.0 1
880.05585 253.45609 2027.0 1
829.71674 242.30666 2114.0 1
836.43427 237.9511 2076.0 1
842.773 233.71016 2039.0 1
864.0195 233.71016 2039.0 1
885.2658 233.71016 2039.0 1
917.18225 236.46103 2063.0 1
938.6788 236.46103 2063.0 1
949.00494 233.71016 2039.0 1
964.54126 232.33472 2027.0 1
807.6889 220.2788 2114.0 1
814.80225 216.3192 2076.0 1
831.1965 214.9646 2063.0 1
847.733 213.7142 2051.0 1
858.9345 211.2134 2027.0 1
885.2658 212.46379 2039.0 1
901.1771 211.2134 2027.0 1
922.2985 211.2134 2027.0 1
949.00494 212.46379 2039.0 1
970.2514 212.46379 2039.0 1
991.49774 212.46379 2039.0 1
1040.0758 213.7142 2051.0 1
812.65576 199.47008 2127.0 1
824.61444 197.0318 2101.0 1
836.43427 194.6873 2076.0 1
842.773 191.21744 2039.0 1
853.84955 188.96672 2015.0 1
880.05585 190.09207 2027.0 1
901.1771 190.09207 2027.0 1
916.83844 188.96672 2015.0 1
943.4198 190.09207 2027.0 1
964.54126 190.09207 2027.0 1
973.9921 187.84135 2003.0 1
989.3998 186.80978 1992.0 1
775.9983 174.05566 2088.0 1
802.72205 175.13934 2101.0 1
819.5121 174.05566 2088.0 1
826.3616 170.97134 2051.0 1
842.773 169.97102 2039.0 1
858.9345 168.9707 2027.0 1
880.05585 168.9707 2027.0 1
890.507 166.97006 2003.0 1
916.83844 167.97038 2015.0 1
949.00494 169.97102 2039.0 1
958.83105 167.97038 2015.0 1
1003.1681 171.97166 2063.0 1
1006.7838 168.9707 2027.0 1
785.6611 154.19518 2114.0 1
793.1704 151.42345 2076.0 1
809.69995 150.47523 2063.0 1
821.52673 148.72467 2039.0 1
842.773 148.72467 2039.0 1
853.84955 146.9741 2015.0 1
880.05585 147.84938 2027.0 1
890.507 146.09883 2003.0 1
916.83844 146.9741 2015.0 1
932.2496 146.09883 2003.0 1
981.6717 150.47523 2063.0 1
1003.1681 150.47523 2063.0 1
780.8297 131.35449 2101.0 1
802.72205 131.35449 2101.0 1
814.80225 129.7915 2076.0 1
826.3616 128.2285 2051.0 1
837.8131 126.72802 2027.0 1
858.9345 126.72802 2027.0 1
885.2658 127.47826 2039.0 1
901.1771 126.72802 2027.0 1
922.2985 126.72802 2027.0 1
943.4198 126.72802 2027.0 1
981.6717 128.97874 2063.0 1
1015.32477 130.54173 2088.0 1
773.025 111.493996 2140.0 1
785.6611 110.1394 2114.0 1
793.1704 108.1596 2076.0 1
814.80225 108.1596 2076.0 1
831.1965 107.4823 2063.0 1
842.773 106.231895 2039.0 1
869.10443 106.8571 2051.0 1
895.6858 107.4823 2063.0 1
906.51215 106.231895 2039.0 1
933.2187 106.8571 2051.0 1
960.1752 107.4823 2063.0 1
1012.1259 110.816696 2127.0 1
1034.2892 110.816696 2127.0 1
724.0928 94.4469 2266.0 1
738.13544 93.23818 2237.0 1
756.6795 92.65466 2223.0 1
765.1094 90.9041 2181.0 1
773.025 89.19522 2140.0 1
790.4925 88.65338 2127.0 1
793.1704 86.5277 2076.0 1
819.5121 87.02786 2088.0 1
831.1965 85.985855 2063.0 1
852.6929 85.985855 2063.0 1
874.1894 85.985855 2063.0 1
901.32996 86.5277 2076.0 1
917.18225 85.985855 2063.0 1
944.5939 86.5277 2076.0 1
977.8614 87.5697 2101.0 1
1005.9399 88.11154 2114.0 1
686.1292 71.80421 2297.0 1
705.11786 71.30405 2281.0 1
719.61914 70.39751 2252.0 1
733.51587 69.49097 2223.0 1
751.57367 69.022064 2208.0 1
765.1094 68.17805 2181.0 1
782.77814 67.74041 2167.0 1
795.3239 66.896385 2140.0 1
807.6889 66.083626 2114.0 1
829.71674 66.083626 2114.0 1
831.1965 64.48937 2063.0 1
852.6929 64.48937 2063.0 1
879.6981 64.89575 2076.0 1
923.4725 66.490005 2127.0 1
934.07654 65.677246 2101.0 1
961.8841 66.083626 2114.0 1
983.9119 66.083626 2114.0 1
993.5679 65.27087 2088.0 1
662.1944 47.86949 2297.0 1
681.3499 47.53605 2281.0 1
696.1532 46.93169 2252.0 1
710.3523 46.32733 2223.0 1
728.5664 46.01473 2208.0 1
742.38324 45.45205 2181.0 1
760.19806 45.16029 2167.0 1
773.025 44.59761 2140.0 1
790.4925 44.32669 2127.0 1
812.65576 44.32669 2127.0 1
824.61444 43.78485 2101.0 1
841.2691 43.51393 2088.0 1
879.14575 44.32669 2127.0 1
895.8005 44.05577 2114.0 1
923.4725 44.32669 2127.0 1
945.63574 44.32669 2127.0 1
967.7992 44.32669 2127.0 1
655.4874 24.580755 2359.0 1
666.5187 24.091017 2312.0 1
681.3499 23.767998 2281.0 1
696.1532 23.465816 2252.0 1
710.3523 23.163637 2223.0 1
719.6573 22.725998 2181.0 1
737.61786 22.580118 2167.0 1
755.28674 22.434238 2153.0 1
768.3291 22.163319 2127.0 1
785.6611 22.027859 2114.0 1
807.6889 22.027859 2114.0 1
819.5121 21.756939 2088.0 1
836.43427 21.631899 2076.0 1
873.7725 22.027859 2114.0 1
912.3266 22.434238 2153.0 1
644.27905 0.0 2409.0 1
651.04156 0.0 2343.0 1
666.5187 0.0 2312.0 1
681.3499 0.0 2281.0 1
691.5163 0.0 2237.0 1
701.08545 0.0 2194.0 1
719.6573 0.0 2181.0 1
737.61786 0.0 2167.0 1
750.72626 0.0 2140.0 1
763.6331 0.0 2114.0 1
780.8297 0.0 2101.0 1
797.7552 0.0 2088.0 1
814.80225 0.0 2076.0 1
836.43427 0.0 2076.0 1
852.6929 0.0 2063.0 1
874.1894 0.0 2063.0 1
651.04156 -24.414036 2343.0 1
662.1944 -23.934717 2297.0 1
672.68744 -23.465816 2252.0 1
691.5163 -23.309517 2237.0 1
705.5591 -23.007338 2208.0 1
719.6573 -22.725998 2181.0 1
737.61786 -22.580118 2167.0 1
746.1658 -22.163319 2127.0 1
763.6331 -22.027859 2114.0 1
780.8297 -21.892399 2101.0 1
793.1704 -21.631899 2076.0 1
809.69995 -21.496439 2063.0 1
826.3616 -21.371399 2051.0 1
847.733 -21.371399 2051.0 1
869.10443 -21.371399 2051.0 1
901.32996 -21.631899 2076.0 1
655.4874 -49.16151 2359.0 1
662.1944 -47.869434 2297.0 1
672.68744 -46.931633 2252.0 1
691.5163 -46.619034 2237.0 1
705.5591 -46.014675 2208.0 1
719.6573 -45.451996 2181.0 1
732.8524 -44.868477 2153.0 1
746.1658 -44.326637 2127.0 1
758.9372 -43.784798 2101.0 1
775.9983 -43.513878 2088.0 1
793.1704 -43.263798 2076.0 1
809.69995 -42.992878 2063.0 1
821.52673 -42.492718 2039.0 1
842.773 -42.492718 2039.0 1
864.0195 -42.492718 2039.0 1
885.2658 -42.492718 2039.0 1
906.51215 -42.492718 2039.0 1
644.27905 -75.30539 2409.0 1
660.2112 -74.2738 2376.0 1
662.1944 -71.80427 2297.0 1
672.68744 -70.39756 2252.0 1
687.18854 -69.49102 2223.0 1
701.08545 -68.58448 2194.0 1
715.0378 -67.74046 2167.0 1
732.8524 -67.30282 2153.0 1
746.1658 -66.49006 2127.0 1
763.6331 -66.08368 2114.0 1
771.5385 -64.8958 2076.0 1
788.2035 -64.48942 2063.0 1
800.2803 -63.739178 2039.0 1
816.69183 -63.36406 2027.0 1
837.8131 -63.36406 2027.0 1
848.7646 -62.61382 2003.0 1
874.8458 -62.988937 2015.0 1
890.507 -62.61382 2003.0 1
911.37836 -62.61382 2003.0 1
644.27905 -100.40714 2409.0 1
664.65704 -99.698586 2392.0 1
666.5187 -96.36418 2312.0 1
672.68744 -93.86338 2252.0 1
691.5163 -93.23818 2237.0 1
701.08545 -91.44594 2194.0 1
719.6573 -90.9041 2181.0 1
732.8524 -89.73706 2153.0 1
746.1658 -88.65338 2127.0 1
758.9372 -87.5697 2101.0 1
771.5385 -86.5277 2076.0 1
788.2035 -85.985855 2063.0 1
795.57043 -84.48538 2027.0 1
811.85693 -83.98522 2015.0 1
832.8532 -83.98522 2015.0 1
853.84955 -83.98522 2015.0 1
869.6358 -83.48506 2003.0 1
885.6166 -83.02658 1992.0 1
916.83844 -83.98522 2015.0 1
648.8257 -126.3946 2426.0 1
669.3808 -125.508896 2409.0 1
666.5187 -120.4552 2312.0 1
672.68744 -117.3292 2252.0 1
687.18854 -115.8183 2223.0 1
701.08545 -114.307396 2194.0 1
719.6573 -113.6301 2181.0 1
732.8524 -112.171295 2153.0 1
741.6053 -110.1394 2114.0 1
754.2412 -108.7848 2088.0 1
766.7071 -107.4823 2063.0 1
783.6187 -106.8571 2051.0 1
800.2803 -106.231895 2039.0 1
816.69183 -105.6067 2027.0 1
832.8532 -104.9815 2015.0 1
848.7646 -104.3563 2003.0 1
869.6358 -104.3563 2003.0 1
890.507 -104.3563 2003.0 1
916.83844 -104.9815 2015.0 1
937.8347 -104.9815 2015.0 1
653.37225 -152.73633 2443.0 1
669.3808 -150.61066 2409.0 1
670.843 -145.48401 2327.0 1
668.20685 -139.85721 2237.0 1
687.18854 -138.98193 2223.0 1
701.08545 -137.16885 2194.0 1
719.6573 -136.3561 2181.0 1
728.42737 -133.79277 2140.0 1
741.6053 -132.16725 2114.0 1
754.2412 -130.54173 2088.0 1
766.7071 -128.97874 2063.0 1
783.6187 -128.2285 2051.0 1
795.57043 -126.72802 2027.0 1
811.85693 -125.977776 2015.0 1
832.8532 -125.977776 2015.0 1
848.7646 -125.22754 2003.0 1
864.86 -124.53982 1992.0 1
895.84204 -125.977776 2015.0 1
911.37836 -125.22754 2003.0 1
927.1299 -124.53982 1992.0 1
641.5385 -182.05818 2496.0 1
657.9188 -179.43234 2460.0 1
674.1045 -176.9524 2426.0 1
666.5187 -168.63724 2312.0 1
672.68744 -164.26083 2252.0 1
691.5163 -163.16673 2237.0 1
701.08545 -160.03032 2194.0 1
719.6573 -159.08209 2181.0 1
724.0024 -155.14334 2127.0 1
741.6053 -154.19511 2114.0 1
754.2412 -152.29868 2088.0 1
766.7071 -150.47517 2063.0 1
783.6187 -149.5999 2051.0 1
795.57043 -147.84933 2027.0 1
811.85693 -146.97406 2015.0 1
832.8532 -146.97406 2015.0 1
848.7646 -146.09877 2003.0 1
874.8458 -146.97406 2015.0 1
890.507 -146.09877 2003.0 1
911.37836 -146.09877 2003.0 1
921.54474 -144.42116 1980.0 1
901.2536 -138.14832 1894.0 1
641.5385 -208.0666 2496.0 1
657.9188 -205.06564 2460.0 1
674.1045 -202.2314 2426.0 1
666.5187 -192.72836 2312.0 1
672.68744 -187.72676 2252.0 1
687.18854 -185.30933 2223.0 1
696.93134 -181.8082 2181.0 1
715.0378 -180.64116 2167.0 1
728.42737 -178.39044 2140.0 1
741.6053 -176.22308 2114.0 1
749.9065 -173.0554 2076.0 1
771.5385 -173.0554 2076.0 1
783.6187 -170.9714 2051.0 1
800.2803 -169.97108 2039.0 1
816.69183 -168.97076 2027.0 1
827.89325 -166.97012 2003.0 1
853.84955 -167.97044 2015.0 1
874.8458 -167.97044 2015.0 1
890.507 -166.97012 2003.0 1
911.37836 -166.97012 2003.0 1
932.2496 -166.97012 2003.0 1
646.165 -235.76294 2514.0 1
662.7329 -232.38686 2478.0 1
678.82825 -229.10455 2443.0 1
662.1944 -215.41267 2297.0 1
672.68744 -211.19258 2252.0 1
687.18854 -208.47296 2223.0 1
701.08545 -205.75334 2194.0 1
719.6573 -204.5342 2181.0 1
732.8524 -201.90836 2153.0 1
741.6053 -198.25093 2114.0 1
758.9372 -197.0318 2101.0 1
771.5385 -194.6873 2076.0 1
788.2035 -193.46815 2063.0 1
800.2803 -191.21744 2039.0 1
811.85693 -188.96672 2015.0 1
827.89325 -187.84135 2003.0 1
848.7646 -187.84135 2003.0 1
874.8458 -188.96672 2015.0 1
895.84204 -188.96672 2015.0 1
916.83844 -188.96672 2015.0 1
949.00494 -191.21744 2039.0 1
646.165 -261.9588 2514.0 1
667.54694 -260.0832 2496.0 1
688.5536 -258.20758 2478.0 1
662.1944 -239.3474 2297.0 1
672.68744 -234.6584 2252.0 1
687.18854 -231.6366 2223.0 1
701.08545 -228.61479 2194.0 1
715.0378 -225.80139 2167.0 1
737.61786 -225.80139 2167.0 1
741.6053 -220.2788 2114.0 1
758.9372 -218.9242 2101.0 1
771.5385 -216.3192 2076.0 1
793.1704 -216.3192 2076.0 1
809.69995 -214.9646 2063.0 1
811.85693 -209.963 2015.0 1
832.8532 -209.963 2015.0 1
848.7646 -208.7126 2003.0 1
874.8458 -209.963 2015.0 1
901.1771 -211.2134 2027.0 1
922.2985 -211.2134 2027.0 1
949.00494 -212.46379 2039.0 1
672.36096 -288.15466 2514.0 1
683.552 -281.96518 2460.0 1
662.1944 -263.2821 2297.0 1
672.68744 -258.1242 2252.0 1
691.5163 -256.4049 2237.0 1
705.5591 -253.08093 2208.0 1
715.0378 -248.38152 2167.0 1
737.61786 -248.38152 2167.0 1
750.72626 -245.28677 2140.0 1
768.3291 -243.7967 2127.0 1
785.6611 -242.30666 2114.0 1
797.7552 -239.32654 2088.0 1
809.69995 -236.46103 2063.0 1
816.69183 -232.33472 2027.0 1
832.8532 -230.95927 2015.0 1
844.1034 -228.32301 1992.0 1
874.8458 -230.95927 2015.0 1
895.84204 -230.95927 2015.0 1
922.2985 -232.33472 2027.0 1
677.175 -316.60123 2532.0 1
674.1045 -303.347 2426.0 1
662.1944 -287.21683 2297.0 1
676.8693 -283.34058 2266.0 1
691.5163 -279.71442 2237.0 1
705.5591 -276.08826 2208.0 1
719.6573 -272.7122 2181.0 1
737.61786 -270.96164 2167.0 1
755.28674 -269.21106 2153.0 1
768.3291 -265.96002 2127.0 1
785.6611 -264.3345 2114.0 1
802.72205 -262.70898 2101.0 1
819.5121 -261.08347 2088.0 1
816.69183 -253.45604 2027.0 1
832.8532 -251.95555 2015.0 1
848.7646 -250.45508 2003.0 1
874.8458 -251.95555 2015.0 1
901.1771 -253.45604 2027.0 1
927.7586 -254.95651 2039.0 1
954.59 -256.457 2051.0 1
655.4874 -319.55017 2359.0 1
662.1944 -311.15167 2297.0 1
676.8693 -306.9524 2266.0 1
687.18854 -301.12762 2223.0 1
701.08545 -297.19928 2194.0 1
719.6573 -295.4383 2181.0 1
732.8524 -291.64542 2153.0 1
760.19806 -293.54187 2167.0 1
777.72095 -291.64542 2153.0 1
790.4925 -288.12344 2127.0 1
807.6889 -286.3625 2114.0 1
824.61444 -284.6015 2101.0 1
816.69183 -274.57745 2027.0 1
832.8532 -272.95193 2015.0 1
853.84955 -272.95193 2015.0 1
874.8458 -272.95193 2015.0 1
901.1771 -274.57745 2027.0 1
655.4874 -344.13095 2359.0 1
662.1944 -335.08636 2297.0 1
676.8693 -330.5641 2266.0 1
687.18854 -324.29126 2223.0 1
705.5591 -322.10306 2208.0 1
723.94684 -320.06073 2194.0 1
737.61786 -316.12198 2167.0 1
760.19806 -316.12198 2167.0 1
777.72095 -314.07965 2153.0 1
795.3239 -312.18323 2140.0 1
812.65576 -310.28677 2127.0 1
829.71674 -308.39035 2114.0 1
816.69183 -295.69876 2027.0 1
837.8131 -295.69876 2027.0 1
853.84955 -293.9482 2015.0 1
885.2658 -297.44934 2039.0 1
901.1771 -295.69876 2027.0 1
630.90674 -368.7117 2359.0 1
651.04156 -366.2109 2343.0 1
662.1944 -359.0211 2297.0 1
676.8693 -354.17578 2266.0 1
691.5163 -349.6431 2237.0 1
710.3523 -347.4549 2223.0 1
723.94684 -342.92218 2194.0 1
742.38324 -340.8903 2181.0 1
760.19806 -338.7021 2167.0 1
782.77814 -338.7021 2167.0 1
795.3239 -334.482 2140.0 1
817.6227 -334.482 2140.0 1
829.71674 -330.41818 2114.0 1
821.52673 -318.6957 2039.0 1
832.8532 -314.9445 2015.0 1
853.84955 -314.9445 2015.0 1
885.2658 -318.6957 2039.0 1
906.51215 -318.6957 2039.0 1
630.90674 -393.29245 2359.0 1
651.04156 -390.62494 2343.0 1
662.1944 -382.9558 2297.0 1
681.3499 -380.2883 2281.0 1
691.5163 -372.9526 2237.0 1
710.3523 -370.61853 2223.0 1
728.5664 -368.11774 2208.0 1
742.38324 -363.6163 2181.0 1
760.19806 -361.28223 2167.0 1
782.77814 -361.28223 2167.0 1
795.3239 -356.78076 2140.0 1
817.6227 -356.78076 2140.0 1
824.61444 -350.2787 2101.0 1
816.69183 -337.9414 2027.0 1
832.8532 -335.94077 2015.0 1
853.84955 -335.94077 2015.0 1
880.05585 -337.9414 2027.0 1
906.51215 -339.94205 2039.0 1
630.90674 -417.8732 2359.0 1
651.04156 -415.03897 2343.0 1
662.1944 -406.89053 2297.0 1
681.3499 -404.05627 2281.0 1
696.1532 -398.91922 2252.0 1
710.3523 -393.78217 2223.0 1
733.51587 -393.78217 2223.0 1
742.38324 -386.3423 2181.0 1
760.19806 -383.86234 2167.0 1
782.77814 -383.86234 2167.0 1
800.15533 -381.3824 2153.0 1
817.6227 -379.07956 2140.0 1
824.61444 -372.17108 2101.0 1
816.69183 -359.06274 2027.0 1
837.8131 -359.06274 2027.0 1
853.84955 -356.93704 2015.0 1
880.05585 -359.06274 2027.0 1
911.84717 -363.3141 2051.0 1
635.4533 -445.6426 2376.0 1
651.04156 -439.45312 2343.0 1
662.1944 -430.82535 2297.0 1
681.3499 -427.8244 2281.0 1
696.1532 -422.38516 2252.0 1
710.3523 -416.94592 2223.0 1
728.5664 -414.1325 2208.0 1
742.38324 -409.0684 2181.0 1
760.19806 -406.44257 2167.0 1
782.77814 -406.44257 2167.0 1
795.3239 -401.37845 2140.0 1
812.65576 -398.94016 2127.0 1
824.61444 -394.0636 2101.0 1
816.69183 -380.18414 2027.0 1
832.8532 -377.93344 2015.0 1
853.84955 -377.93344 2015.0 1
880.05585 -380.18414 2027.0 1
911.84717 -384.6856 2051.0 1
619.1772 -476.93384 2409.0 1
635.4533 -470.40048 2376.0 1
651.04156 -463.86716 2343.0 1
662.1944 -454.76007 2297.0 1
676.8693 -448.62268 2266.0 1
696.1532 -445.85098 2252.0 1
710.3523 -440.10956 2223.0 1
723.94684 -434.36813 2194.0 1
742.38324 -431.7944 2181.0 1
765.1094 -431.7944 2181.0 1
782.77814 -429.02267 2167.0 1
800.15533 -426.25095 2153.0 1
817.6227 -423.67722 2140.0 1
834.8191 -421.1035 2127.0 1
821.52673 -403.68124 2039.0 1
837.8131 -401.30548 2027.0 1
853.84955 -398.92972 2015.0 1
880.05585 -401.30548 2027.0 1
895.84204 -398.92972 2015.0 1
623.54663 -505.5784 2426.0 1
635.4533 -495.1584 2376.0 1
651.04156 -488.2812 2343.0 1
662.1944 -478.6948 2297.0 1
681.3499 -475.36038 2281.0 1
696.1532 -469.3168 2252.0 1
710.3523 -463.2732 2223.0 1
723.94684 -457.22958 2194.0 1
742.38324 -454.5204 2181.0 1
765.1094 -454.5204 2181.0 1
777.72095 -448.68518 2153.0 1
800.15533 -448.68518 2153.0 1
822.58954 -448.68518 2153.0 1
834.8191 -443.26678 2127.0 1
826.3616 -427.4284 2051.0 1
837.8131 -422.4268 2027.0 1
858.9345 -422.4268 2027.0 1
885.2658 -424.92758 2039.0 1
901.1771 -422.4268 2027.0 1
627.9161 -534.5772 2443.0 1
635.4533 -519.91626 2376.0 1
651.04156 -512.69525 2343.0 1
662.1944 -502.62952 2297.0 1
676.8693 -495.8461 2266.0 1
696.1532 -492.78262 2252.0 1
710.3523 -486.43683 2223.0 1
728.5664 -483.15454 2208.0 1
742.38324 -477.2464 2181.0 1
760.19806 -474.18292 2167.0 1
777.72095 -471.11942 2153.0 1
800.15533 -471.11942 2153.0 1
822.58954 -471.11942 2153.0 1
839.9214 -468.27478 2140.0 1
836.43427 -454.2703 2076.0 1
842.773 -446.17395 2039.0 1
858.9345 -443.54813 2027.0 1
885.2658 -446.17395 2039.0 1
906.51215 -446.17395 2039.0 1
911.37836 -438.29642 2003.0 1
627.9161 -560.03326 2443.0 1
644.27905 -552.2391 2409.0 1
651.04156 -537.10925 2343.0 1
662.1944 -526.5642 2297.0 1
681.3499 -522.89636 2281.0 1
696.1532 -516.2484 2252.0 1
714.8259 -512.8098 2237.0 1
733.51587 -509.60046 2223.0 1
746.8083 -502.9525 2194.0 1
769.66986 -502.9525 2194.0 1
782.77814 -496.76303 2167.0 1
805.3584 -496.76303 2167.0 1
827.9385 -496.76303 2167.0 1
850.51855 -496.76303 2167.0 1
836.43427 -475.9022 2076.0 1
842.773 -467.42032 2039.0 1
853.84955 -461.91855 2015.0 1
885.2658 -467.42032 2039.0 1
901.1771 -464.66943 2027.0 1
627.9161 -585.48944 2443.0 1
644.27905 -577.341 2409.0 1
655.4874 -565.358 2359.0 1
670.843 -557.68884 2327.0 1
681.3499 -546.6645 2281.0 1
696.1532 -539.71436 2252.0 1
714.8259 -536.11945 2237.0 1
733.51587 -532.7642 2223.0 1
746.8083 -525.8141 2194.0 1
765.1094 -522.6985 2181.0 1
787.8353 -522.6985 2181.0 1
810.5614 -522.6985 2181.0 1
833.2874 -522.6985 2181.0 1
856.01337 -522.6985 2181.0 1
851.7447 -506.64127 2114.0 1
842.773 -488.66678 2039.0 1
858.9345 -485.79086 2027.0 1
885.2658 -488.66678 2039.0 1
906.51215 -488.66678 2039.0 1
927.7586 -488.66678 2039.0 1
650.7915 -633.2026 2532.0 1
657.9188 -615.19684 2460.0 1
660.2112 -594.19006 2376.0 1
680.0682 -589.9387 2359.0 1
686.1292 -574.4338 2297.0 1
700.48096 -566.6813 2266.0 1
714.8259 -559.42896 2237.0 1
733.51587 -555.92786 2223.0 1
751.57367 -552.17664 2208.0 1
769.66986 -548.67554 2194.0 1
792.53125 -548.67554 2194.0 1
810.5614 -545.4245 2181.0 1
833.2874 -545.4245 2181.0 1
856.01337 -545.4245 2181.0 1
867.45807 -538.42224 2153.0 1
852.6929 -515.91504 2063.0 1
864.0195 -509.91312 2039.0 1
885.2658 -509.91312 2039.0 1
901.1771 -506.91217 2027.0 1
641.5385 -650.208 2496.0 1
657.9188 -640.83 2460.0 1
674.1045 -631.97296 2426.0 1
684.96906 -618.948 2376.0 1
695.09045 -606.1835 2327.0 1
710.0639 -598.36847 2297.0 1
724.0928 -590.29297 2266.0 1
733.51587 -579.0915 2223.0 1
756.6795 -579.0915 2223.0 1
774.5811 -575.18396 2208.0 1
797.58844 -575.18396 2208.0 1
810.5614 -568.1505 2181.0 1
838.2543 -571.537 2194.0 1
861.11566 -571.537 2194.0 1
883.97723 -571.537 2194.0 1
863.02606 -543.924 2088.0 1
869.10443 -534.28546 2051.0 1
885.2658 -531.1595 2039.0 1
901.1771 -528.0335 2027.0 1
641.5385 -676.2163 2496.0 1
662.7329 -671.3397 2478.0 1
674.1045 -657.2519 2426.0 1
694.4825 -652.64624 2409.0 1
704.64905 -639.1002 2359.0 1
724.28375 -634.7655 2343.0 1
743.58514 -630.4308 2327.0 1
752.65393 -617.9685 2281.0 1
761.4449 -606.04803 2237.0 1
774.5811 -598.19135 2208.0 1
797.58844 -598.19135 2208.0 1
820.5959 -598.19135 2208.0 1
843.6032 -598.19135 2208.0 1
872.4978 -602.2551 2223.0 1
895.66156 -602.2551 2223.0 1
912.62524 -598.19135 2208.0 1
874.1894 -558.90796 2063.0 1
895.6858 -558.90796 2063.0 1
906.51215 -552.4058 2039.0 1
938.6788 -558.90796 2063.0 1
646.165 -707.2887 2514.0 1
667.54694 -702.22455 2496.0 1
683.552 -692.0963 2460.0 1
699.38336 -682.53076 2426.0 1
714.50635 -672.9652 2392.0 1
729.22974 -663.681 2359.0 1
748.6979 -659.17957 2343.0 1
767.8324 -654.6781 2327.0 1
771.3161 -637.51636 2266.0 1
784.7545 -629.35754 2237.0 1
808.064 -629.35754 2237.0 1
831.37366 -629.35754 2237.0 1
849.33417 -625.41876 2223.0 1
877.9926 -629.35754 2237.0 1
901.30225 -629.35754 2237.0 1
918.82513 -625.41876 2223.0 1
874.1894 -580.40436 2063.0 1
895.6858 -580.40436 2063.0 1
922.96185 -584.06177 2076.0 1
938.6788 -580.40436 2063.0 1
650.7915 -738.7363 2532.0 1
672.36096 -733.4847 2514.0 1
688.5536 -722.9813 2478.0 1
709.1851 -717.7296 2460.0 1
724.6624 -707.8098 2426.0 1
755.1964 -712.7697 2443.0 1
775.2203 -707.8098 2426.0 1
773.1119 -683.5937 2343.0 1
776.42194 -665.5046 2281.0 1
794.9279 -661.1282 2266.0 1
808.064 -652.6672 2237.0 1
831.37366 -652.6672 2237.0 1
854.6831 -652.6672 2237.0 1
877.9926 -652.6672 2237.0 1
901.30225 -652.6672 2237.0 1
936.5982 -661.1282 2266.0 1
960.20996 -661.1282 2266.0 1
895.6858 -601.90094 2063.0 1
917.18225 -601.90094 2063.0 1
944.5939 -605.6938 2076.0 1
655.675 -770.8612 2551.0 1
672.36096 -759.68054 2514.0 1
688.5536 -748.80206 2478.0 1
714.37427 -748.80206 2478.0 1
740.1951 -748.80206 2478.0 1
766.0158 -748.80206 2478.0 1
791.8367 -748.80206 2478.0 1
778.39136 -712.84265 2359.0 1
786.9739 -698.6402 2312.0 1
805.8029 -694.1075 2297.0 1
818.5396 -684.73987 2266.0 1
847.7261 -689.2726 2281.0 1
865.76306 -684.73987 2266.0 1
883.8799 -680.5094 2252.0 1
912.9865 -684.73987 2266.0 1
942.7981 -689.2726 2281.0 1
973.3461 -694.1075 2297.0 1
895.6858 -623.39734 2063.0 1
917.18225 -623.39734 2063.0 1
938.6788 -623.39734 2063.0 1
977.8614 -634.8802 2101.0 1
660.5585 -803.38196 2570.0 1
677.175 -791.5032 2532.0 1
698.55676 -785.8764 2514.0 1
719.5634 -780.2496 2496.0 1
745.57184 -780.2496 2496.0 1
771.58014 -780.2496 2496.0 1
797.5885 -780.2496 2496.0 1
811.71796 -768.996 2460.0 1
802.97205 -737.4234 2359.0 1
816.32715 -727.42017 2327.0 1
829.7376 -718.0422 2297.0 1
853.6724 -718.0422 2297.0 1
871.4941 -713.0406 2281.0 1
895.262 -713.0406 2281.0 1
925.4766 -718.0422 2297.0 1
955.6112 -722.7312 2312.0 1
986.05853 -727.42017 2327.0 1
917.8283 -660.83636 2114.0 1
922.96185 -648.9576 2076.0 1
938.6788 -644.8938 2063.0 1
971.81085 -652.7088 2088.0 1
638.46466 -836.29877 2589.0 1
660.5585 -830.1614 2570.0 1
682.25653 -824.024 2551.0 1
708.8378 -824.024 2551.0 1
719.5634 -806.2579 2496.0 1
750.9486 -812.07227 2514.0 1
777.1444 -812.07227 2514.0 1
825.77795 -783.6465 2426.0 1
833.51666 -767.4955 2376.0 1
840.5744 -751.6675 2327.0 1
859.24713 -746.8222 2312.0 1
877.6071 -741.9769 2297.0 1
901.5418 -741.9769 2297.0 1
937.56384 -751.6675 2327.0 1
961.8111 -751.6675 2327.0 1
999.6184 -762.00415 2359.0 1
901.32996 -670.5895 2076.0 1
928.2969 -674.4657 2088.0 1
944.5939 -670.5895 2076.0 1
954.59 -662.514 2051.0 1
611.4872 -863.2761 2589.0 1
633.7792 -856.94073 2570.0 1
655.675 -850.60535 2551.0 1
682.25653 -850.60535 2551.0 1
708.8378 -850.60535 2551.0 1
729.9418 -844.27 2532.0 1
762.00073 -850.60535 2551.0 1
782.7087 -844.27 2532.0 1
806.1086 -814.5939 2443.0 1
849.60504 -832.2662 2496.0 1
845.09326 -803.2569 2409.0 1
852.13367 -786.5849 2359.0 1
870.7682 -781.2499 2343.0 1
889.0691 -775.9148 2327.0 1
919.5962 -781.2499 2343.0 1
944.0103 -781.2499 2343.0 1
961.8111 -775.9148 2327.0 1
912.18414 -700.5574 2101.0 1
928.2969 -696.22266 2088.0 1
944.5939 -692.2214 2076.0 1
960.1752 -687.88666 2063.0 1
584.5099 -890.2536 2589.0 1
606.99963 -883.7202 2570.0 1
629.0936 -877.1869 2551.0 1
655.675 -877.1869 2551.0 1
677.175 -870.65356 2532.0 1
708.8378 -877.1869 2551.0 1
735.4192 -877.1869 2551.0 1
767.67615 -883.7202 2570.0 1
845.09326 -828.35876 2409.0 1
864.05414 -822.5131 2392.0 1
876.71454 -811.1658 2359.0 1
901.2952 -811.1658 2359.0 1
919.5962 -805.664 2343.0 1
944.0103 -805.664 2343.0 1
961.8111 -800.16223 2327.0 1
934.7608 -740.3306 2153.0 1
928.2969 -717.97974 2088.0 1
944.5939 -713.8534 2076.0 1
960.1752 -709.3832 2063.0 1
580.22034 -910.49963 2570.0 1
602.5121 -903.7683 2551.0 1
629.0936 -903.7683 2551.0 1
655.675 -903.7683 2551.0 1
677.175 -897.037 2532.0 1
708.8378 -903.7683 2551.0 1
735.4192 -903.7683 2551.0 1
862.98444 -871.5288 2460.0 1
876.3358 -859.4833 2426.0 1
888.9789 -847.43774 2392.0 1
907.7904 -841.7693 2376.0 1
932.5482 -841.7693 2376.0 1
957.3063 -841.7693 2376.0 1
975.03754 -835.7465 2359.0 1
912.18414 -744.3423 2101.0 1
922.96185 -735.4853 2076.0 1
944.5939 -735.4853 2076.0 1
966.2257 -735.4853 2076.0 1
545.2578 -923.4204 2532.0 1
575.9308 -930.3497 2551.0 1
598.02454 -923.4204 2532.0 1
624.4081 -923.4204 2532.0 1
655.675 -930.3497 2551.0 1
677.175 -923.4204 2532.0 1
698.55676 -916.8558 2514.0 1
724.7526 -916.8558 2514.0 1
869.29895 -903.72656 2478.0 1
876.3358 -884.7622 2426.0 1
895.2969 -878.56226 2409.0 1
913.90344 -872.36237 2392.0 1
932.5482 -866.52716 2376.0 1
970.6022 -878.56226 2409.0 1
995.7039 -878.56226 2409.0 1
895.8005 -770.97577 2114.0 1
906.54 -761.4936 2088.0 1
928.2969 -761.4936 2088.0 1
955.969 -766.2347 2101.0 1
515.1856 -943.05164 2514.0 1
545.2578 -949.8038 2532.0 1
571.6412 -949.8038 2532.0 1
598.02454 -949.8038 2532.0 1
619.9692 -943.05164 2514.0 1
646.165 -943.05164 2514.0 1
677.175 -949.8038 2532.0 1
703.5584 -949.8038 2532.0 1
869.29895 -929.5473 2478.0 1
876.3358 -910.0411 2426.0 1
895.2969 -903.66406 2409.0 1
920.39856 -903.66406 2409.0 1
945.5003 -903.66406 2409.0 1
970.6022 -903.66406 2409.0 1
906.54 -783.25055 2088.0 1
934.07654 -788.1271 2101.0 1
518.87427 -976.1872 2532.0 1
541.3816 -969.2475 2514.0 1
563.5136 -962.3078 2496.0 1
589.52185 -962.3078 2496.0 1
615.5303 -962.3078 2496.0 1
641.5385 -962.3078 2496.0 1
667.54694 -962.3078 2496.0 1
849.60504 -962.3078 2496.0 1
869.29895 -955.36804 2478.0 1
882.4767 -941.87415 2443.0 1
901.61487 -935.31995 2426.0 1
920.39856 -928.7658 2409.0 1
945.5003 -928.7658 2409.0 1
970.6022 -928.7658 2409.0 1
518.87427 -1002.57074 2532.0 1
537.5053 -988.31616 2496.0 1
563.5136 -988.31616 2496.0 1
589.52185 -988.31616 2496.0 1
615.5303 -988.31616 2496.0 1
641.5385 -988.31616 2496.0 1
667.54694 -988.31616 2496.0 1
855.732 -995.4435 2514.0 1
862.98444 -974.06165 2460.0 1
888.61755 -974.06165 2460.0 1
895.2969 -953.8677 2409.0 1
920.39856 -953.8677 2409.0 1
952.17255 -960.599 2426.0 1
977.4516 -960.599 2426.0 1
492.4909 -1028.9542 2532.0 1
511.49692 -1014.32446 2496.0 1
533.6291 -1007.00964 2478.0 1
559.44977 -1007.00964 2478.0 1
585.2705 -1007.00964 2478.0 1
615.5303 -1014.32446 2496.0 1
646.165 -1021.63934 2514.0 1
855.732 -1021.63934 2514.0 1
862.98444 -999.6948 2460.0 1
876.3358 -985.87787 2426.0 1
901.61487 -985.87787 2426.0 1
926.89374 -985.87787 2426.0 1
958.84485 -992.7863 2443.0 1
