ply
format ascii 1.0
comment : created from Kinect user tracker
element vertex 1770
property float x
property float y
property float z
end_header
878.10205 1573.5588 4045.0
885.1268 1573.5588 4045.0
892.15173 1573.5588 4045.0
909.84656 1592.2316 4093.0
906.2014 1573.5588 4045.0
913.22614 1573.5588 4045.0
942.31866 1611.2932 4142.0
949.51215 1611.2932 4142.0
956.70526 1611.2932 4142.0
963.89874 1611.2932 4142.0
1184.1445 1936.1193 4977.0
1192.7877 1936.1193 4977.0
943.13684 1519.875 3907.0
949.92194 1519.875 3907.0
956.707 1519.875 3907.0
952.8882 1503.1475 3864.0
981.45276 1537.3806 3952.0
977.0626 1519.875 3907.0
983.8477 1519.875 3907.0
990.63275 1519.875 3907.0
997.4181 1519.875 3907.0
1004.2031 1519.875 3907.0
1022.63275 1537.3806 3952.0
1029.496 1537.3806 3952.0
1036.3591 1537.3806 3952.0
1031.3439 1519.875 3907.0
1026.7034 1503.1475 3864.0
1021.9138 1486.4199 3821.0
1017.2438 1470.0813 3779.0
1310.7108 1882.0465 4838.0
1337.6537 1908.4994 4906.0
1060.2557 1503.1475 3864.0
1066.9664 1503.1475 3864.0
1073.6768 1503.1475 3864.0
1068.3643 1486.4199 3821.0
1075.0001 1486.4199 3821.0
1081.6359 1486.4199 3821.0
1076.3097 1470.0813 3779.0
1082.8724 1470.0813 3779.0
1434.8026 1936.1193 4977.0
1464.6179 1964.5173 5050.0
1473.388 1964.5173 5050.0
1419.937 1882.0465 4838.0
1408.5582 1855.9825 4771.0
1436.7407 1882.0465 4838.0
1445.143 1882.0465 4838.0
1453.5448 1882.0465 4838.0
1129.549 1454.1318 3738.0
1136.0405 1454.1318 3738.0
1142.532 1454.1318 3738.0
1149.0238 1454.1318 3738.0
1221.6685 1537.3806 3952.0
1228.532 1537.3806 3952.0
1533.6156 1908.4994 4906.0
1542.1355 1908.4994 4906.0
1529.1628 1882.0465 4838.0
1537.5647 1882.0465 4838.0
1545.9669 1882.0465 4838.0
1554.3688 1882.0465 4838.0
1499.7817 1806.1888 4643.0
1507.8452 1806.1888 4643.0
1495.6659 1782.0701 4581.0
1503.6217 1782.0701 4581.0
1511.5773 1782.0701 4581.0
1519.5328 1782.0701 4581.0
1507.4823 1758.7292 4521.0
1515.3336 1758.7292 4521.0
1543.4 1782.0701 4581.0
1551.3556 1782.0701 4581.0
1559.3112 1782.0701 4581.0
1567.267 1782.0701 4581.0
1554.591 1758.7292 4521.0
1225.4858 1379.4413 3546.0
1231.6439 1379.4413 3546.0
1225.2356 1365.4368 3510.0
1231.3314 1365.4368 3510.0
1225.088 1351.8213 3475.0
1231.123 1351.8213 3475.0
1200.8442 1312.142 3373.0
1206.7019 1312.142 3373.0
1212.5598 1312.142 3373.0
1230.338 1324.9794 3406.0
1248.594 1338.2058 3440.0
1293.2262 1379.4413 3546.0
1299.3843 1379.4413 3546.0
1319.165 1393.8347 3583.0
1325.3875 1393.8347 3583.0
1331.6101 1393.8347 3583.0
1324.0173 1379.4413 3546.0
1344.0548 1393.8347 3583.0
1336.3337 1379.4413 3546.0
1315.6118 1351.8213 3475.0
1321.6469 1351.8213 3475.0
1314.3093 1338.2058 3440.0
1320.2833 1338.2058 3440.0
1339.7515 1351.8213 3475.0
1345.7864 1351.8213 3475.0
1351.8214 1351.8213 3475.0
1385.5995 1379.4413 3546.0
1391.7576 1379.4413 3546.0
1412.5022 1393.8347 3583.0
1404.0741 1379.4413 3546.0
1410.2324 1379.4413 3546.0
1402.011 1365.4368 3510.0
1408.1066 1365.4368 3510.0
1821.541 1758.7292 4521.0
1829.3925 1758.7292 4521.0
1384.1304 1324.9794 3406.0
1390.0453 1324.9794 3406.0
1782.8618 1692.208 4350.0
1375.1222 1299.6935 3341.0
1380.9243 1299.6935 3341.0
1373.4446 1287.2451 3309.0
1405.8663 1312.142 3373.0
1398.3309 1299.6935 3341.0
1404.1332 1299.6935 3341.0
1423.4397 1312.142 3373.0
1429.2976 1312.142 3373.0
1842.1692 1650.5835 4243.0
1849.5377 1650.5835 4243.0
1812.705 1611.2932 4142.0
1819.8981 1611.2932 4142.0
1827.0916 1611.2932 4142.0
1812.585 1592.2316 4093.0
1819.6931 1592.2316 4093.0
1805.3779 1573.5588 4045.0
1812.4026 1573.5588 4045.0
1819.4276 1573.5588 4045.0
1805.2302 1555.2753 3998.0
1812.1733 1555.2753 3998.0
1798.1864 1537.3806 3952.0
1784.4961 1519.875 3907.0
1791.2814 1519.875 3907.0
1778.2772 1503.1475 3864.0
1804.8516 1519.875 3907.0
1791.6981 1503.1475 3864.0
1818.4219 1519.875 3907.0
1846.2296 1537.3806 3952.0
1831.9923 1519.875 3907.0
1818.5399 1503.1475 3864.0
1825.2506 1503.1475 3864.0
1811.5742 1486.4199 3821.0
1818.2102 1486.4199 3821.0
1824.8458 1486.4199 3821.0
1811.3501 1470.0813 3779.0
1817.9132 1470.0813 3779.0
1824.476 1470.0813 3779.0
1831.039 1470.0813 3779.0
1837.6017 1470.0813 3779.0
1844.1644 1470.0813 3779.0
1850.7274 1470.0813 3779.0
1857.2903 1470.0813 3779.0
1863.8533 1470.0813 3779.0
1870.416 1470.0813 3779.0
1876.9788 1470.0813 3779.0
1883.5417 1470.0813 3779.0
1890.1046 1470.0813 3779.0
1896.6676 1470.0813 3779.0
1903.2303 1470.0813 3779.0
1909.7931 1470.0813 3779.0
1916.3561 1470.0813 3779.0
1922.9188 1470.0813 3779.0
1929.4819 1470.0813 3779.0
1915.0397 1454.1318 3738.0
1921.5312 1454.1318 3738.0
1928.0231 1454.1318 3738.0
1893.63 1423.3998 3659.0
1880.2526 1408.6173 3621.0
1886.541 1408.6173 3621.0
1892.8293 1408.6173 3621.0
1960.4813 1454.1318 3738.0
1945.9244 1438.5713 3698.0
1952.3468 1438.5713 3698.0
1958.7689 1438.5713 3698.0
1965.191 1438.5713 3698.0
1992.9396 1454.1318 3738.0
1999.4312 1454.1318 3738.0
2005.923 1454.1318 3738.0
1990.8799 1438.5713 3698.0
1997.302 1438.5713 3698.0
-2329.634 1623.4637 4192.0
-2322.354 1623.4637 4192.0
-2315.074 1623.4637 4192.0
-2335.8704 1643.2148 4243.0
-2328.5017 1643.2148 4243.0
-2321.133 1643.2148 4243.0
-2313.7644 1643.2148 4243.0
-2306.3958 1643.2148 4243.0
-2327.7446 1663.7405 4296.0
-2349.4495 1684.6534 4350.0
-2341.895 1684.6534 4350.0
-2334.3406 1684.6534 4350.0
-2326.786 1684.6534 4350.0
-2349.0881 1706.341 4406.0
-2341.4365 1706.341 4406.0
-2333.7847 1706.341 4406.0
-2326.133 1706.341 4406.0
-2289.0134 1684.6534 4350.0
-2281.459 1684.6534 4350.0
-2273.9045 1684.6534 4350.0
-2295.526 1706.341 4406.0
-2287.8743 1706.341 4406.0
-2309.7214 1728.4158 4463.0
-2301.9707 1728.4158 4463.0
-2294.22 1728.4158 4463.0
-2316.1836 1750.8778 4521.0
-2308.332 1750.8778 4521.0
-2300.4807 1750.8778 4521.0
-2323.0557 1774.1144 4581.0
-2284.7778 1750.8778 4521.0
-2307.1443 1774.1144 4581.0
-2299.1885 1774.1144 4581.0
-2261.2234 1750.8778 4521.0
-2253.3718 1750.8778 4521.0
-2245.5203 1750.8778 4521.0
-2267.366 1774.1144 4581.0
-2259.4102 1774.1144 4581.0
-2251.4546 1774.1144 4581.0
-2214.1145 1750.8778 4521.0
-2206.263 1750.8778 4521.0
-2198.4116 1750.8778 4521.0
-2190.56 1750.8778 4521.0
-2154.7065 1728.4158 4463.0
-2146.9558 1728.4158 4463.0
-2139.205 1728.4158 4463.0
-2131.4543 1728.4158 4463.0
-2123.7036 1728.4158 4463.0
-2088.9287 1706.341 4406.0
-2108.2021 1728.4158 4463.0
-2100.4514 1728.4158 4463.0
-2092.7007 1728.4158 4463.0
-2084.95 1728.4158 4463.0
-2077.1992 1728.4158 4463.0
-2124.1638 1774.1144 4581.0
-2144.8494 1798.1255 4643.0
-2108.2524 1774.1144 4581.0
-2100.2969 1774.1144 4581.0
-2092.3413 1774.1144 4581.0
-2084.3855 1774.1144 4581.0
-2076.43 1774.1144 4581.0
-2068.474 1774.1144 4581.0
-2033.5306 1750.8778 4521.0
-1999.6918 1728.4158 4463.0
-2017.8278 1750.8778 4521.0
-2036.6515 1774.1144 4581.0
-2056.1526 1798.1255 4643.0
-2048.089 1798.1255 4643.0
-2040.0259 1798.1255 4643.0
-2031.9625 1798.1255 4643.0
-2023.8992 1798.1255 4643.0
-2043.1884 1822.5239 4706.0
-2007.7725 1798.1255 4643.0
-1999.7091 1798.1255 4643.0
-1991.6458 1798.1255 4643.0
-2010.4973 1822.5239 4706.0
-2002.3246 1822.5239 4706.0
-2021.6953 1847.6969 4771.0
-2013.4097 1847.6969 4771.0
-2005.124 1847.6969 4771.0
-2024.8804 1873.6445 4838.0
-2016.4784 1873.6445 4838.0
-2036.3007 1899.9792 4906.0
-1999.6744 1873.6445 4838.0
-2019.2605 1899.9792 4906.0
-2010.7405 1899.9792 4906.0
-2031.1967 1927.476 4977.0
-2022.5532 1927.476 4977.0
-2013.9098 1927.476 4977.0
-2005.2665 1927.476 4977.0
-1996.623 1927.476 4977.0
-1987.9796 1927.476 4977.0
-1979.3362 1927.476 4977.0
-1970.6929 1927.476 4977.0
-1962.0494 1927.476 4977.0
-1953.4061 1927.476 4977.0
-1944.7627 1927.476 4977.0
-1936.1193 1927.476 4977.0
-1927.476 1927.476 4977.0
-1918.8325 1927.476 4977.0
-1910.1892 1927.476 4977.0
-1901.5458 1927.476 4977.0
-1892.9023 1927.476 4977.0
-1884.259 1927.476 4977.0
-1875.6156 1927.476 4977.0
-1866.9723 1927.476 4977.0
-1858.3289 1927.476 4977.0
-1849.6854 1927.476 4977.0
-1841.042 1927.476 4977.0
-1832.3987 1927.476 4977.0
-1823.7552 1927.476 4977.0
-1815.1118 1927.476 4977.0
-1780.698 1899.9792 4906.0
-1772.178 1899.9792 4906.0
-1763.6578 1899.9792 4906.0
-1755.1378 1899.9792 4906.0
-1746.6177 1899.9792 4906.0
-1738.0977 1899.9792 4906.0
-1705.6046 1873.6445 4838.0
-1697.2026 1873.6445 4838.0
-1688.8007 1873.6445 4838.0
-1680.3987 1873.6445 4838.0
-1671.9966 1873.6445 4838.0
-1663.5946 1873.6445 4838.0
-1655.1926 1873.6445 4838.0
-1646.7906 1873.6445 4838.0
-1638.3887 1873.6445 4838.0
-1652.8967 1899.9792 4906.0
-1668.1743 1927.476 4977.0
-1659.5309 1927.476 4977.0
-1650.8875 1927.476 4977.0
-1642.244 1927.476 4977.0
-1633.6006 1927.476 4977.0
-1648.7913 1955.7472 5050.0
-1640.0211 1955.7472 5050.0
-1607.6705 1927.476 4977.0
-1622.4808 1955.7472 5050.0
-1613.7106 1955.7472 5050.0
-1604.9404 1955.7472 5050.0
-1596.1703 1955.7472 5050.0
-1587.4001 1955.7472 5050.0
-1578.63 1955.7472 5050.0
-1569.8597 1955.7472 5050.0
-1561.0896 1955.7472 5050.0
-1552.3195 1955.7472 5050.0
-1543.5493 1955.7472 5050.0
-1512.5933 1927.476 4977.0
-1503.9498 1927.476 4977.0
-1495.3065 1927.476 4977.0
-1486.6631 1927.476 4977.0
-1478.0197 1927.476 4977.0
-1469.3762 1927.476 4977.0
-1482.1581 1955.7472 5050.0
-1473.388 1955.7472 5050.0
-1464.6178 1955.7472 5050.0
-1455.8477 1955.7472 5050.0
-1447.0775 1955.7472 5050.0
-1438.3073 1955.7472 5050.0
-1429.5371 1955.7472 5050.0
-1420.767 1955.7472 5050.0
-1411.9968 1955.7472 5050.0
-1403.2267 1955.7472 5050.0
-1394.4564 1955.7472 5050.0
-1385.6863 1955.7472 5050.0
-1376.9163 1955.7472 5050.0
-1388.465 1984.7928 5125.0
-1379.5646 1984.7928 5125.0
-1391.2574 2014.6132 5202.0
-1382.2233 2014.6132 5202.0
-1373.1893 2014.6132 5202.0
-1343.9629 1984.7928 5125.0
-1335.0625 1984.7928 5125.0
-1326.162 1984.7928 5125.0
-1297.9846 1955.7472 5050.0
-1289.2146 1955.7472 5050.0
-1280.4443 1955.7472 5050.0
-1271.6742 1955.7472 5050.0
-1262.9039 1955.7472 5050.0
-1254.1338 1955.7472 5050.0
-1245.3638 1955.7472 5050.0
-1236.5935 1955.7472 5050.0
-1227.8234 1955.7472 5050.0
-1219.0531 1955.7472 5050.0
-1210.283 1955.7472 5050.0
-1219.3572 1984.7928 5125.0
-1192.7427 1955.7472 5050.0
-1201.5563 1984.7928 5125.0
-1192.6558 1984.7928 5125.0
-1183.7554 1984.7928 5125.0
-1157.662 1955.7472 5050.0
-1165.9546 1984.7928 5125.0
-1157.0542 1984.7928 5125.0
-1148.1537 1984.7928 5125.0
-1156.3699 2014.6132 5202.0
-1147.3358 2014.6132 5202.0
-1155.8073 2045.5953 5282.0
-1146.6342 2045.5953 5282.0
-1137.461 2045.5953 5282.0
-1128.288 2045.5953 5282.0
-1119.115 2045.5953 5282.0
-1109.9419 2045.5953 5282.0
-1100.7688 2045.5953 5282.0
-1091.5957 2045.5953 5282.0
-1082.4226 2045.5953 5282.0
-1073.2496 2045.5953 5282.0
-1064.0765 2045.5953 5282.0
-1054.9034 2045.5953 5282.0
-1045.7303 2045.5953 5282.0
-1036.5573 2045.5953 5282.0
-1027.3843 2045.5953 5282.0
-1018.2112 2045.5953 5282.0
-1009.038 2045.5953 5282.0
-999.8649 2045.5953 5282.0
-1006.0718 2077.352 5364.0
-996.7564 2077.352 5364.0
-987.4409 2077.352 5364.0
-978.12537 2077.352 5364.0
-968.8099 2077.352 5364.0
-944.8265 2045.5953 5282.0
-950.179 2077.352 5364.0
-926.4804 2045.5953 5282.0
-917.3073 2045.5953 5282.0
-908.1342 2045.5953 5282.0
-898.9611 2045.5953 5282.0
-889.78815 2045.5953 5282.0
-880.61505 2045.5953 5282.0
-871.44196 2045.5953 5282.0
-862.26886 2045.5953 5282.0
-866.33954 2077.352 5364.0
-843.9228 2045.5953 5282.0
-847.7087 2077.352 5364.0
-838.3932 2077.352 5364.0
-829.0777 2077.352 5364.0
-819.76215 2077.352 5364.0
-810.44684 2077.352 5364.0
-801.1313 2077.352 5364.0
-791.8158 2077.352 5364.0
-782.50024 2077.352 5364.0
-773.18475 2077.352 5364.0
-763.86945 2077.352 5364.0
-754.5539 2077.352 5364.0
-745.2384 2077.352 5364.0
-735.92285 2077.352 5364.0
-726.60736 2077.352 5364.0
-717.292 2077.352 5364.0
-707.9765 2077.352 5364.0
-687.98047 2045.5953 5282.0
-678.8074 2045.5953 5282.0
-669.6343 2045.5953 5282.0
-660.46136 2045.5953 5282.0
-651.2882 2045.5953 5282.0
-642.1151 2045.5953 5282.0
-632.942 2045.5953 5282.0
-633.4526 2077.352 5364.0
-624.1372 2077.352 5364.0
-614.8217 2077.352 5364.0
-605.50616 2077.352 5364.0
-596.1907 2077.352 5364.0
-586.8752 2077.352 5364.0
-577.5598 2077.352 5364.0
-568.2443 2077.352 5364.0
-558.9288 2077.352 5364.0
-549.6133 2077.352 5364.0
-548.7588 2109.8833 5448.0
-539.2976 2109.8833 5448.0
-529.8362 2109.8833 5448.0
-520.3748 2109.8833 5448.0
-519.07227 2143.5764 5535.0
-501.452 2109.8833 5448.0
-491.99078 2109.8833 5448.0
-482.5294 2109.8833 5448.0
-473.068 2109.8833 5448.0
-463.6066 2109.8833 5448.0
-454.1452 2109.8833 5448.0
-444.684 2109.8833 5448.0
-435.2226 2109.8833 5448.0
-432.56024 2143.5764 5535.0
-422.94775 2143.5764 5535.0
-413.33527 2143.5764 5535.0
-403.72296 2143.5764 5535.0
-394.11047 2143.5764 5535.0
-384.498 2143.5764 5535.0
-374.8855 2143.5764 5535.0
-365.273 2143.5764 5535.0
-355.6607 2143.5764 5535.0
-346.04822 2143.5764 5535.0
-336.43573 2143.5764 5535.0
-326.82324 2143.5764 5535.0
-317.2108 2143.5764 5535.0
-307.59848 2143.5764 5535.0
-297.986 2143.5764 5535.0
-288.3735 2143.5764 5535.0
-278.76102 2143.5764 5535.0
-269.14853 2143.5764 5535.0
-259.53622 2143.5764 5535.0
-249.92374 2143.5764 5535.0
-240.31125 2143.5764 5535.0
-230.69876 2143.5764 5535.0
-221.08627 2143.5764 5535.0
-214.95078 2178.8186 5626.0
-205.18025 2178.8186 5626.0
-195.40973 2178.8186 5626.0
-185.6392 2178.8186 5626.0
-178.77586 2214.8352 5719.0
-166.09834 2178.8186 5626.0
-153.79924 2143.5764 5535.0
-144.18675 2143.5764 5535.0
-134.57426 2143.5764 5535.0
-124.96178 2143.5764 5535.0
-115.34947 2143.5764 5535.0
-105.736984 2143.5764 5535.0
-94.6136 2109.8833 5448.0
-83.83928 2077.352 5364.0
-76.89953 2143.5764 5535.0
-67.287224 2143.5764 5535.0
-58.622955 2178.8186 5626.0
-48.852432 2178.8186 5626.0
-39.08191 2178.8186 5626.0
-29.311384 2178.8186 5626.0
-19.541048 2178.8186 5626.0
-9.770524 2178.8186 5626.0
0.0 2214.8352 5719.0
9.931845 2214.8352 5719.0
19.864069 2214.8352 5719.0
29.795914 2214.8352 5719.0
39.082096 2178.8186 5626.0
49.65998 2214.8352 5719.0
57.674553 2143.5764 5535.0
67.287224 2143.5764 5535.0
76.89953 2143.5764 5535.0
85.15238 2109.8833 5448.0
94.6136 2109.8833 5448.0
104.074814 2109.8833 5448.0
113.53639 2109.8833 5448.0
122.997604 2109.8833 5448.0
132.45918 2109.8833 5448.0
141.9204 2109.8833 5448.0
153.79906 2143.5764 5535.0
163.41173 2143.5764 5535.0
170.3044 2109.8833 5448.0
179.76598 2109.8833 5448.0
183.46146 2045.5953 5282.0
189.7168 2014.6132 5202.0
198.75114 2014.6132 5202.0
204.70952 1984.7928 5125.0
213.61014 1984.7928 5125.0
222.5104 1984.7928 5125.0
231.41069 1984.7928 5125.0
240.31131 1984.7928 5125.0
249.2116 1984.7928 5125.0
254.33496 1955.7472 5050.0
263.10498 1955.7472 5050.0
271.87503 1955.7472 5050.0
284.8134 1984.7928 5125.0
289.41544 1955.7472 5050.0
298.1858 1955.7472 5050.0
302.51865 1927.476 4977.0
315.72586 1955.7472 5050.0
324.49622 1955.7472 5050.0
333.26627 1955.7472 5050.0
337.09235 1927.476 4977.0
345.7356 1927.476 4977.0
349.32343 1899.9792 4906.0
357.8437 1899.9792 4906.0
366.36365 1899.9792 4906.0
374.88394 1899.9792 4906.0
383.4039 1899.9792 4906.0
391.92386 1899.9792 4906.0
400.44412 1899.9792 4906.0
408.96408 1899.9792 4906.0
417.48438 1899.9792 4906.0
420.09967 1873.6445 4838.0
428.50153 1873.6445 4838.0
430.85315 1847.6969 4771.0
439.13867 1847.6969 4771.0
447.4245 1847.6969 4771.0
455.71002 1847.6969 4771.0
470.51147 1873.6445 4838.0
472.28134 1847.6969 4771.0
480.56686 1847.6969 4771.0
585.9879 2214.8352 5719.0
497.13818 1847.6969 4771.0
505.4237 1847.6969 4771.0
513.70953 1847.6969 4771.0
521.99506 1847.6969 4771.0
516.0541 1798.1255 4643.0
517.1185 1774.1144 4581.0
532.18054 1798.1255 4643.0
533.02997 1774.1144 4581.0
548.30725 1798.1255 4643.0
563.9201 1822.5239 4706.0
564.434 1798.1255 4643.0
564.8524 1774.1144 4581.0
572.8083 1774.1144 4581.0
580.76385 1774.1144 4581.0
588.71967 1774.1144 4581.0
596.67523 1774.1144 4581.0
604.6308 1774.1144 4581.0
604.56323 1750.8778 4521.0
612.4146 1750.8778 4521.0
620.26624 1750.8778 4521.0
628.1176 1750.8778 4521.0
635.96893 1750.8778 4521.0
643.8206 1750.8778 4521.0
643.31165 1728.4158 4463.0
651.06256 1728.4158 4463.0
650.39905 1706.341 4406.0
666.5638 1728.4158 4463.0
674.3147 1728.4158 4463.0
673.35425 1706.341 4406.0
681.00616 1706.341 4406.0
688.6578 1706.341 4406.0
687.45935 1684.6534 4350.0
695.01404 1684.6534 4350.0
923.6756 2214.8352 5719.0
933.60785 2214.8352 5719.0
717.6775 1684.6534 4350.0
725.2319 1684.6534 4350.0
732.78656 1684.6534 4350.0
731.1505 1663.7405 4296.0
747.8956 1684.6534 4350.0
746.07196 1663.7405 4296.0
753.5326 1663.7405 4296.0
760.99347 1663.7405 4296.0
768.4541 1663.7405 4296.0
775.915 1663.7405 4296.0
783.3756 1663.7405 4296.0
800.77686 1684.6534 4350.0
808.33154 1684.6534 4350.0
815.8859 1684.6534 4350.0
823.4406 1684.6534 4350.0
1009.038 2045.5953 5282.0
1018.211 2045.5953 5282.0
996.84674 1984.7928 5125.0
1005.747 1984.7928 5125.0
1014.64764 1984.7928 5125.0
1038.926 2014.6132 5202.0
1032.4481 1984.7928 5125.0
1041.3488 1984.7928 5125.0
1050.249 1984.7928 5125.0
1059.1497 1984.7928 5125.0
863.1928 1604.1 4142.0
870.3859 1604.1 4142.0
877.5794 1604.1 4142.0
884.7725 1604.1 4142.0
881.414 1585.1234 4093.0
888.5221 1585.1234 4093.0
895.6301 1585.1234 4093.0
902.73846 1585.1234 4093.0
909.84656 1585.1234 4093.0
906.2014 1566.534 4045.0
913.22614 1566.534 4045.0
942.31866 1604.1 4142.0
949.51215 1604.1 4142.0
956.70526 1604.1 4142.0
963.89874 1604.1 4142.0
1166.8577 1927.476 4977.0
1175.5009 1927.476 4977.0
1184.1445 1927.476 4977.0
1192.7877 1927.476 4977.0
1201.4313 1927.476 4977.0
1210.0746 1927.476 4977.0
1218.7179 1927.476 4977.0
1227.3615 1927.476 4977.0
981.45276 1530.5173 3952.0
988.3162 1530.5173 3952.0
983.8477 1513.09 3907.0
990.63275 1513.09 3907.0
997.4181 1513.09 3907.0
1004.2031 1513.09 3907.0
1010.9884 1513.09 3907.0
1029.496 1530.5173 3952.0
1024.5586 1513.09 3907.0
1031.3439 1513.09 3907.0
1026.7034 1496.437 3864.0
1312.0935 1899.9792 4906.0
1302.309 1873.6445 4838.0
1310.7108 1873.6445 4838.0
1319.113 1873.6445 4838.0
1327.5149 1873.6445 4838.0
1335.917 1873.6445 4838.0
1344.3188 1873.6445 4838.0
1352.7208 1873.6445 4838.0
1361.1229 1873.6445 4838.0
1388.774 1899.9792 4906.0
1397.2943 1899.9792 4906.0
1405.8143 1899.9792 4906.0
1394.7307 1873.6445 4838.0
1422.8545 1899.9792 4906.0
1411.5348 1873.6445 4838.0
1419.937 1873.6445 4838.0
1408.5582 1847.6969 4771.0
1436.7407 1873.6445 4838.0
1445.143 1873.6445 4838.0
1453.5448 1873.6445 4838.0
1461.9469 1873.6445 4838.0
1470.3488 1873.6445 4838.0
1478.7506 1873.6445 4838.0
1466.5577 1847.6969 4771.0
1207.7578 1513.09 3907.0
1483.129 1847.6969 4771.0
1512.3588 1873.6445 4838.0
1542.1355 1899.9792 4906.0
1529.1628 1873.6445 4838.0
1537.5647 1873.6445 4838.0
1524.5573 1847.6969 4771.0
1511.9594 1822.5239 4706.0
1520.132 1822.5239 4706.0
1507.8452 1798.1255 4643.0
1495.6659 1774.1144 4581.0
1503.6217 1774.1144 4581.0
1511.5773 1774.1144 4581.0
1519.5328 1774.1144 4581.0
1507.4823 1750.8778 4521.0
1515.3336 1750.8778 4521.0
1523.1853 1750.8778 4521.0
1531.0366 1750.8778 4521.0
1538.888 1750.8778 4521.0
1546.7396 1750.8778 4521.0
1554.591 1750.8778 4521.0
1562.4426 1750.8778 4521.0
1570.294 1750.8778 4521.0
1225.2356 1359.3411 3510.0
1231.3314 1359.3411 3510.0
1237.427 1359.3411 3510.0
1231.123 1345.7864 3475.0
1200.8442 1306.2842 3373.0
1218.5077 1319.0643 3406.0
1224.423 1319.0643 3406.0
1242.6196 1332.2317 3440.0
1248.594 1332.2317 3440.0
1293.2262 1373.2831 3546.0
1299.3843 1373.2831 3546.0
1319.165 1387.6123 3583.0
1325.3875 1387.6123 3583.0
1331.6101 1387.6123 3583.0
1324.0173 1373.2831 3546.0
1344.0548 1387.6123 3583.0
1336.3337 1373.2831 3546.0
1328.8625 1359.3411 3510.0
1321.6469 1345.7864 3475.0
1314.3093 1332.2317 3440.0
1320.2833 1332.2317 3440.0
1326.2576 1332.2317 3440.0
1332.2317 1332.2317 3440.0
1351.8214 1345.7864 3475.0
1357.8562 1345.7864 3475.0
1406.2797 1387.6123 3583.0
1412.5022 1387.6123 3583.0
1404.0741 1373.2831 3546.0
1410.2324 1373.2831 3546.0
1805.838 1750.8778 4521.0
1813.6895 1750.8778 4521.0
1821.541 1750.8778 4521.0
1782.8584 1706.341 4406.0
1703.545 1623.4637 4192.0
1710.8251 1623.4637 4192.0
1718.105 1623.4637 4192.0
1704.8058 1604.1 4142.0
1711.999 1604.1 4142.0
1739.9456 1623.4637 4192.0
1747.2256 1623.4637 4192.0
1411.7241 1306.2842 3373.0
1417.582 1306.2842 3373.0
1423.4397 1306.2842 3373.0
1798.3184 1604.1 4142.0
1784.1522 1585.1234 4093.0
1791.2605 1585.1234 4093.0
1777.2786 1566.534 4045.0
1827.0916 1604.1 4142.0
1812.585 1585.1234 4093.0
1798.3529 1566.534 4045.0
1784.4008 1548.332 3998.0
1791.3438 1548.332 3998.0
1798.2871 1548.332 3998.0
1805.2302 1548.332 3998.0
1812.1733 1548.332 3998.0
1819.1167 1548.332 3998.0
1784.4961 1513.09 3907.0
1811.9131 1530.5173 3952.0
1798.0665 1513.09 3907.0
1804.8516 1513.09 3907.0
1791.6981 1496.437 3864.0
1818.4219 1513.09 3907.0
1825.2072 1513.09 3907.0
1831.9923 1513.09 3907.0
1838.7773 1513.09 3907.0
1825.2506 1496.437 3864.0
1831.9609 1496.437 3864.0
1818.2102 1479.784 3821.0
1824.8458 1479.784 3821.0
1811.3501 1463.5186 3779.0
1817.9132 1463.5186 3779.0
1824.476 1463.5186 3779.0
1831.039 1463.5186 3779.0
1837.6017 1463.5186 3779.0
1844.1644 1463.5186 3779.0
1871.2965 1479.784 3821.0
1857.2903 1463.5186 3779.0
1863.8533 1463.5186 3779.0
1870.416 1463.5186 3779.0
1876.9788 1463.5186 3779.0
1883.5417 1463.5186 3779.0
1890.1046 1463.5186 3779.0
1896.6676 1463.5186 3779.0
1903.2303 1463.5186 3779.0
1909.7931 1463.5186 3779.0
1916.3561 1463.5186 3779.0
1922.9188 1463.5186 3779.0
1929.4819 1463.5186 3779.0
1915.0397 1447.6401 3738.0
1921.5312 1447.6401 3738.0
1907.3915 1432.149 3698.0
1893.63 1417.0453 3659.0
1880.2526 1402.3287 3621.0
1886.541 1402.3287 3621.0
1892.8293 1402.3287 3621.0
1919.048 1417.0453 3659.0
1925.4023 1417.0453 3659.0
1931.757 1417.0453 3659.0
1958.7689 1432.149 3698.0
1965.191 1432.149 3698.0
1992.9396 1447.6401 3738.0
1999.4312 1447.6401 3738.0
1984.4578 1432.149 3698.0
1990.8799 1432.149 3698.0
1997.302 1432.149 3698.0
-2329.634 1616.1836 4192.0
-2322.354 1616.1836 4192.0
-2343.2393 1635.8462 4243.0
-2335.8704 1635.8462 4243.0
-2328.5017 1635.8462 4243.0
-2321.133 1635.8462 4243.0
-2313.7644 1635.8462 4243.0
-2335.2053 1656.2798 4296.0
-2357.004 1677.099 4350.0
-2349.4495 1677.099 4350.0
-2341.895 1677.099 4350.0
-2334.3406 1677.099 4350.0
-2326.786 1677.099 4350.0
-2319.2314 1677.099 4350.0
-2341.4365 1698.6892 4406.0
-2333.7847 1698.6892 4406.0
-2296.5679 1677.099 4350.0
-2289.0134 1677.099 4350.0
-2281.459 1677.099 4350.0
-2273.9045 1677.099 4350.0
-2295.526 1698.6892 4406.0
-2287.8743 1698.6892 4406.0
-2309.7214 1720.665 4463.0
-2301.9707 1720.665 4463.0
-2294.22 1720.665 4463.0
-2316.1836 1743.0262 4521.0
-2308.332 1743.0262 4521.0
-2300.4807 1743.0262 4521.0
-2323.0557 1766.1587 4581.0
-2315.0999 1766.1587 4581.0
-2307.1443 1766.1587 4581.0
-2299.1885 1766.1587 4581.0
-2261.2234 1743.0262 4521.0
-2253.3718 1743.0262 4521.0
-2245.5203 1743.0262 4521.0
-2237.669 1743.0262 4521.0
-2229.8174 1743.0262 4521.0
-2221.966 1743.0262 4521.0
-2214.1145 1743.0262 4521.0
-2206.263 1743.0262 4521.0
-2198.4116 1743.0262 4521.0
-2162.4573 1720.665 4463.0
-2154.7065 1720.665 4463.0
-2146.9558 1720.665 4463.0
-2139.205 1720.665 4463.0
-2131.4543 1720.665 4463.0
-2123.7036 1720.665 4463.0
-2115.953 1720.665 4463.0
-2108.2021 1720.665 4463.0
-2100.4514 1720.665 4463.0
-2092.7007 1720.665 4463.0
-2084.95 1720.665 4463.0
-2160.976 1790.0621 4643.0
-2152.9126 1790.0621 4643.0
-2144.8494 1790.0621 4643.0
-2136.786 1790.0621 4643.0
-2128.7227 1790.0621 4643.0
-2120.6592 1790.0621 4643.0
-2112.596 1790.0621 4643.0
-2104.5325 1790.0621 4643.0
-2096.4692 1790.0621 4643.0
-2088.406 1790.0621 4643.0
-2080.3425 1790.0621 4643.0
-2072.2793 1790.0621 4643.0
-2092.2249 1814.3512 4706.0
-2084.052 1814.3512 4706.0
-2075.8794 1814.3512 4706.0
-2067.7065 1814.3512 4706.0
-2059.5337 1814.3512 4706.0
-2023.8992 1790.0621 4643.0
-2015.8358 1790.0621 4643.0
-2007.7725 1790.0621 4643.0
-1999.7091 1790.0621 4643.0
-1991.6458 1790.0621 4643.0
-2010.4973 1814.3512 4706.0
-2002.3246 1814.3512 4706.0
-2021.6953 1839.4113 4771.0
-2013.4097 1839.4113 4771.0
-2005.124 1839.4113 4771.0
-2024.8804 1865.2424 4838.0
-2016.4784 1865.2424 4838.0
-2036.3007 1891.4592 4906.0
-2027.7806 1891.4592 4906.0
-2019.2605 1891.4592 4906.0
-2010.7405 1891.4592 4906.0
-2002.2203 1891.4592 4906.0
-2022.5532 1918.8325 4977.0
-2013.9098 1918.8325 4977.0
-2005.2665 1918.8325 4977.0
-1996.623 1918.8325 4977.0
-1987.9796 1918.8325 4977.0
-1979.3362 1918.8325 4977.0
-1970.6929 1918.8325 4977.0
-1962.0494 1918.8325 4977.0
-1953.4061 1918.8325 4977.0
-1944.7627 1918.8325 4977.0
-1936.1193 1918.8325 4977.0
-1927.476 1918.8325 4977.0
-1918.8325 1918.8325 4977.0
-1910.1892 1918.8325 4977.0
-1901.5458 1918.8325 4977.0
-1892.9023 1918.8325 4977.0
-1884.259 1918.8325 4977.0
-1848.8588 1891.4592 4906.0
-1866.9723 1918.8325 4977.0
-1858.3289 1918.8325 4977.0
-1849.6854 1918.8325 4977.0
-1841.042 1918.8325 4977.0
-1832.3987 1918.8325 4977.0
-1823.7552 1918.8325 4977.0
-1815.1118 1918.8325 4977.0
-1780.698 1891.4592 4906.0
-1772.178 1891.4592 4906.0
-1763.6578 1891.4592 4906.0
-1755.1378 1891.4592 4906.0
-1746.6177 1891.4592 4906.0
-1738.0977 1891.4592 4906.0
-1705.6046 1865.2424 4838.0
-1697.2026 1865.2424 4838.0
-1688.8007 1865.2424 4838.0
-1680.3987 1865.2424 4838.0
-1648.8417 1839.4113 4771.0
-1640.556 1839.4113 4771.0
-1632.2704 1839.4113 4771.0
-1646.7906 1865.2424 4838.0
-1661.4169 1891.4592 4906.0
-1652.8967 1891.4592 4906.0
-1668.1743 1918.8325 4977.0
-1659.5309 1918.8325 4977.0
-1650.8875 1918.8325 4977.0
-1642.244 1918.8325 4977.0
-1633.6006 1918.8325 4977.0
-1624.9573 1918.8325 4977.0
-1616.3138 1918.8325 4977.0
-1607.6705 1918.8325 4977.0
-1599.0271 1918.8325 4977.0
-1613.7106 1946.9769 5050.0
-1604.9404 1946.9769 5050.0
-1596.1703 1946.9769 5050.0
-1587.4001 1946.9769 5050.0
-1578.63 1946.9769 5050.0
-1569.8597 1946.9769 5050.0
-1561.0896 1946.9769 5050.0
-1552.3195 1946.9769 5050.0
-1543.5493 1946.9769 5050.0
-1534.7792 1946.9769 5050.0
-1526.0089 1946.9769 5050.0
-1495.3065 1918.8325 4977.0
-1486.6631 1918.8325 4977.0
-1478.0197 1918.8325 4977.0
-1469.3762 1918.8325 4977.0
-1482.1581 1946.9769 5050.0
-1473.388 1946.9769 5050.0
-1464.6178 1946.9769 5050.0
-1455.8477 1946.9769 5050.0
-1447.0775 1946.9769 5050.0
-1438.3073 1946.9769 5050.0
-1429.5371 1946.9769 5050.0
-1420.767 1946.9769 5050.0
-1411.9968 1946.9769 5050.0
-1403.2267 1946.9769 5050.0
-1394.4564 1946.9769 5050.0
-1385.6863 1946.9769 5050.0
-1376.9163 1946.9769 5050.0
-1409.3258 2005.579 5202.0
-1400.2916 2005.579 5202.0
-1391.2574 2005.579 5202.0
-1382.2233 2005.579 5202.0
-1373.1893 2005.579 5202.0
-1343.9629 1975.8925 5125.0
-1335.0625 1975.8925 5125.0
-1306.7548 1946.9769 5050.0
-1297.9846 1946.9769 5050.0
-1289.2146 1946.9769 5050.0
-1280.4443 1946.9769 5050.0
-1271.6742 1946.9769 5050.0
-1262.9039 1946.9769 5050.0
-1254.1338 1946.9769 5050.0
-1245.3638 1946.9769 5050.0
-1236.5935 1946.9769 5050.0
-1227.8234 1946.9769 5050.0
-1219.0531 1946.9769 5050.0
-1210.283 1946.9769 5050.0
-1201.5128 1946.9769 5050.0
-1192.7427 1946.9769 5050.0
-1183.9725 1946.9769 5050.0
-1175.2023 1946.9769 5050.0
-1183.7554 1975.8925 5125.0
-1157.662 1946.9769 5050.0
-1165.9546 1975.8925 5125.0
-1157.0542 1975.8925 5125.0
-1148.1537 1975.8925 5125.0
-1156.3699 2005.579 5202.0
-1147.3358 2005.579 5202.0
-1155.8073 2036.4222 5282.0
-1146.6342 2036.4222 5282.0
-1137.461 2036.4222 5282.0
-1128.288 2036.4222 5282.0
-1119.115 2036.4222 5282.0
-1109.9419 2036.4222 5282.0
-1100.7688 2036.4222 5282.0
-1091.5957 2036.4222 5282.0
-1082.4226 2036.4222 5282.0
-1073.2496 2036.4222 5282.0
-1064.0765 2036.4222 5282.0
-1054.9034 2036.4222 5282.0
-1045.7303 2036.4222 5282.0
-1036.5573 2036.4222 5282.0
-1027.3843 2036.4222 5282.0
-1018.2112 2036.4222 5282.0
-1009.038 2036.4222 5282.0
-999.8649 2036.4222 5282.0
-990.69183 2036.4222 5282.0
-996.7564 2068.0366 5364.0
-987.4409 2068.0366 5364.0
-978.12537 2068.0366 5364.0
-968.8099 2068.0366 5364.0
-959.4943 2068.0366 5364.0
-950.179 2068.0366 5364.0
-926.4804 2036.4222 5282.0
-917.3073 2036.4222 5282.0
-908.1342 2036.4222 5282.0
-898.9611 2036.4222 5282.0
-889.78815 2036.4222 5282.0
-880.61505 2036.4222 5282.0
-871.44196 2036.4222 5282.0
-862.26886 2036.4222 5282.0
-853.09576 2036.4222 5282.0
-843.9228 2036.4222 5282.0
-834.7497 2036.4222 5282.0
-838.3932 2068.0366 5364.0
-829.0777 2068.0366 5364.0
-819.76215 2068.0366 5364.0
-810.44684 2068.0366 5364.0
-801.1313 2068.0366 5364.0
-791.8158 2068.0366 5364.0
-782.50024 2068.0366 5364.0
-773.18475 2068.0366 5364.0
-763.86945 2068.0366 5364.0
-754.5539 2068.0366 5364.0
-745.2384 2068.0366 5364.0
-735.92285 2068.0366 5364.0
-726.60736 2068.0366 5364.0
-717.292 2068.0366 5364.0
-707.9765 2068.0366 5364.0
-687.98047 2036.4222 5282.0
-678.8074 2036.4222 5282.0
-669.6343 2036.4222 5282.0
-660.46136 2036.4222 5282.0
-651.2882 2036.4222 5282.0
-642.1151 2036.4222 5282.0
-632.942 2036.4222 5282.0
-633.4526 2068.0366 5364.0
-624.1372 2068.0366 5364.0
-614.8217 2068.0366 5364.0
-605.50616 2068.0366 5364.0
-596.1907 2068.0366 5364.0
-586.8752 2068.0366 5364.0
-577.5598 2068.0366 5364.0
-568.2443 2068.0366 5364.0
-558.9288 2068.0366 5364.0
-549.6133 2068.0366 5364.0
-540.2977 2068.0366 5364.0
-530.9824 2068.0366 5364.0
-521.66693 2068.0366 5364.0
-520.3748 2100.4219 5448.0
-510.9134 2100.4219 5448.0
-501.452 2100.4219 5448.0
-491.99078 2100.4219 5448.0
-482.5294 2100.4219 5448.0
-473.068 2100.4219 5448.0
-463.6066 2100.4219 5448.0
-454.1452 2100.4219 5448.0
-444.684 2100.4219 5448.0
-435.2226 2100.4219 5448.0
-425.7612 2100.4219 5448.0
-416.2998 2100.4219 5448.0
-406.8384 2100.4219 5448.0
-397.3772 2100.4219 5448.0
-394.11047 2133.9639 5535.0
-384.498 2133.9639 5535.0
-374.8855 2133.9639 5535.0
-365.273 2133.9639 5535.0
-355.6607 2133.9639 5535.0
-346.04822 2133.9639 5535.0
-336.43573 2133.9639 5535.0
-326.82324 2133.9639 5535.0
-317.2108 2133.9639 5535.0
-307.59848 2133.9639 5535.0
-297.986 2133.9639 5535.0
-288.3735 2133.9639 5535.0
-278.76102 2133.9639 5535.0
-269.14853 2133.9639 5535.0
-255.45679 2100.4219 5448.0
-249.92374 2133.9639 5535.0
-240.31125 2133.9639 5535.0
-230.69876 2133.9639 5535.0
-221.08627 2133.9639 5535.0
-211.47397 2133.9639 5535.0
-205.18025 2169.048 5626.0
-195.40973 2169.048 5626.0
-185.6392 2169.048 5626.0
-178.77586 2204.9033 5719.0
-166.09834 2169.048 5626.0
-153.79924 2133.9639 5535.0
-144.18675 2133.9639 5535.0
-134.57426 2133.9639 5535.0
-122.997604 2100.4219 5448.0
-113.53639 2100.4219 5448.0
-104.075 2100.4219 5448.0
-94.6136 2100.4219 5448.0
-83.83928 2068.0366 5364.0
-76.89953 2133.9639 5535.0
-67.287224 2133.9639 5535.0
-58.622955 2169.048 5626.0
-48.852432 2169.048 5626.0
-39.08191 2169.048 5626.0
-29.311384 2169.048 5626.0
-19.541048 2169.048 5626.0
-9.770524 2169.048 5626.0
0.0 2204.9033 5719.0
9.931845 2204.9033 5719.0
19.864069 2204.9033 5719.0
29.795914 2204.9033 5719.0
39.082096 2169.048 5626.0
48.852432 2169.048 5626.0
57.674553 2133.9639 5535.0
67.287224 2133.9639 5535.0
76.89953 2133.9639 5535.0
85.15238 2100.4219 5448.0
93.1548 2068.0366 5364.0
102.47014 2068.0366 5364.0
111.78583 2068.0366 5364.0
121.101166 2068.0366 5364.0
130.41685 2068.0366 5364.0
141.9204 2100.4219 5448.0
151.3816 2100.4219 5448.0
160.84319 2100.4219 5448.0
170.3044 2100.4219 5448.0
176.99426 2068.0366 5364.0
183.46146 2036.4222 5282.0
189.7168 2005.579 5202.0
198.75114 2005.579 5202.0
207.78514 2005.579 5202.0
213.61014 1975.8925 5125.0
222.5104 1975.8925 5125.0
228.0242 1946.9769 5050.0
240.31131 1975.8925 5125.0
245.56459 1946.9769 5050.0
254.33496 1946.9769 5050.0
263.10498 1946.9769 5050.0
271.87503 1946.9769 5050.0
284.8134 1975.8925 5125.0
289.41544 1946.9769 5050.0
298.1858 1946.9769 5050.0
306.95584 1946.9769 5050.0
315.72586 1946.9769 5050.0
324.49622 1946.9769 5050.0
333.26627 1946.9769 5050.0
342.03662 1946.9769 5050.0
345.7356 1918.8325 4977.0
349.32343 1891.4592 4906.0
357.8437 1891.4592 4906.0
371.6657 1918.8325 4977.0
374.88394 1891.4592 4906.0
383.4039 1891.4592 4906.0
391.92386 1891.4592 4906.0
406.23938 1918.8325 4977.0
408.96408 1891.4592 4906.0
417.48438 1891.4592 4906.0
420.09967 1865.2424 4838.0
422.56732 1839.4113 4771.0
430.85315 1839.4113 4771.0
427.35712 1790.0621 4643.0
441.3288 1814.3512 4706.0
449.50143 1814.3512 4706.0
457.67404 1814.3512 4706.0
575.6269 2241.915 5815.0
585.72546 2241.915 5815.0
585.9879 2204.9033 5719.0
595.9198 2204.9033 5719.0
605.8516 2204.9033 5719.0
615.7839 2204.9033 5719.0
625.7157 2204.9033 5719.0
496.04767 1720.665 4463.0
517.1185 1766.1587 4581.0
525.0741 1766.1587 4581.0
533.02997 1766.1587 4581.0
540.9855 1766.1587 4581.0
548.94135 1766.1587 4581.0
706.91016 2241.915 5815.0
705.1716 2204.9033 5719.0
715.1038 2204.9033 5719.0
725.03564 2204.9033 5719.0
734.9679 2204.9033 5719.0
744.8997 2204.9033 5719.0
754.8316 2204.9033 5719.0
612.5867 1766.1587 4581.0
620.5422 1766.1587 4581.0
628.49805 1766.1587 4581.0
794.5597 2204.9033 5719.0
627.81006 1720.665 4463.0
635.561 1720.665 4463.0
643.31165 1720.665 4463.0
651.06256 1720.665 4463.0
658.8132 1720.665 4463.0
666.5638 1720.665 4463.0
674.3147 1720.665 4463.0
682.06537 1720.665 4463.0
681.00616 1698.6892 4406.0
688.6578 1698.6892 4406.0
903.8115 2204.9033 5719.0
884.34546 2133.9639 5535.0
923.6756 2204.9033 5719.0
933.60785 2204.9033 5719.0
943.5397 2204.9033 5719.0
986.1486 2280.469 5915.0
1013.7723 2320.1797 6018.0
1042.2639 2361.0469 6124.0
1052.8994 2361.0469 6124.0
1082.8116 2403.8418 6235.0
753.5326 1656.2798 4296.0
760.99347 1656.2798 4296.0
768.4541 1656.2798 4296.0
775.915 1656.2798 4296.0
783.3756 1656.2798 4296.0
790.8362 1656.2798 4296.0
798.29706 1656.2798 4296.0
815.8859 1677.099 4350.0
823.4406 1677.099 4350.0
1009.038 2036.4222 5282.0
1018.211 2036.4222 5282.0
1011.8237 2005.579 5202.0
1020.8577 2005.579 5202.0
1029.8921 2005.579 5202.0
1054.9034 2036.4222 5282.0
1047.9601 2005.579 5202.0
1056.9944 2005.579 5202.0
1066.0284 2005.579 5202.0
1125.902 2100.4219 5448.0
1135.3632 2100.4219 5448.0
870.3859 1596.9066 4142.0
877.5794 1596.9066 4142.0
884.7725 1596.9066 4142.0
891.966 1596.9066 4142.0
888.5221 1578.0151 4093.0
885.1268 1559.5093 4045.0
892.15173 1559.5093 4045.0
899.17645 1559.5093 4045.0
1148.1538 1975.8925 5125.0
1140.1217 1946.9769 5050.0
942.31866 1596.9066 4142.0
949.51215 1596.9066 4142.0
956.70526 1596.9066 4142.0
963.89874 1596.9066 4142.0
1166.8577 1918.8325 4977.0
1175.5009 1918.8325 4977.0
1184.1445 1918.8325 4977.0
1192.7877 1918.8325 4977.0
1201.4313 1918.8325 4977.0
1210.0746 1918.8325 4977.0
1218.7179 1918.8325 4977.0
1227.3615 1918.8325 4977.0
1218.3723 1891.4592 4906.0
1226.8926 1891.4592 4906.0
1218.2891 1865.2424 4838.0
1226.6909 1865.2424 4838.0
1235.093 1865.2424 4838.0
1243.4949 1865.2424 4838.0
1022.63275 1523.654 3952.0
1029.496 1523.654 3952.0
1036.3591 1523.654 3952.0
1295.0532 1891.4592 4906.0
1303.5731 1891.4592 4906.0
1331.0822 1918.8325 4977.0
1302.309 1865.2424 4838.0
1310.7108 1865.2424 4838.0
1319.113 1865.2424 4838.0
1327.5149 1865.2424 4838.0
1335.917 1865.2424 4838.0
1344.3188 1865.2424 4838.0
1352.7208 1865.2424 4838.0
1361.1229 1865.2424 4838.0
1369.5248 1865.2424 4838.0
1377.927 1865.2424 4838.0
1386.3289 1865.2424 4838.0
1394.7307 1865.2424 4838.0
1403.1329 1865.2424 4838.0
1411.5348 1865.2424 4838.0
1419.937 1865.2424 4838.0
1408.5582 1839.4113 4771.0
1436.7407 1865.2424 4838.0
1445.143 1865.2424 4838.0
1453.5448 1865.2424 4838.0
1461.9469 1865.2424 4838.0
1470.3488 1865.2424 4838.0
1458.2719 1839.4113 4771.0
1466.5577 1839.4113 4771.0
1474.8433 1839.4113 4771.0
1483.129 1839.4113 4771.0
1512.3588 1865.2424 4838.0
1542.1355 1891.4592 4906.0
1529.1628 1865.2424 4838.0
1537.5647 1865.2424 4838.0
1545.9669 1865.2424 4838.0
1532.8428 1839.4113 4771.0
1541.1283 1839.4113 4771.0
1507.8452 1790.0621 4643.0
1495.6659 1766.1587 4581.0
1503.6217 1766.1587 4581.0
1511.5773 1766.1587 4581.0
1519.5328 1766.1587 4581.0
1527.4886 1766.1587 4581.0
1515.3336 1743.0262 4521.0
1523.1853 1743.0262 4521.0
1531.0366 1743.0262 4521.0
1538.888 1743.0262 4521.0
1546.7396 1743.0262 4521.0
1554.591 1743.0262 4521.0
1562.4426 1743.0262 4521.0
1570.294 1743.0262 4521.0
1557.8993 1720.665 4463.0
1206.7749 1326.2576 3440.0
1212.749 1326.2576 3440.0
1218.7233 1326.2576 3440.0
1189.4517 1288.0891 3341.0
1195.2538 1288.0891 3341.0
1201.0562 1288.0891 3341.0
1255.2626 1339.7515 3475.0
1274.0013 1353.2454 3510.0
1306.7201 1381.3898 3583.0
1312.9425 1381.3898 3583.0
1319.165 1381.3898 3583.0
1325.3875 1381.3898 3583.0
1317.8591 1367.1248 3546.0
1666.4098 1720.665 4463.0
1674.1604 1720.665 4463.0
1681.9114 1720.665 4463.0
1689.662 1720.665 4463.0
1697.4128 1720.665 4463.0
1621.1089 1635.8462 4243.0
1628.4774 1635.8462 4243.0
1596.9067 1596.9066 4142.0
1604.0999 1596.9066 4142.0
1630.744 1616.1836 4192.0
1638.0239 1616.1836 4192.0
1645.304 1616.1836 4192.0
1652.5842 1616.1836 4192.0
1701.0441 1656.2798 4296.0
1667.1445 1616.1836 4192.0
1737.5349 1677.099 4350.0
1745.0894 1677.099 4350.0
1668.8395 1596.9066 4142.0
1676.0326 1596.9066 4142.0
1683.2261 1596.9066 4142.0
1690.4192 1596.9066 4142.0
1697.6123 1596.9066 4142.0
1725.3853 1616.1836 4192.0
1711.999 1596.9066 4142.0
1739.9456 1616.1836 4192.0
1747.2256 1616.1836 4192.0
1775.851 1635.8462 4243.0
1783.2197 1635.8462 4243.0
1798.3184 1596.9066 4142.0
1763.2289 1559.5093 4045.0
1770.2538 1559.5093 4045.0
1777.2786 1559.5093 4045.0
1805.4769 1578.0151 4093.0
1791.3282 1559.5093 4045.0
1798.3529 1559.5093 4045.0
1784.4008 1541.3889 3998.0
1791.3438 1541.3889 3998.0
1798.2871 1541.3889 3998.0
1805.2302 1541.3889 3998.0
1812.1733 1541.3889 3998.0
1798.1864 1523.654 3952.0
1805.0496 1523.654 3952.0
1811.9131 1523.654 3952.0
1818.7762 1523.654 3952.0
1825.6394 1523.654 3952.0
1811.6368 1506.3047 3907.0
1818.4219 1506.3047 3907.0
1825.2072 1506.3047 3907.0
1831.9923 1506.3047 3907.0
1818.5399 1489.7266 3864.0
1804.9385 1473.1483 3821.0
1811.5742 1473.1483 3821.0
1798.2246 1456.9557 3779.0
1824.8458 1473.1483 3821.0
1811.3501 1456.9557 3779.0
1817.9132 1456.9557 3779.0
1824.476 1456.9557 3779.0
1831.039 1456.9557 3779.0
1837.6017 1456.9557 3779.0
1864.6606 1473.1483 3821.0
1871.2965 1473.1483 3821.0
1877.9323 1473.1483 3821.0
1863.8533 1456.9557 3779.0
1870.416 1456.9557 3779.0
1876.9788 1456.9557 3779.0
1904.4756 1473.1483 3821.0
1890.1046 1456.9557 3779.0
1917.7472 1473.1483 3821.0
1924.3829 1473.1483 3821.0
1931.0187 1473.1483 3821.0
1937.6545 1473.1483 3821.0
1922.9188 1456.9557 3779.0
1929.4819 1456.9557 3779.0
1936.0447 1456.9557 3779.0
1942.6074 1456.9557 3779.0
1928.0231 1441.1484 3738.0
1947.4979 1441.1484 3738.0
1931.757 1410.6908 3659.0
1958.7689 1425.7269 3698.0
1965.191 1425.7269 3698.0
1992.9396 1441.1484 3738.0
1999.4312 1441.1484 3738.0
2005.923 1441.1484 3738.0
2012.4146 1441.1484 3738.0
2018.9061 1441.1484 3738.0
-2301.8474 1589.7134 4142.0
-2322.354 1608.9036 4192.0
-2315.074 1608.9036 4192.0
-2335.8704 1628.4775 4243.0
-2328.5017 1628.4775 4243.0
-2350.1267 1648.8191 4296.0
-2342.666 1648.8191 4296.0
-2335.2053 1648.8191 4296.0
-2357.004 1669.5444 4350.0
-2349.4495 1669.5444 4350.0
-2341.895 1669.5444 4350.0
-2334.3406 1669.5444 4350.0
-2326.786 1669.5444 4350.0
-2349.0881 1691.0375 4406.0
-2341.4365 1691.0375 4406.0
-2333.7847 1691.0375 4406.0
-2326.133 1691.0375 4406.0
-2318.4812 1691.0375 4406.0
-2310.8293 1691.0375 4406.0
-2303.1777 1691.0375 4406.0
-2295.526 1691.0375 4406.0
-2317.4722 1712.9143 4463.0
-2309.7214 1712.9143 4463.0
-2301.9707 1712.9143 4463.0
-2324.0352 1735.1748 4521.0
-2316.1836 1735.1748 4521.0
-2338.967 1758.203 4581.0
-2331.0112 1758.203 4581.0
-2323.0557 1758.203 4581.0
-2315.0999 1758.203 4581.0
-2307.1443 1758.203 4581.0
-2269.0747 1735.1748 4521.0
-2261.2234 1735.1748 4521.0
-2253.3718 1735.1748 4521.0
-2245.5203 1735.1748 4521.0
-2237.669 1735.1748 4521.0
-2229.8174 1735.1748 4521.0
-2221.966 1735.1748 4521.0
-2214.1145 1735.1748 4521.0
-2206.263 1735.1748 4521.0
-2198.4116 1735.1748 4521.0
-2162.4573 1712.9143 4463.0
-2154.7065 1712.9143 4463.0
-2146.9558 1712.9143 4463.0
-2139.205 1712.9143 4463.0
-2131.4543 1712.9143 4463.0
-2123.7036 1712.9143 4463.0
-2115.953 1712.9143 4463.0
-2108.2021 1712.9143 4463.0
-2127.7483 1735.1748 4521.0
-2148.0308 1758.203 4581.0
-2112.0454 1735.1748 4521.0
-2160.976 1781.9989 4643.0
-2152.9126 1781.9989 4643.0
-2144.8494 1781.9989 4643.0
-2136.786 1781.9989 4643.0
-2128.7227 1781.9989 4643.0
-2120.6592 1781.9989 4643.0
-2112.596 1781.9989 4643.0
-2104.5325 1781.9989 4643.0
-2068.474 1758.203 4581.0
-2033.5306 1735.1748 4521.0
-2025.6792 1735.1748 4521.0
-2044.6072 1758.203 4581.0
-2092.2249 1806.1785 4706.0
-2056.1526 1781.9989 4643.0
-2075.8794 1806.1785 4706.0
-2067.7065 1806.1785 4706.0
-2059.5337 1806.1785 4706.0
-2051.361 1806.1785 4706.0
-2043.1884 1806.1785 4706.0
-2007.7725 1781.9989 4643.0
-1999.7091 1781.9989 4643.0
-1991.6458 1781.9989 4643.0
-2010.4973 1806.1785 4706.0
-2002.3246 1806.1785 4706.0
-2021.6953 1831.1257 4771.0
-2041.6843 1856.8405 4838.0
-2033.2823 1856.8405 4838.0
-2024.8804 1856.8405 4838.0
-2016.4784 1856.8405 4838.0
-2036.3007 1882.9391 4906.0
-2027.7806 1882.9391 4906.0
-2019.2605 1882.9391 4906.0
-2010.7405 1882.9391 4906.0
-2031.1967 1910.1892 4977.0
-2022.5532 1910.1892 4977.0
-1985.1802 1882.9391 4906.0
-2005.2665 1910.1892 4977.0
-1996.623 1910.1892 4977.0
-1987.9796 1910.1892 4977.0
-1979.3362 1910.1892 4977.0
-1970.6929 1910.1892 4977.0
-1962.0494 1910.1892 4977.0
-1953.4061 1910.1892 4977.0
-1944.7627 1910.1892 4977.0
-1936.1193 1910.1892 4977.0
-1927.476 1910.1892 4977.0
-1918.8325 1910.1892 4977.0
-1910.1892 1910.1892 4977.0
-1901.5458 1910.1892 4977.0
-1892.9023 1910.1892 4977.0
-1884.259 1910.1892 4977.0
-1848.8588 1882.9391 4906.0
-1840.3387 1882.9391 4906.0
-1858.3289 1910.1892 4977.0
-1849.6854 1910.1892 4977.0
-1841.042 1910.1892 4977.0
-1832.3987 1910.1892 4977.0
-1823.7552 1910.1892 4977.0
-1815.1118 1910.1892 4977.0
-1780.698 1882.9391 4906.0
-1747.6146 1856.8405 4838.0
-1763.6578 1882.9391 4906.0
-1730.8107 1856.8405 4838.0
-1722.4086 1856.8405 4838.0
-1714.0066 1856.8405 4838.0
-1681.9843 1831.1257 4771.0
-1697.2026 1856.8405 4838.0
-1665.413 1831.1257 4771.0
-1680.3987 1856.8405 4838.0
-1648.8417 1831.1257 4771.0
-1640.556 1831.1257 4771.0
-1632.2704 1831.1257 4771.0
-1623.9847 1831.1257 4771.0
-1638.3887 1856.8405 4838.0
-1629.9867 1856.8405 4838.0
-1644.3767 1882.9391 4906.0
-1635.8566 1882.9391 4906.0
-1650.8875 1910.1892 4977.0
-1642.244 1910.1892 4977.0
-1633.6006 1910.1892 4977.0
-1624.9573 1910.1892 4977.0
-1616.3138 1910.1892 4977.0
-1607.6705 1910.1892 4977.0
-1599.0271 1910.1892 4977.0
-1590.3837 1910.1892 4977.0
-1604.9404 1938.2068 5050.0
-1596.1703 1938.2068 5050.0
-1587.4001 1938.2068 5050.0
-1578.63 1938.2068 5050.0
-1569.8597 1938.2068 5050.0
-1561.0896 1938.2068 5050.0
-1552.3195 1938.2068 5050.0
-1543.5493 1938.2068 5050.0
-1534.7792 1938.2068 5050.0
-1526.0089 1938.2068 5050.0
-1495.3065 1910.1892 4977.0
-1486.6631 1910.1892 4977.0
-1499.6985 1938.2068 5050.0
-1469.3762 1910.1892 4977.0
-1482.1581 1938.2068 5050.0
-1473.388 1938.2068 5050.0
-1464.6178 1938.2068 5050.0
-1455.8477 1938.2068 5050.0
-1447.0775 1938.2068 5050.0
-1438.3073 1938.2068 5050.0
-1429.5371 1938.2068 5050.0
-1420.767 1938.2068 5050.0
-1411.9968 1938.2068 5050.0
-1403.2267 1938.2068 5050.0
-1394.4564 1938.2068 5050.0
-1385.6863 1938.2068 5050.0
-1397.3655 1966.9921 5125.0
-1388.465 1966.9921 5125.0
-1379.5646 1966.9921 5125.0
-1391.2574 1996.5449 5202.0
-1361.7637 1966.9921 5125.0
-1352.8634 1966.9921 5125.0
-1324.2952 1938.2068 5050.0
-1315.525 1938.2068 5050.0
-1306.7548 1938.2068 5050.0
-1297.9846 1938.2068 5050.0
-1289.2146 1938.2068 5050.0
-1280.4443 1938.2068 5050.0
-1271.6742 1938.2068 5050.0
-1262.9039 1938.2068 5050.0
-1254.1338 1938.2068 5050.0
-1245.3638 1938.2068 5050.0
-1236.5935 1938.2068 5050.0
-1227.8234 1938.2068 5050.0
-1219.0531 1938.2068 5050.0
-1210.283 1938.2068 5050.0
-1201.5128 1938.2068 5050.0
-1192.7427 1938.2068 5050.0
-1183.9725 1938.2068 5050.0
-1175.2023 1938.2068 5050.0
-1166.4321 1938.2068 5050.0
-1157.662 1938.2068 5050.0
-1165.9546 1966.9921 5125.0
-1157.0542 1966.9921 5125.0
-1148.1537 1966.9921 5125.0
-1139.2533 1966.9921 5125.0
-1147.3358 1996.5449 5202.0
-1155.8073 2027.2491 5282.0
-1146.6342 2027.2491 5282.0
-1137.461 2027.2491 5282.0
-1128.288 2027.2491 5282.0
-1119.115 2027.2491 5282.0
-1109.9419 2027.2491 5282.0
-1100.7688 2027.2491 5282.0
-1091.5957 2027.2491 5282.0
-1082.4226 2027.2491 5282.0
-1073.2496 2027.2491 5282.0
-1064.0765 2027.2491 5282.0
-1054.9034 2027.2491 5282.0
-1045.7303 2027.2491 5282.0
-1036.5573 2027.2491 5282.0
-1027.3843 2027.2491 5282.0
-1018.2112 2027.2491 5282.0
-1009.038 2027.2491 5282.0
-1015.38727 2058.721 5364.0
-1006.0718 2058.721 5364.0
-996.7564 2058.721 5364.0
-987.4409 2058.721 5364.0
-978.12537 2058.721 5364.0
-968.8099 2058.721 5364.0
-959.4943 2058.721 5364.0
-950.179 2058.721 5364.0
-926.4804 2027.2491 5282.0
-917.3073 2027.2491 5282.0
-908.1342 2027.2491 5282.0
-898.9611 2027.2491 5282.0
-889.78815 2027.2491 5282.0
-880.61505 2027.2491 5282.0
-871.44196 2027.2491 5282.0
-862.26886 2027.2491 5282.0
-853.09576 2027.2491 5282.0
-857.02423 2058.721 5364.0
-834.7497 2027.2491 5282.0
-838.3932 2058.721 5364.0
-829.0777 2058.721 5364.0
-819.76215 2058.721 5364.0
-810.44684 2058.721 5364.0
-801.1313 2058.721 5364.0
-791.8158 2058.721 5364.0
-782.50024 2058.721 5364.0
-773.18475 2058.721 5364.0
-763.86945 2058.721 5364.0
-754.5539 2058.721 5364.0
-745.2384 2058.721 5364.0
-735.92285 2058.721 5364.0
-726.60736 2058.721 5364.0
-717.292 2058.721 5364.0
-707.9765 2058.721 5364.0
-698.661 2058.721 5364.0
-678.8074 2027.2491 5282.0
-669.6343 2027.2491 5282.0
-660.46136 2027.2491 5282.0
-651.2882 2027.2491 5282.0
-642.1151 2027.2491 5282.0
-632.942 2027.2491 5282.0
-623.7689 2027.2491 5282.0
-624.1372 2058.721 5364.0
-614.8217 2058.721 5364.0
-605.50616 2058.721 5364.0
-596.1907 2058.721 5364.0
-586.8752 2058.721 5364.0
-577.5598 2058.721 5364.0
-568.2443 2058.721 5364.0
-558.9288 2058.721 5364.0
-549.6133 2058.721 5364.0
-540.2977 2058.721 5364.0
-530.9824 2058.721 5364.0
-521.66693 2058.721 5364.0
-520.3748 2090.9604 5448.0
-510.9134 2090.9604 5448.0
-501.452 2090.9604 5448.0
-491.99078 2090.9604 5448.0
-475.0895 2058.721 5364.0
-465.774 2058.721 5364.0
-456.45847 2058.721 5364.0
-447.14297 2058.721 5364.0
-444.684 2090.9604 5448.0
-435.2226 2090.9604 5448.0
-425.7612 2090.9604 5448.0
-416.2998 2090.9604 5448.0
-406.8384 2090.9604 5448.0
-397.3772 2090.9604 5448.0
-387.9158 2090.9604 5448.0
-384.498 2124.3513 5535.0
-374.8855 2124.3513 5535.0
-365.273 2124.3513 5535.0
-355.6607 2124.3513 5535.0
-346.04822 2124.3513 5535.0
-336.43573 2124.3513 5535.0
-326.82324 2124.3513 5535.0
-317.2108 2124.3513 5535.0
-307.59848 2124.3513 5535.0
-297.986 2124.3513 5535.0
-288.3735 2124.3513 5535.0
-278.76102 2124.3513 5535.0
-264.918 2090.9604 5448.0
-255.45679 2090.9604 5448.0
-249.92374 2124.3513 5535.0
-240.31125 2124.3513 5535.0
-230.69876 2124.3513 5535.0
-221.08627 2124.3513 5535.0
-214.95078 2159.2776 5626.0
-205.18025 2159.2776 5626.0
-195.40973 2159.2776 5626.0
-188.7079 2194.9712 5719.0
-178.77586 2194.9712 5719.0
-166.09834 2159.2776 5626.0
-156.32782 2159.2776 5626.0
-146.5573 2159.2776 5626.0
-134.57426 2124.3513 5535.0
-122.997604 2090.9604 5448.0
-115.34947 2124.3513 5535.0
-104.075 2090.9604 5448.0
-94.6136 2090.9604 5448.0
-83.83928 2058.721 5364.0
-76.89953 2124.3513 5535.0
-67.287224 2124.3513 5535.0
-58.622955 2159.2776 5626.0
-48.852432 2159.2776 5626.0
-39.08191 2159.2776 5626.0
-29.311384 2159.2776 5626.0
-19.541048 2159.2776 5626.0
-9.770524 2159.2776 5626.0
0.0 2194.9712 5719.0
9.931845 2194.9712 5719.0
19.864069 2194.9712 5719.0
29.311384 2159.2776 5626.0
39.082096 2159.2776 5626.0
48.06225 2124.3513 5535.0
57.674553 2124.3513 5535.0
67.287224 2124.3513 5535.0
76.89953 2124.3513 5535.0
85.15238 2090.9604 5448.0
94.6136 2090.9604 5448.0
104.074814 2090.9604 5448.0
113.53639 2090.9604 5448.0
122.997604 2090.9604 5448.0
132.45918 2090.9604 5448.0
141.9204 2090.9604 5448.0
153.79906 2124.3513 5535.0
163.41173 2124.3513 5535.0
173.02402 2124.3513 5535.0
179.76598 2090.9604 5448.0
186.3096 2058.721 5364.0
192.6344 2027.2491 5282.0
201.80768 2027.2491 5282.0
207.78514 1996.5449 5202.0
